0,0,0,0,0,0,0,0,0,0,0,0,0,0,0,0,0,0,0,0,0,0,0,0,0,0,0,0,0,0,0,0,0,0,0,0,0,0,0,0,0,0,0,0,0,0,0,0,0,0,0,0,0,0,0,0,0,0,0,0,0,0,0,0,0,0,0,0,0,0,0,0,0,0,0,0,0,0,0,0,0,0,0,0,0,0,0,0,0,0,0,0,0,0,0,0,0,0,0,0,0,0,0,0,0,0,0,0,0,0,0,0,0,0,0,0,0,0,0,0,0,0,0,0,0,0,0,0,0,0,0,0,0,0,0,0,0,0,0,0,0,0,0,0,0,0,0,0,0,0,0,0,0,0,0,0,0,0,0,0,0,0,0,0,0,0,0,0,0,0,0,0,0,0,0,0,0,0,0,0,0,0,0,0,0,3059,3059,3059,3059,3059,3074,3074,3074,3074,3089,3089,3105,3105,3120,3120,3120,3136,3152,3152,3185,0,0,0,0,0,0,3340,3340,3358,3358,3395,3395,3395,3395,3395,3414,3414,3414,3414,3414,3414,3414,3395,3395,3395,3395,3395,3358,3340,3340,3340,3304,3304,3269,3269,3218,3168,3168,3105,3105,3059,2999,2999,2956,2956,2914,2874,2874,2860,2847,2847,2847,2847,2847,2847,2847,2821,2821,2821,2821,2834,2834,2834,2847,2847,2847,2860,2860,2860,2860,2874,2874,2860,2860,2860,2860,2860,2847,2847,2847,2834,2821,2821,2821,2834,2834,2821,2821,2821,2821,2821,2808,2808,2808,2808,2808,2808,2808,2821,2821,2834,2834,2834,2860,2860,2874,2901,2901,2914,2928,2928,2928,2928,2942,2970,2970,2985,3014,3014,3044,3074,3074,3074,3074,3089,3089,3089,3089,3089,3089,3089,3074,3044,3044,3044,3044,3044,3044,3044,3044,3044,3044,3044,3044,3044,3044,3044,3044,3044,3044,3029,3029,3014,2999,2999,2985,2970,2970,2970,2970,2970,2970,2970,2970,2985,2999,2999,3014,3014,3029,3044,3044,3059,3074,3074,3105,3105,3105,3105,3105,3120,3120,3120,3120,3120,3120,3120,3120,3120,3136,3136,3136,3152,3152,3168,3168,3185,3201,3201,3235,3252,3252,3304,3340,3340,3395,3395,3433,3491,3491,3551,3613,3613,3700,3767,3767,3814,3886,3886,3986,4065,4065,4119,4119,4203,4611,4611,4413,4413,4413,4477,4543,4543,4577,4543,4543,4543,4510,4477,4477,4413,4413,4351,4291,4291,4232,4232,4175,4147,4147,4147,4119,4119,4119,4119,4119,0,0,0,0,5517,5517,5517,5829,5829,5999,5999,5999,5999,6057,6057,6057,6057,6057,6057,6057,6057,6057,6057,0,0,0,0,0,0,0,0,0,0,0,0,0,0,0,0,0,0,0,0,0,0,0,0,0,0,0,0,0,0,0,0,0,0,0,0,0,0,0,0,2386,2367,2367,2332,2332,2255,2223,2223,2223,0,0,0,1850,1850,1775,1736,1736,1697,1697,1688,1684,1684,1684,1688,1688,1688,1693,1693,1702,1721,1721,1740,1760,1760,1801,1801,1801,1817,1817,1828,1833,1833,1833,1833,1828,1828,1823,1817,1817,1807,1791,1791,1781,1781,1765,1755,1755,1740,1740,1726,1712,1712,1702,1702,1688,1674,1674,1661,1648,1648,1635,1635,1617,1605,1605,1592,1592,1580,1568,1568,1560,1560,1549,1541,1541,1541,1537,1537,1529,1529,1526,1522,1522,1514,1514,1511,1507,1507,1507,3838,3838,3838,3838,3838,3838,3838,3862,3862,3862,3886,3886,3886,3886,3886,3886,3886
0,0,0,0,0,0,0,0,0,0,0,0,0,0,0,0,0,0,0,0,0,0,0,0,0,0,0,0,0,0,0,0,0,0,0,0,0,0,0,0,0,0,0,0,0,0,0,0,0,0,0,0,0,0,0,0,0,0,0,0,0,0,0,0,0,0,0,0,0,0,0,0,0,0,0,0,0,0,0,0,0,0,0,0,0,0,0,0,0,0,0,0,0,0,0,0,0,0,0,0,0,0,0,0,0,0,0,0,0,0,0,0,0,0,0,0,0,0,0,0,0,0,0,0,0,0,0,0,0,0,0,0,0,0,0,0,0,0,0,0,0,0,0,0,0,0,0,0,0,0,0,0,0,0,0,0,0,0,0,0,0,0,0,0,0,0,0,0,0,0,0,0,0,0,0,0,0,0,0,0,0,0,0,0,0,3059,3059,3059,3059,3059,3074,3074,3074,3074,3089,3089,3105,3105,3120,3120,3120,3136,3152,3152,3185,3218,3218,3252,3252,3286,3304,3304,3340,3358,3358,3376,3376,3376,3376,3376,3376,3395,3395,3395,3395,3376,3376,3358,3358,3358,3340,3340,3304,3286,3286,3269,3235,3235,3185,3185,3136,3089,3089,3044,3044,2999,2956,2956,2914,2914,2874,2860,2860,2860,2847,2847,2847,2847,2847,2847,2847,2821,2821,2821,2821,2834,2834,2834,2847,2847,2847,2860,2860,2860,2860,2874,2874,2860,2860,2860,2860,2860,2847,2847,2847,2834,2821,2821,2821,2834,2834,2821,2821,2821,2808,2808,2808,2808,2796,2796,2808,2808,2808,2808,2808,2808,2808,2834,2847,2847,2860,2887,2887,2887,2901,2901,2914,2914,2928,2956,2956,2970,2999,2999,3029,3059,3059,3059,3059,3059,3074,3074,3074,3074,3074,3074,3059,3044,3044,3044,3044,3044,3044,3044,3044,3044,3044,3044,3044,3044,3044,3044,3044,3044,3044,3029,3029,3014,2999,2999,2985,2970,2970,2970,2970,2970,2970,2970,2970,2985,2999,2999,3014,3029,3029,3044,3044,3059,3074,3074,3105,3105,3105,3105,3105,3120,3120,3120,3120,3120,3105,3105,3105,3105,3120,3120,3136,3152,3152,3168,3168,3168,3185,3185,3218,3235,3235,3252,3269,3269,3286,3286,3304,3340,3340,3376,3433,3433,3471,3531,3531,3571,3571,3634,3722,3722,3791,3838,3838,3935,3986,3986,4065,4147,4147,4203,4203,4291,4321,4321,4351,4351,4351,4351,4351,4321,4321,4291,4261,4261,4175,4175,4175,4147,4147,4147,4119,4119,4119,4119,4119,0,0,0,0,5517,5517,5517,5829,5829,5999,5999,5999,5999,6057,6057,6057,6057,6057,6057,6057,6057,0,0,0,0,0,0,0,0,0,0,0,0,0,0,0,0,0,0,0,0,0,0,0,0,0,0,0,0,0,0,0,0,0,0,0,0,0,0,0,0,0,0,2386,2367,2367,2358,2323,2288,2223,2223,2176,2176,2176,0,0,0,1796,1740,1740,1697,1697,1679,1670,1670,1670,1688,1688,1688,1693,1693,1702,1721,1721,1740,1760,1760,1801,1801,1801,1817,1817,1828,1833,1833,1833,1833,1828,1828,1823,1817,1817,1807,1791,1791,1781,1781,1765,1755,1755,1740,1740,1726,1712,1712,1702,1702,1688,1674,1674,1661,1643,1643,1630,1630,1613,1601,1601,1584,1584,1572,1564,1564,1552,1552,1541,1537,1537,1533,1529,1529,1526,1526,1518,1511,1511,1507,1507,1503,1500,1500,1496,1496,3862,3862,3862,3862,3862,3862,3886,3886,3886,3910,3910,3910,3910,3910,3935,3935
0,0,0,0,0,0,0,0,0,0,0,0,0,0,0,0,0,0,0,0,0,0,0,0,0,0,0,0,0,0,0,0,0,0,0,0,0,0,0,0,0,0,0,0,0,0,0,0,0,0,0,0,0,0,0,0,0,0,0,0,0,0,0,0,0,0,0,0,0,0,0,0,0,0,0,0,0,0,0,0,0,0,0,0,0,0,0,0,0,0,0,0,0,0,0,0,0,0,0,0,0,0,0,0,0,0,0,0,0,0,0,0,0,0,0,0,0,0,0,0,0,0,0,0,0,0,0,0,0,0,0,0,0,0,0,0,0,0,0,0,0,0,0,0,0,0,0,0,0,0,0,0,0,0,0,0,0,0,0,0,0,0,0,0,0,0,0,0,0,0,0,0,0,0,0,0,0,0,0,0,0,0,0,0,0,3059,3059,3059,3059,3059,3074,3074,3074,3074,3105,3105,3105,3105,3120,3136,3136,3152,3168,3168,3201,3218,3218,3252,3252,3286,3304,3304,3340,3340,3340,3358,3376,3376,3376,3376,3376,3395,3395,3395,3395,3376,3376,3358,3358,3358,3340,3340,3304,3286,3286,3269,3235,3235,3185,3185,3136,3089,3089,3044,3044,2999,2956,2956,2914,2914,2874,2860,2860,2847,2847,2847,2834,2834,2834,2834,2834,2808,2808,2808,2808,2821,2821,2834,2834,2834,2847,2847,2847,2860,2860,2860,2860,2860,2847,2847,2847,2847,2834,2834,2834,2821,2821,2821,2821,2821,2821,2808,2808,2808,2808,2808,2808,2808,2796,2796,2808,2808,2808,2808,2808,2808,2808,2834,2847,2847,2860,2874,2874,2874,2901,2901,2914,2914,2928,2956,2956,2970,2999,2999,3029,3059,3059,3059,3059,3059,3074,3074,3074,3074,3074,3074,3059,3044,3044,3044,3044,3044,3044,3044,3044,3044,3044,3044,3044,3044,3044,3044,3044,3044,3044,3029,3029,2999,2999,2999,2985,2970,2970,2956,2956,2956,2956,2970,2970,2970,2985,2985,2999,3014,3014,3029,3029,3059,3074,3074,3074,3089,3089,3089,3089,3089,3089,3089,3105,3105,3105,3105,3105,3105,3105,3105,3105,3120,3120,3136,3136,3168,3185,3185,3201,3218,3218,3235,3252,3252,3269,3269,3304,3304,3304,3376,3433,3433,3471,3531,3531,3571,3571,3634,3722,3722,3791,3838,3838,3935,3986,3986,4065,4147,4147,4203,4203,4291,4321,4321,4351,4351,4351,4351,4351,4321,4321,4291,4261,4261,4175,4175,4175,4119,4119,4119,4119,4119,4092,4092,4092,0,0,0,0,5517,5517,5517,5829,5829,5999,5999,5999,5999,6057,6057,6057,6057,6057,6057,6057,6057,0,0,0,0,0,0,0,0,0,0,0,0,0,0,0,0,0,0,0,0,0,0,0,0,0,0,0,0,0,0,0,0,0,0,0,0,0,0,0,0,0,0,2386,2376,2376,2376,2323,2323,2255,2255,2176,2176,2176,0,0,0,0,0,0,1697,1697,1679,1670,1670,1670,1670,1670,1670,1674,1674,1679,1693,1693,1712,1736,1736,1801,1801,1796,1796,1796,1807,1817,1817,1817,1817,1817,1817,1807,1801,1801,1796,1786,1786,1770,1770,1760,1750,1750,1736,1736,1726,1712,1712,1702,1688,1688,1674,1674,1661,1643,1643,1626,1626,1609,1597,1597,1580,1580,1568,1560,1560,1549,1549,1537,1537,1537,1533,1529,1529,1526,1526,1518,1511,1511,1507,1507,1503,1500,1500,1496,1496,3862,3886,3886,3886,3886,3886,3886,3886,3910,3910,3910,3935,3935,3935,3961,3961
0,0,0,0,0,0,0,0,0,0,0,0,0,0,0,0,0,0,0,0,0,0,0,0,0,0,0,0,0,0,0,0,0,0,0,0,0,0,0,0,0,0,0,0,0,0,0,0,0,0,0,0,0,0,0,0,0,0,0,0,0,0,0,0,0,0,0,0,0,0,0,0,0,0,0,0,0,0,0,0,0,0,0,0,0,0,0,0,0,0,0,0,0,0,0,0,0,0,0,0,0,0,0,0,0,0,0,0,0,0,0,0,0,0,0,0,0,0,0,0,0,0,0,0,0,0,0,0,0,0,0,0,0,0,0,0,0,0,0,0,0,0,0,0,0,0,0,0,0,0,0,0,0,0,0,0,0,0,0,0,0,0,0,0,0,0,0,0,0,0,0,0,0,0,0,0,0,0,0,0,0,0,0,0,0,3059,3059,3059,3059,3059,3074,3074,3074,3089,0,3105,3105,3120,3120,3136,3136,3152,3168,3168,3201,3218,3218,3252,3252,3286,3304,3304,3340,3340,3340,3358,3358,3358,3358,3358,3376,3376,3376,3376,3376,3340,3340,3322,3322,3322,3286,3286,3269,3235,3235,3201,3152,3152,3120,3120,3074,3029,3029,2985,2985,2956,2928,2928,2887,2887,2860,2834,2834,2834,2821,2821,2821,2821,2821,2821,2821,2808,2808,2808,2796,2796,2796,2808,2821,2821,2821,2834,2834,2847,2847,2847,2847,2847,2847,2847,2847,2847,2834,2834,2834,2821,2821,2821,2821,2821,2821,2808,2808,2808,2808,2808,2808,2808,2808,2808,2808,2808,2821,2821,2821,2821,2821,2834,2847,2847,2860,2874,2874,2874,2887,2887,2901,2901,2914,2942,2942,2942,2985,2985,3014,3044,3044,3059,3059,3059,3059,3059,3059,3074,3074,3074,3059,3044,3044,3029,3029,3044,3044,3044,3044,3044,3044,3044,3044,3044,3044,3044,3044,3044,3044,3029,3029,2999,2999,2999,2985,2970,2970,2956,2956,2956,2956,2970,2970,2970,2985,2985,2999,2999,2999,3029,3029,3059,3074,3074,3074,3089,3089,3089,3089,3089,3089,3089,3105,3105,3105,3105,3105,3105,3105,3105,3105,3120,3120,3136,3136,3168,3185,3185,3201,3218,3218,3235,3252,3252,3269,3269,3304,3304,3304,3322,3340,3340,3358,3376,3376,3414,3414,3452,3491,3491,3551,3592,3592,3656,3722,3722,3791,3791,3886,3961,3961,4038,4092,4092,4147,4175,4175,4203,4232,4232,4232,4232,4203,4203,4175,4175,4147,4119,4119,4119,4092,4092,4092,4092,4092,4147,0,0,0,0,0,0,0,0,0,0,0,0,0,0,0,0,0,0,0,0,0,0,0,0,0,0,0,0,0,0,0,0,0,0,0,0,0,0,0,0,0,0,0,0,0,0,0,0,0,0,0,0,0,0,0,0,0,0,0,0,0,0,2376,2367,2367,2367,2323,2323,2255,2255,2176,2176,2176,0,0,0,0,1770,1770,1697,1697,1670,1656,1656,1656,1656,1652,1652,1652,1652,1656,1665,1665,1684,1697,1697,0,1750,1750,1796,1786,1786,1796,1796,1801,1801,1801,1801,1796,1796,1801,1796,1786,1786,1770,1770,1760,1750,1750,1736,1736,1726,1712,1712,1702,1688,1688,1674,1674,1661,1643,1643,1626,1626,1609,1597,1597,1580,1580,1568,1560,1560,1549,1549,1537,1533,1533,1529,1526,1526,1518,1518,1514,1507,1507,1500,1500,1496,1492,1492,1485,1482,1482,1482,3886,3886,3886,3886,3886,3886,3910,3910,3910,3935,3935,3935,3961,3961
0,0,0,0,0,0,0,0,0,0,0,0,0,0,0,0,0,0,0,0,0,0,0,0,0,0,0,0,0,0,0,0,0,0,0,0,0,0,0,0,0,0,0,0,0,0,0,0,0,0,0,0,0,0,0,0,0,0,0,0,0,0,0,0,0,0,0,0,0,0,0,0,0,0,0,0,0,0,0,0,0,0,0,0,0,0,0,0,0,0,0,0,0,0,0,0,0,0,0,0,0,0,0,0,0,0,0,0,0,0,0,0,0,0,0,0,0,0,0,0,0,0,0,0,0,0,0,0,0,0,0,0,0,0,0,0,0,0,0,0,0,0,0,0,0,0,0,0,0,0,0,0,0,0,0,0,0,0,0,0,0,0,0,0,0,0,0,0,0,0,0,0,0,0,0,0,0,0,0,0,0,0,0,0,0,3059,3059,3059,3059,3059,3074,3074,3074,3089,3105,3105,3105,3120,3120,3136,3136,3152,3168,3168,3201,3218,3218,3252,3252,3269,3304,3304,3322,3340,3340,3358,3358,3358,3358,3358,3358,3358,3358,3340,3340,3322,3322,3286,3269,3269,3252,3252,3218,3168,3168,3120,3074,3074,3029,3029,3029,3029,3029,2985,2985,2956,2928,2928,2887,2887,2860,2834,2834,2834,2821,2821,2821,2821,2821,2821,2821,2808,2808,2808,2796,2796,2796,2808,2821,2821,2821,2834,2834,2847,2847,2847,2847,2847,2847,2847,2834,2834,2834,2834,2834,2821,2808,2808,2808,2808,2808,2808,2808,2808,2808,2808,2808,2808,2808,2808,2808,2808,2821,2821,2821,2821,2821,2834,2834,2834,2847,2874,2874,2874,2887,2887,2901,2901,2914,2914,2914,2928,2956,2956,2999,3014,3014,3029,3029,3029,3044,3044,3044,3059,3059,3059,3059,3044,3044,3029,3029,3044,3044,3044,3044,3044,3044,3044,3044,3059,3059,3059,3044,3044,3044,3044,3029,3029,3014,3014,2999,2985,2985,2970,2970,2970,2970,2970,2970,2970,2985,2985,2999,2999,2999,3029,3029,3029,3059,3059,3059,3074,3074,3074,3074,3074,3074,3074,3074,3074,3074,3074,3074,3074,3089,3089,3105,3105,3105,3120,3136,3136,3152,3152,3185,3201,3201,3218,3235,3235,3269,3269,3269,3286,3286,3304,3304,3304,3304,3304,3322,3322,3322,3340,3376,3376,3395,3414,3414,3471,3471,3511,3571,3571,3656,3745,3745,3838,3910,3910,4147,4175,4175,4203,4232,4232,4232,4232,4203,4203,4175,4175,4147,4119,4119,4119,4092,4092,4092,4092,4092,4147,0,0,0,0,0,0,0,0,0,0,0,0,0,0,0,0,0,0,0,0,0,0,0,0,0,0,0,0,0,0,0,0,0,0,0,0,0,0,0,0,0,0,0,0,0,0,0,0,0,0,0,0,0,0,0,0,0,0,2386,2386,2376,2376,2367,2367,2367,2358,2332,2332,2280,2280,2215,2215,0,0,0,0,0,1770,1770,1702,1702,1670,1656,1656,1656,1656,1652,1652,1652,1652,1656,1665,1665,1684,1697,1697,0,1750,1750,0,1786,1786,1796,1796,1801,1801,1801,1801,1796,1791,1791,1781,1775,1775,1765,1765,1755,1745,1745,1736,1736,1721,1712,1712,1697,1688,1688,1674,1674,1656,1643,1643,1626,1626,1609,1597,1597,1580,1580,1568,1556,1556,1545,1545,1537,1529,1529,1522,1518,1518,1511,1511,1507,1500,1500,1492,1492,1489,1485,1485,1482,1478,1478,1471,1471,1468,1468,3910,3910,3910,3910,3935,3935,3935,3935,3935,3961,3961
0,0,0,0,0,0,0,0,0,0,0,0,0,0,0,0,0,0,0,0,0,0,0,0,0,0,0,0,0,0,0,0,0,0,0,0,0,0,0,0,0,0,0,0,0,0,0,0,0,0,0,0,0,0,0,0,0,0,0,0,0,0,0,0,0,0,0,0,0,0,0,0,0,0,0,0,0,0,0,0,0,0,0,0,0,0,0,0,0,0,0,0,0,0,0,0,0,0,0,0,0,0,0,0,0,0,0,0,0,0,0,0,0,0,0,0,0,0,0,0,0,0,0,0,0,0,0,0,0,0,0,0,0,0,0,0,0,0,0,0,0,0,0,0,0,0,0,0,0,0,0,0,0,0,0,0,0,0,0,0,0,0,0,0,0,0,0,0,0,0,0,0,0,0,0,0,0,0,0,0,0,0,0,0,0,3059,3059,3059,3074,3074,3074,3074,3074,3089,3105,3105,3120,3136,3136,3136,3136,3152,3168,3168,3201,3218,3218,3252,3252,3269,3304,3304,3322,3340,3340,3358,3358,3358,3358,3358,3358,3358,3358,3340,3340,3322,3322,3286,3269,3269,3252,3252,3218,3168,3168,3120,3074,3074,3029,3029,2999,2970,2970,2928,2928,2914,2887,2887,2860,2860,2834,2834,2834,2821,2821,2821,2821,2821,2821,2808,2808,2796,2796,2796,2796,2796,2796,2808,2808,2808,2821,2821,2821,2834,2834,2834,2834,2834,2847,2847,2834,2834,2821,2821,2821,2821,2808,2808,2808,2808,2808,2808,2808,2808,2796,2796,2796,2796,2808,2808,2808,2808,2821,2821,2821,2821,2834,2834,2834,2834,2847,2874,2874,2874,2887,2887,2901,2901,2914,2914,2914,2928,2956,2956,2999,3014,3014,3029,3029,3029,3044,3044,3044,3059,3059,3059,3059,3044,3044,3029,3029,3044,3044,3044,3044,3044,3044,3044,3044,3059,3044,3044,3044,3044,3044,3044,3029,3029,3014,3014,2999,2985,2985,2970,2970,2970,2970,2970,2970,2970,2985,2985,2999,2999,2999,3029,3029,3029,3044,3044,3059,3059,3059,3059,3044,3044,3059,3059,3059,3059,3059,3059,3059,3059,3059,3059,3059,3074,3074,3105,3120,3120,3152,3152,3185,3201,3201,3218,3235,3235,3269,3269,3269,3286,3286,3304,3304,3304,3304,3304,3322,3322,3322,3340,3376,3376,3395,3414,3414,3471,3471,3511,3571,3571,3656,3745,3745,3838,3910,3910,3986,4065,4065,4092,4092,4147,4175,4175,4175,4175,4147,4147,4119,4119,4119,4119,4092,4092,4092,4092,4092,4119,0,0,0,0,0,0,0,0,0,0,0,0,0,0,0,0,0,0,0,0,0,0,0,0,0,0,0,0,0,0,0,0,0,0,0,0,0,0,0,0,0,0,0,0,0,0,0,0,0,0,0,0,0,0,0,0,0,0,2386,2386,2376,2376,2367,2367,2367,2358,2340,2340,2305,2305,2255,2255,0,0,0,0,0,1770,1770,1702,1702,1670,1656,1656,1643,1643,1643,1643,1643,1639,1639,1648,1648,1661,1661,1674,1697,1697,1721,1740,1740,1775,1775,1775,1786,1791,1791,1791,1786,1781,1781,1775,1765,1765,1755,1755,1750,1740,1740,1726,1726,1716,1707,1707,1693,1684,1684,1670,1670,1656,1639,1639,1622,1622,1609,1597,1597,1580,1580,1568,1556,1556,1545,1545,1537,1529,1529,1522,1518,1518,1511,1511,1507,1500,1500,1492,1492,1489,1485,1485,1482,1478,1478,1471,1471,1468,1468,3910,3910,3910,3910,3935,3935,3935,3935,3935,3961,3961
0,0,0,0,0,0,0,0,0,0,0,0,0,0,0,0,0,0,0,0,0,0,0,0,0,0,0,0,0,0,0,0,0,0,0,0,0,0,0,0,0,0,0,0,0,0,0,0,0,0,0,0,0,0,0,0,0,0,0,0,0,0,0,0,0,0,0,0,0,0,0,0,0,0,0,0,0,0,0,0,0,0,0,0,0,0,0,0,0,0,0,0,0,0,0,0,0,0,0,0,0,0,0,0,0,0,0,0,0,0,0,0,0,0,0,0,0,0,0,0,0,0,0,0,0,0,0,0,0,0,0,0,0,0,0,0,0,0,0,0,0,0,0,0,0,0,0,0,0,0,0,0,0,0,0,0,0,0,0,0,0,0,0,0,0,0,0,0,0,0,0,0,0,0,0,0,0,0,0,0,0,0,0,0,0,3059,3059,3059,0,3074,3074,3074,3074,3089,3105,3105,3120,3136,3136,3136,3136,3152,3168,3168,3201,3218,3218,3252,3252,3269,3286,3286,3322,3340,3340,3340,3340,3340,3340,3340,3358,3358,3358,3340,3340,3304,3304,3269,3235,3235,3201,3201,3152,3105,3105,3059,3059,3014,2970,2970,2942,2914,2914,2887,2887,2874,2860,2860,2847,2847,2821,2808,2808,2808,2808,2808,2808,2808,2808,2796,2796,2796,2796,2796,2796,2796,2796,2808,2808,2808,2821,2821,2821,2834,2834,2834,2834,2834,2847,2847,2834,2834,2821,2821,2821,2821,2808,2808,2808,2808,2808,2808,2808,2808,2796,2796,2796,2796,2808,2808,2808,2808,2821,2821,2821,2821,2834,2834,2834,2834,2847,2874,2874,2874,2887,2887,2901,2901,2914,2914,2914,2928,2956,2956,2985,2999,2999,3014,3014,3014,3014,3014,3029,3044,3044,3059,3044,3014,3014,3014,3014,3014,3014,3029,3029,3029,3029,3029,3029,3044,3044,3044,3044,3044,3044,3044,3029,3029,3029,3029,3014,2999,2999,2985,2985,2985,2985,2985,2985,2985,2985,2985,2999,3014,3014,3029,3029,3029,3044,3044,3059,3059,3059,3059,3044,3044,3059,3059,3059,3059,3059,3059,3059,3059,3059,3059,3059,3074,3074,3105,3120,3120,3120,3120,3136,3168,3168,3185,3201,3201,3218,3218,3235,3252,3252,3252,3269,3269,3269,3269,3269,3286,3286,3304,3322,3322,3322,3340,3340,3376,3376,3395,3433,3433,3491,3571,3571,3656,3767,3767,3862,3910,3910,3986,3986,4065,4092,4092,4119,4147,4119,4119,4119,4119,4119,4092,4092,4092,4065,4065,4065,4092,4119,4119,0,0,0,0,0,0,0,0,0,0,0,0,0,0,0,0,0,0,0,0,0,0,0,0,0,0,0,0,0,0,0,0,0,0,0,0,0,0,0,0,0,0,0,0,0,0,0,0,0,0,0,0,0,0,0,0,2386,2386,2376,2376,2367,2358,2358,2358,2340,2340,2305,2305,2255,2215,2215,2215,0,0,0,0,0,1726,1726,1679,1656,1656,1639,1639,1635,1630,1630,1626,1626,1630,1630,1639,1639,1652,1670,1670,1721,1740,1740,1775,1775,1775,1786,1791,1791,1791,1786,1781,1781,1775,1765,1765,1755,1755,1750,1740,1740,1726,1726,1716,1707,1707,1693,1684,1684,1670,1670,1656,1639,1639,1622,1622,1609,1592,1592,1580,1580,1568,1556,1556,1545,1545,1533,1526,1526,1518,1514,1514,1507,1507,1500,1492,1492,1489,1489,1482,1482,1482,1475,1475,1475,1471,1471,1468,1468,1468,1468,3910,3910,3935,3935,3935,3935,3935,3961,3961
0,0,0,0,0,0,0,0,0,0,0,0,0,0,0,0,0,0,0,0,0,0,0,0,0,0,0,0,0,0,0,0,0,0,0,0,0,0,0,0,0,0,0,0,0,0,0,0,0,0,0,0,0,0,0,0,0,0,0,0,0,0,0,0,0,0,0,0,0,0,0,0,0,0,0,0,0,0,0,0,0,0,0,0,0,0,0,0,0,0,0,0,0,0,0,0,0,0,0,0,0,0,0,0,0,0,0,0,0,0,0,0,0,0,0,0,0,0,0,0,0,0,0,0,0,0,0,0,0,0,0,0,0,0,0,0,0,0,0,0,0,0,0,0,0,0,0,0,0,0,0,0,0,0,0,0,0,0,0,0,0,0,0,0,0,0,0,0,0,0,0,0,0,0,0,0,0,0,0,0,0,0,0,0,0,3059,3059,3059,3059,3074,3074,3074,3074,3074,3105,3105,3120,3120,3120,3136,3136,3152,3168,3168,3201,3218,3218,3235,3252,3252,3269,3269,3304,3322,3322,3322,3322,3322,3322,3322,3340,3340,3340,3322,3322,3269,3269,3235,3235,3235,3201,3201,3152,3105,3105,3059,3059,3014,2970,2970,2942,2914,2914,2887,2887,2874,2860,2860,2847,2847,2821,2808,2808,2808,2808,2808,2808,2808,2808,2796,2796,2796,2796,2796,2796,2796,2796,2796,2808,2808,2808,2808,2808,2821,2821,2821,2821,2821,2821,2821,2821,2808,2808,2808,2808,2808,2808,2808,2796,2796,2796,2796,2796,2796,2796,2796,2796,2796,2796,2796,2808,2808,2821,2821,2821,2821,2834,2834,2847,2847,2847,2874,2874,2887,2887,2887,2901,2901,2914,2928,2928,2928,2956,2956,2985,2999,2999,2999,2999,3014,3014,3014,3029,3044,3044,3059,3044,3014,3014,3014,3014,3014,3014,3029,3029,3029,3029,3029,3029,3044,3044,3044,3044,3044,3059,3059,3059,3059,3059,3059,3044,3044,3044,2985,2985,2985,2985,2985,2985,2985,2985,2985,2999,3014,3014,3029,3029,3029,3044,3044,3044,3059,3044,3044,3044,3044,3044,3044,3044,3044,3044,3044,3044,3044,3044,3044,3044,3059,3059,3074,3089,3089,3105,3105,3120,3136,3136,3152,3168,3168,3185,3185,3201,3218,3218,3218,3235,3235,3235,3235,3235,3252,3252,3286,3286,3286,3304,3340,3340,3376,3376,3395,3433,3433,3491,3571,3571,3656,3767,3767,3862,3910,3910,3986,3986,4065,4092,4092,4119,4147,4119,4119,4119,4119,4119,4092,4092,4092,4065,4065,4065,4092,4119,4119,0,0,0,0,0,0,0,0,0,0,0,0,0,0,0,0,0,0,0,0,0,0,0,0,0,0,0,0,0,0,0,0,0,0,0,0,0,0,0,0,0,0,0,0,0,0,0,0,0,0,0,0,0,0,0,2386,2386,2386,2367,2367,2367,2358,2358,2358,2349,2349,2332,2332,2297,2215,2215,2215,0,0,0,0,0,1755,1755,1693,1656,1656,1639,1639,1635,1630,1630,1626,1626,1630,1630,1639,1639,1652,1670,1670,1688,1712,1712,1736,1750,1750,1770,1775,1775,1775,1770,1770,1770,1765,1755,1755,1750,1750,1740,1731,1731,1721,1721,1712,1702,1702,1688,1679,1679,1670,1670,1652,1639,1639,1622,1622,1609,1592,1592,1580,1580,1568,1556,1556,1545,1545,1533,1526,1526,1518,1511,1511,1500,1500,1492,1489,1489,1482,1482,1478,1478,1482,1475,1475,1475,1471,1471,1468,1468,1468,1468,3935,3935,3961,3961,3961,3961,3961,3961,3961
0,0,0,0,0,0,0,0,0,0,0,0,0,0,0,0,0,0,0,0,0,0,0,0,0,0,0,0,0,0,0,0,0,0,0,0,0,0,0,0,0,0,0,0,0,0,0,0,0,0,0,0,0,0,0,0,0,0,0,0,0,0,0,0,0,0,0,0,0,0,0,0,0,0,0,0,0,0,0,0,0,0,0,0,0,0,0,0,0,0,0,0,0,0,0,0,0,0,0,0,0,0,0,0,0,0,0,0,0,0,0,0,0,0,0,0,0,0,0,0,0,0,0,0,0,0,0,0,0,0,0,0,0,0,0,0,0,0,0,0,0,0,0,0,0,0,0,0,0,0,0,0,0,0,0,0,0,0,0,0,0,3089,3089,3089,0,0,0,0,0,0,0,0,0,0,0,0,0,0,0,0,0,0,0,0,0,0,0,3059,3059,3074,3074,3074,3074,3074,3105,3105,3120,3120,3120,3136,3136,3152,3168,3168,3201,3218,3218,3235,3252,3252,3269,3269,3304,3322,3322,3322,3322,3322,3322,3322,3340,3340,3340,3322,3322,3269,3269,3235,3201,3201,3152,3152,3105,3059,3059,2999,2999,2942,2914,2914,2887,2860,2860,2847,2847,2834,2821,2821,2808,2808,2808,2796,2796,2796,2796,2796,2796,2796,2796,2783,2783,2771,2771,2771,2771,2783,2783,2783,2783,2783,2796,2796,2796,2808,2808,2808,2808,2808,2808,2808,2808,2796,2796,2796,2796,2796,2783,2783,2783,2783,2796,2796,2796,2796,2796,2796,2796,2796,2796,2796,2808,2808,2821,2821,2821,2834,2847,2847,2860,2860,2874,2887,2887,2901,2901,2901,2914,2914,2928,2942,2942,2942,2956,2956,2985,2999,2999,2999,2999,2999,2999,2999,3014,3014,3014,3029,3014,2999,2999,2999,2999,2999,2999,3014,3014,3014,3014,3014,3029,3029,3029,3044,3044,3044,3059,3059,3059,3059,3059,3059,3044,3044,3044,3014,3014,3014,3014,3014,3014,3014,3014,3014,3014,3029,3029,3029,3029,3029,3044,3044,3044,3044,3029,3029,3029,3029,3029,3029,3029,3044,3044,3044,3044,3044,3044,3044,3044,3059,3059,3074,3089,3089,3105,3105,3120,3136,3136,3152,3168,3168,3185,3185,3201,3218,3218,3218,3235,3235,3235,3235,3235,3252,3252,3286,3286,3286,3304,3322,3322,3340,3340,3358,3395,3395,3433,3511,3511,3592,3678,3678,3745,3838,3838,3910,3910,3986,4038,4038,4092,4119,4119,4119,4119,4092,4092,4065,4065,4065,4065,4065,4038,4038,4038,4038,0,0,0,0,0,0,0,0,0,0,0,0,0,0,0,0,0,0,0,0,0,0,0,0,0,0,0,0,0,0,0,0,0,0,0,0,0,0,0,0,0,0,0,0,0,0,0,0,0,0,0,0,0,0,0,2386,2386,2386,2367,2367,2367,2358,2358,2358,2349,2349,2332,2332,2297,2215,2215,2183,2183,2183,0,0,0,1755,1755,1693,1656,1656,1626,1626,1622,1622,1622,1617,1617,1617,1617,1622,1622,1630,1643,1643,1661,1684,1684,1707,1726,1726,1745,1755,1755,1760,1760,1755,1755,1750,1745,1745,1740,1740,1731,1726,1726,1716,1716,1707,1702,1702,1688,1679,1679,1670,1670,1652,1639,1639,1626,1626,1609,1597,1597,1584,1584,1572,1560,1560,1545,1545,1537,1526,1526,1518,1511,1511,1500,1500,1492,1489,1489,1482,1482,1478,1475,1475,1468,1468,1468,1468,1468,1468,1468,1468,1468,1468,3935,3961,3961,3961,3961,3961,3961,3961
0,0,0,0,0,0,0,0,0,0,0,0,0,0,0,0,0,0,0,0,0,0,0,0,0,0,0,0,0,0,0,0,0,0,0,0,0,0,0,0,0,0,0,0,0,0,0,0,0,0,0,0,0,0,0,0,0,0,0,0,0,0,0,0,0,0,0,0,0,0,0,0,0,0,0,0,0,0,0,0,0,0,0,0,0,0,0,0,0,0,0,0,0,0,0,0,0,0,0,0,0,0,0,0,0,0,0,0,0,0,0,0,0,0,0,0,0,0,0,0,0,0,0,0,0,0,0,0,0,0,0,0,0,0,0,0,0,0,0,0,0,0,0,0,0,0,0,0,0,0,0,0,0,0,0,0,0,0,0,0,0,3089,3089,3089,0,0,0,0,0,0,0,0,0,0,0,0,0,0,0,0,0,0,0,0,0,0,0,3059,3059,3074,3074,3074,3074,3074,3089,3089,3120,3120,3120,3136,3136,3152,3168,3168,3201,3218,3218,3235,3252,3252,3269,3269,3269,3286,3286,3286,3286,3286,3304,3304,3304,3304,3304,3269,3269,3218,3218,3168,3152,3152,3089,3089,3044,2985,2985,2928,2928,2887,2860,2860,2847,2834,2834,2808,2808,2808,2796,2796,2783,2783,2783,2771,2771,2771,2796,2796,2796,2796,2796,2783,2783,2771,2771,2771,2771,2783,2783,2783,2783,2783,2796,2796,2796,2808,2808,2808,2808,2808,2808,2808,2808,2796,2796,2796,2796,2796,2783,2783,2783,2783,2796,2796,2796,2783,2783,2796,2796,2796,2796,2796,2808,2808,2821,2821,2821,2834,2847,2847,2860,2860,2874,2887,2887,2901,2901,2901,2914,2914,2928,2942,2942,2942,2956,2956,2985,2999,2999,2999,2999,2999,2999,2999,3014,3014,3014,3014,3014,2985,2985,2970,2970,2985,2985,2985,2985,2985,2985,2985,2999,2999,2999,3014,3014,3059,3074,3074,3089,3089,3074,3074,3074,3074,3074,3059,3059,3059,3059,3059,3044,3029,3029,3029,3029,3029,3029,3044,3029,3029,3044,3044,3044,3044,3029,3029,3029,3029,3029,3029,3029,3029,3029,3029,3029,3029,3029,3029,3044,3044,3044,3044,3059,3059,3059,3059,3074,3089,3089,3105,3120,3120,3136,3136,3152,3168,3168,3168,3185,3185,3201,3201,3201,3218,3218,3235,3252,3252,3269,3286,3286,3322,3322,3322,3358,3358,3395,3471,3471,3551,3634,3634,3722,3814,3814,3886,3886,3961,4012,4012,4065,4092,4092,4092,4119,4092,4092,4065,4065,4065,4065,4065,4038,4038,4038,4038,0,0,0,0,0,0,0,0,0,0,0,0,0,0,0,0,0,0,0,0,0,0,0,0,0,0,0,0,0,0,0,0,0,0,0,0,0,0,0,0,0,0,0,0,0,0,0,0,0,0,0,0,0,0,0,2386,2376,2376,2367,2358,2358,2358,2358,2349,2349,2349,2340,2340,2332,2263,2263,2183,2183,2183,0,0,0,0,0,0,1656,1656,1626,1626,1622,1622,1622,1617,1617,1617,1617,1622,1622,1630,1643,1643,1661,1684,1684,1707,1726,1726,1745,1755,1755,1760,1760,1755,1755,1750,1745,1745,1740,1740,1731,1726,1726,1716,1716,1707,1697,1697,1684,1674,1674,1665,1665,1652,1639,1639,1626,1626,1609,1597,1597,1584,1584,1572,1560,1560,1545,1545,1537,1526,1526,1514,1507,1507,1496,1496,1489,1482,1482,1478,1478,1475,1468,1468,1464,1464,1464,1464,1468,1468,1468,1468,1468,1468,1468,1468,3961,3986,3986,3986,3986,3986
0,0,0,0,0,0,0,0,0,0,0,0,0,0,0,0,0,0,0,0,0,0,0,0,0,0,0,0,0,0,0,0,0,0,0,0,0,0,0,0,0,0,0,0,0,0,0,0,0,0,0,0,0,0,0,0,0,0,0,0,0,0,0,0,0,0,0,0,0,0,0,0,0,0,0,0,0,0,0,0,0,0,0,0,0,0,0,0,0,0,0,0,0,0,0,0,0,0,0,0,0,0,0,0,0,0,0,0,0,0,0,0,0,0,0,0,0,0,0,0,0,0,0,0,0,0,0,0,0,0,0,0,0,0,0,0,0,0,0,0,0,0,0,0,0,0,0,0,0,0,0,0,0,0,0,0,0,0,0,0,0,3074,3074,3074,0,0,0,0,0,0,0,0,0,0,0,0,0,0,0,0,0,0,0,0,0,0,0,3059,3059,3059,3059,3074,3074,3074,3089,3089,3105,3120,3120,3136,3136,3152,3168,3168,3185,3201,3201,3235,3235,3235,3252,3252,3252,3252,3252,3269,3286,3286,3304,3304,3304,3304,3304,3269,3269,3218,3218,3168,3152,3152,3089,3089,3044,2985,2985,2928,2928,2887,2860,2860,2847,2834,2834,2808,2808,2808,2796,2796,2783,2783,2783,2771,2771,2771,2783,2783,2771,2771,2771,2771,2771,2771,2771,2771,2758,2758,2771,2771,2771,2771,2783,2783,2783,2796,2796,2796,2796,2796,2796,2796,2783,2771,2771,2771,2783,2771,2758,2758,2758,2771,2771,2771,2771,2771,2771,2783,2783,2796,2808,2808,2808,2808,2821,2834,2834,2847,2847,2847,2874,2874,2874,2887,2887,2901,2901,2901,2928,2942,2942,2956,2956,2956,2970,2970,2985,2999,2999,3014,2999,2999,3014,3014,3014,3014,3014,3014,3014,2985,2985,2970,2970,2985,2985,2985,2985,2985,2985,2985,2999,2999,2999,3014,3014,3029,3059,3059,3074,3089,3074,3074,3074,3074,3074,3059,3059,3059,3059,3059,3044,3029,3029,3029,3029,3029,3029,3044,3029,3029,3044,3044,3029,3029,3014,3014,3014,3014,3014,2999,2999,2999,2999,2999,2999,2999,3014,3014,3014,3029,3029,3029,3029,3029,3029,3029,3044,3059,3059,3074,3074,3074,3089,3089,3105,3120,3120,3168,3185,3185,3201,3201,3201,3218,3218,3235,3252,3252,3269,3286,3286,3322,3322,3322,3358,3358,3395,3471,3471,3551,3634,3634,3722,3814,3814,3886,3886,3961,4012,4012,4065,4092,4092,4092,4092,4065,4065,4038,4038,4038,4012,4012,4012,3986,3986,3986,0,0,0,0,0,0,0,0,0,0,0,0,0,0,0,0,0,0,0,0,0,0,0,0,0,0,0,0,0,0,0,0,0,0,0,0,0,0,0,0,0,0,0,0,0,0,0,0,0,0,0,0,0,0,0,0,2376,2376,2367,2358,2358,2358,2367,2349,2349,2349,2340,2340,2332,2280,2280,2223,2223,0,0,0,0,0,0,0,1670,1670,1626,1626,1613,1609,1609,1605,1605,1605,1605,1605,1605,1613,1617,1617,1635,1652,1652,1670,1693,1693,1712,1731,1731,1736,1736,1740,1740,1740,1736,1736,1726,1726,1721,1716,1716,1707,1707,1697,1688,1688,1679,1670,1670,1661,1661,1652,1639,1639,1626,1626,1613,1601,1601,1588,1588,1576,1564,1564,1552,1541,1537,1529,1529,1514,1507,1507,1496,1496,1489,1482,1482,1478,1478,1475,1468,1468,1464,1464,1464,1464,1468,1468,1468,1468,1468,1468,1468,1468,3986,3986,3986,3986,4012,4012
0,0,0,0,0,0,0,0,0,0,0,0,0,0,0,0,0,0,0,0,0,0,0,0,0,0,0,0,0,0,0,0,0,0,0,0,0,0,0,0,0,0,0,0,0,0,0,0,0,0,0,0,0,0,0,0,0,0,0,0,0,0,0,0,0,0,0,0,0,0,0,0,0,0,0,0,0,0,0,0,0,0,0,0,0,0,0,0,0,0,0,0,0,0,0,0,0,0,0,0,0,0,0,0,0,0,0,0,0,0,0,0,0,0,0,0,0,0,0,0,0,0,0,0,0,0,0,0,0,0,0,0,0,0,0,0,0,0,0,0,0,0,0,0,0,0,0,0,0,0,0,0,0,0,0,0,0,0,0,0,0,3074,3074,3074,0,0,0,0,0,0,0,0,0,0,0,0,0,0,0,0,0,0,0,0,0,0,0,0,3059,3059,3059,3074,3074,3074,3089,3089,3105,3120,3120,3136,3136,3152,3168,3168,3185,3201,3201,3235,3235,3235,3252,3252,3252,3252,3252,3269,3269,3269,3269,3269,3269,3269,3252,3218,3218,3168,3168,3120,3089,3089,3029,3029,2985,2914,2914,2874,2874,2847,2808,2808,2808,2796,2796,2783,2783,2771,2771,2771,2771,2771,2758,2758,2758,2758,2758,2758,2758,2758,2758,2758,2758,2746,2746,2746,2746,2758,2758,2758,2758,2758,2758,2771,2771,2771,2771,2771,2783,2783,2796,2796,2783,2771,2771,2771,2783,2771,2758,2758,2758,2771,2771,2771,2771,2771,2771,2783,2783,2796,2808,2808,2821,2821,2821,2847,2847,2847,2860,2860,2874,2874,2887,2901,2901,2901,2901,2901,2928,2942,2942,2956,2956,2956,2970,2970,2985,2999,2999,3014,2999,2999,2999,2999,2999,3014,2999,2999,2985,2970,2970,2970,2956,2956,2956,2956,2956,2956,2956,2956,2970,2985,2985,2999,2999,3029,3044,3044,3074,3089,3089,3089,3089,3089,3089,3089,3089,3089,3074,3059,3059,3044,3044,3029,3029,3029,3029,3029,3029,3029,3044,3044,3029,3029,3014,3014,3014,3014,3014,2999,2999,2999,2999,2999,2999,2999,3014,3014,3014,3029,3029,3029,3029,3029,3029,3029,3044,3059,3059,3074,3074,3074,3089,3089,3105,3120,3120,3136,3136,3136,3152,3152,3168,3185,3185,3218,3218,3218,3235,3269,3269,3269,3269,3304,3340,3340,3376,3433,3433,3511,3592,3592,3678,3767,3767,3838,3838,3910,3961,3961,4012,4065,4065,4065,4065,4038,4038,4012,4012,4012,3986,3986,3961,3961,3961,3961,0,0,0,0,0,0,0,0,0,0,0,0,0,0,0,0,0,0,0,0,0,0,0,0,0,0,0,0,0,0,0,0,0,0,0,0,0,0,0,0,0,0,0,0,0,0,0,0,0,0,0,0,0,0,0,0,2376,2376,2367,2358,2358,2358,2358,2349,2349,2349,2340,2340,2332,2280,2280,2223,2223,2183,2183,0,0,0,0,0,1670,1670,1626,1626,1605,1601,1601,1597,1597,1597,1597,1597,1592,1592,1597,1597,1609,1622,1622,1639,1639,1656,1674,1674,1693,1702,1702,1712,1740,1740,1736,1736,1726,1726,1721,1716,1716,1707,1707,1697,1688,1688,1679,1670,1670,1661,1661,1652,1639,1639,1630,1630,1617,1609,1609,1597,1597,1580,1568,1568,1552,1541,1541,1529,1529,1514,1507,1507,1492,1492,1485,1482,1482,1475,1475,1471,1468,1468,1464,1464,1464,1464,1468,1468,1468,1468,1468,1468,1468,1468,3986,3986,3986,3986,4012,4012
0,0,0,0,0,0,0,0,0,0,0,0,0,0,0,0,0,0,0,0,0,0,0,0,0,0,0,0,0,0,0,0,0,0,0,0,0,0,0,0,0,0,0,0,0,0,0,0,0,0,0,0,0,0,0,0,0,0,0,0,0,0,0,0,0,0,0,0,0,0,0,0,0,0,0,0,0,0,0,0,0,0,0,0,0,0,0,0,0,0,0,0,0,0,0,0,0,0,0,0,0,0,0,0,0,0,0,0,0,0,0,0,0,0,0,0,0,0,0,0,0,0,0,0,0,0,0,0,0,0,0,0,0,0,0,0,0,0,0,0,0,0,0,0,0,0,0,0,0,0,0,0,0,0,0,0,0,0,0,0,0,0,0,0,0,0,0,0,0,0,0,0,0,0,0,0,0,0,0,0,0,0,0,0,0,0,0,0,3059,3059,3059,3074,3074,3074,3089,3089,3105,3120,3120,3120,3120,3152,3168,3168,3168,3185,3185,3218,3218,3218,3218,3218,3235,3235,3235,3218,3218,3218,3218,3218,3201,3201,3201,3168,3168,3120,3120,3074,3029,3029,2985,2985,2942,2874,2874,2847,2847,2808,2783,2783,2783,2796,2796,2783,2783,2771,2771,2771,2771,2771,2758,2758,2758,2758,2758,2758,2758,2758,2758,2758,2758,2746,2746,2746,2746,2758,2758,2758,2758,2758,2758,2771,2771,2771,2771,2771,2783,2783,2783,2783,2771,2771,2771,2758,2758,2758,2746,2746,2746,2758,2758,2758,2758,2758,2771,2783,2783,2783,2796,2796,2808,2808,2821,2834,2834,2847,2860,2860,2874,2874,2887,2901,2901,2914,2928,2928,2942,2956,2956,2956,2956,2956,2970,2970,2985,2999,2999,2999,2999,2985,2985,2985,2985,2999,2985,2985,2985,2970,2970,2970,2956,2956,2956,2956,2956,2956,2956,2956,2970,2985,2985,2999,2999,3029,3044,3044,3074,3089,3089,3089,3105,3105,3105,3089,3089,3089,3074,3059,3059,3044,3044,3029,3029,3044,3029,3029,3029,3029,3029,3014,2999,2999,2985,2985,2985,2970,2970,2970,2970,2970,2956,2956,2956,2970,2970,2970,2985,2999,2999,2999,2999,2999,3014,3014,3014,3029,3029,3029,3044,3044,3044,3044,3059,3089,3089,3089,3105,3105,3105,3105,3120,3136,3136,3168,3185,3185,3201,3218,3218,3235,3235,3269,3286,3286,3322,3395,3395,3471,3551,3551,3678,3767,3767,3838,3838,3910,3961,3961,4012,4065,4065,4065,4065,4038,4038,4012,4012,4012,3986,3986,3961,3961,3961,3961,0,0,0,0,0,0,0,0,0,0,0,0,0,0,0,0,0,0,0,0,0,0,0,0,0,0,0,0,0,0,0,0,0,0,0,0,0,0,0,0,0,0,0,0,0,0,0,0,0,0,0,0,0,0,0,0,0,0,2367,2367,2367,2358,2358,2349,2349,2349,2340,2340,2340,2305,2305,2263,2263,2183,2183,0,0,0,0,0,0,0,1630,1630,1605,1601,1601,1597,1597,1597,1597,1597,1592,1592,1597,1597,1609,1622,1622,1639,1639,1656,1674,1674,1693,1702,1702,1712,1721,1721,1716,1716,1716,1716,1712,1707,1707,1697,1697,1688,1684,1684,1674,1665,1665,1656,1656,1648,1639,1639,1630,1630,1617,1609,1609,1597,1588,1580,1568,1568,1552,1541,1541,1529,1529,1514,1507,1507,1492,1492,1485,1482,1482,1475,1475,1471,1468,1468,1464,1464,1468,1468,1468,1468,1468,1468,1468,1468,1471,1471,4012,4012,4038,4012,4012,4038
0,0,0,0,0,0,0,0,0,0,0,0,0,0,0,0,0,0,0,0,0,0,0,0,0,0,0,0,0,0,0,0,0,0,0,0,0,0,0,0,0,0,0,0,0,0,0,0,0,0,0,0,0,0,0,0,0,0,0,0,0,0,0,0,0,0,0,0,0,0,0,0,0,0,0,0,0,0,0,0,0,0,0,0,0,0,0,0,0,0,0,0,0,0,0,0,0,0,0,0,0,0,0,0,0,0,0,0,0,0,0,0,0,0,0,0,0,0,0,0,0,0,0,0,0,0,0,0,0,0,0,0,0,0,0,0,0,0,0,0,0,0,0,0,0,0,0,0,0,0,0,0,0,0,0,0,0,0,0,0,0,0,0,0,0,0,0,0,0,0,0,0,0,0,0,0,0,0,0,0,0,0,0,0,0,0,0,0,0,0,0,0,3059,3059,3089,3089,3089,3105,3105,3120,3120,3136,3152,3152,3168,3185,3185,3218,3218,3218,3218,3218,3235,3235,3235,3218,3218,3218,3218,3218,3201,3201,3201,3168,3168,3120,3120,3074,3029,3029,2985,2985,2942,2874,2874,2847,2847,2808,2783,2783,2771,2771,2771,2758,2758,2758,2746,2746,2746,2746,2734,2734,2746,2746,2746,2746,2746,2746,2746,2746,2746,2734,2734,2746,2746,2746,2746,2746,2746,2746,2746,2758,2758,2758,2758,2758,2771,2771,2771,2771,2758,2758,2758,2758,2758,2758,2746,2746,2746,2758,2758,2758,2758,2758,2771,2771,2771,2783,2796,2796,2796,2796,2808,2834,2834,2847,2860,2860,2874,2901,2901,2914,2914,2928,2942,2942,2956,2970,2970,2985,2985,2985,2985,2985,2985,2999,2999,2999,2999,2985,2985,2985,2985,2999,2985,2985,2985,2970,2970,2956,2942,2942,2942,2956,2942,2942,2942,2942,2956,2970,2970,2985,2985,3014,3029,3029,3044,3074,3074,3074,3089,3089,3089,3089,3074,3074,3074,3059,3059,3044,3044,3029,3014,3014,3014,3014,3014,2999,2999,2970,2956,2956,2942,2942,2942,2928,2928,2928,2928,2928,2914,2914,2914,2928,2928,2928,2942,2956,2956,2970,2970,2970,3014,3014,3014,3029,3029,3029,3044,3044,3044,3044,3059,3089,3089,3089,3105,3105,3105,3105,3120,3136,3136,3168,3185,3185,3201,3218,3218,3235,3235,3269,3286,3286,3322,3395,3395,3471,3551,3551,3634,3722,3722,3791,3791,3862,3935,3935,3986,4012,4012,4012,4012,4012,4012,3986,3961,3961,3935,3935,3910,3886,3886,3886,0,0,0,0,0,0,0,0,0,0,0,0,0,0,0,0,0,0,0,0,0,0,0,0,0,0,0,0,0,0,0,0,0,0,0,0,0,0,0,0,0,0,0,0,0,0,0,0,0,0,0,0,0,0,0,0,0,0,2367,2367,2367,2358,2358,2358,2349,2349,2349,2340,2340,2323,2323,2263,2239,2183,2183,0,0,0,0,0,0,0,1630,1630,1605,1592,1592,1584,1584,1584,1580,1580,1580,1580,1584,1584,1588,1597,1597,1609,1609,1622,1639,1639,1656,1674,1674,1688,1693,1693,1697,1697,1697,1702,1697,1693,1693,1688,1688,1679,1674,1674,1665,1661,1661,1656,1656,1648,1643,1643,1630,1630,1622,1613,1613,1601,1588,1588,1572,1572,1560,1545,1545,1533,1533,1522,1507,1507,1496,1496,1489,1482,1482,1478,1475,1475,1468,1468,1468,1468,1468,1468,1471,1471,1471,1471,1471,1471,1471,1471,4038,4038,4038,4012,4012,4038
0,0,0,0,0,0,0,0,0,0,0,0,0,0,0,0,0,0,0,0,0,0,0,0,0,0,0,0,0,0,0,0,0,0,0,0,0,0,0,0,0,0,0,0,0,0,0,0,0,0,0,0,0,0,0,0,0,0,0,0,0,0,0,0,0,0,0,0,0,0,0,0,0,0,0,0,0,0,0,0,0,0,0,0,0,0,0,0,0,0,0,0,0,0,0,0,0,0,0,0,0,0,0,0,0,0,0,0,0,0,0,0,0,0,0,0,0,0,0,0,0,0,0,0,0,0,0,0,0,0,0,0,0,0,0,0,0,0,0,0,0,0,0,0,0,0,0,0,0,0,0,0,0,0,0,0,0,0,0,0,0,0,0,0,0,0,0,0,0,0,0,0,0,0,0,0,0,0,0,0,0,0,0,0,0,0,0,0,0,0,0,0,3059,3059,3089,3089,3089,3105,3105,3120,3136,3136,3152,3152,3152,3168,3168,3201,3201,3201,3201,3201,3201,3201,3201,3201,3201,3185,3185,3185,3168,3168,3136,3136,3105,3059,3059,3014,2985,2985,2942,2942,2887,2847,2847,2821,2821,2783,2758,2758,2758,2758,2758,2746,2746,2734,2734,2734,2734,2734,2722,2722,2734,2722,2722,2722,2722,2734,2734,2722,2722,2722,2722,2722,2722,2734,2746,2746,2746,2746,2746,2758,2758,2758,2758,2758,2771,2771,2771,2771,2758,2758,2758,2758,2758,2758,2758,2758,2758,2758,2758,2758,2771,2771,2771,2771,2771,2783,2796,2796,2796,2796,2808,2834,2834,2834,2860,2860,2874,2901,2901,2914,2914,2928,2942,2942,2956,2970,2970,2985,2985,2985,2985,2985,2985,2999,2999,2999,2999,2985,2985,2970,2970,2985,2970,2970,2970,2956,2956,2942,2928,2928,2928,2928,2928,2928,2928,2928,2928,2942,2942,2970,2970,2985,2999,2999,3029,3044,3044,3059,3059,3059,3074,3059,3059,3074,3074,3059,3059,3044,3044,3029,3014,3014,3014,3014,3014,2999,2999,2970,2956,2956,2942,2942,2942,2928,2928,2928,2928,2928,2914,2914,2914,2928,2928,2928,2942,2956,2956,2970,2970,2970,2970,2970,2985,2999,2999,2999,3014,3014,3029,3029,3029,3059,3059,3059,3074,3074,3089,3089,3105,3120,3120,3120,3136,3136,3152,3185,3185,3185,3185,3218,3235,3235,3286,3340,3340,3414,3491,3491,3592,3678,3678,3745,3745,3838,3886,3886,3935,3986,3986,3986,3986,3961,3961,3935,3910,3910,3886,3886,3862,3838,3838,3838,0,0,0,0,0,0,0,0,0,0,0,0,0,0,0,0,0,0,0,0,0,0,0,0,0,0,0,0,0,0,0,0,0,0,0,0,0,0,0,0,0,0,0,0,0,0,0,0,0,0,0,0,0,0,0,0,0,0,2367,2367,2367,2358,2358,2358,2349,2349,2349,2340,2340,2323,2323,2305,2239,2239,2239,0,0,0,0,0,0,0,1643,1643,1605,1584,1584,1580,1580,1576,1572,1572,1568,1568,1568,1568,1588,1597,1597,1609,1609,1622,1639,1639,1656,1674,1674,1688,1693,1693,1697,1697,1697,1702,1697,1693,1693,1688,1688,1679,1674,1674,1665,1661,1661,1656,1656,1648,1643,1643,1630,1630,1622,1613,1613,1601,1588,1588,1572,1572,1560,1545,1545,1533,1533,1522,1507,1507,1496,1496,1489,1482,1482,1478,1475,1475,1468,1468,1468,1468,1468,1468,1471,1471,1471,1471,1471,1471,1471,1471,4038,4038,4038,4038,4038,4065
0,0,0,0,0,0,0,0,0,0,0,0,0,0,0,0,0,0,0,0,0,0,0,0,0,0,0,0,0,0,0,0,0,0,0,0,0,0,0,0,0,0,0,0,0,0,0,0,0,0,0,0,0,0,0,0,0,0,0,0,0,0,0,0,0,0,0,0,0,0,0,0,0,0,0,0,0,0,0,0,0,0,0,0,0,0,0,0,0,0,0,0,0,0,0,0,0,0,0,0,0,0,0,0,0,0,0,0,0,0,0,0,0,0,0,0,0,0,0,0,0,0,0,0,0,0,0,0,0,0,0,0,0,0,0,0,0,0,0,0,0,0,0,0,0,0,0,0,0,0,0,0,0,0,0,0,0,0,0,0,0,0,0,0,0,0,0,0,0,0,0,0,0,0,0,0,0,0,0,0,0,0,0,0,0,0,0,0,0,0,0,0,3059,3059,3074,3074,3089,3089,3089,3105,3120,3120,3136,3136,3136,3152,3152,3168,3168,3168,3168,3168,3168,3185,3168,3152,3152,3152,3152,3136,3105,3105,3074,3074,3044,3014,3014,2956,2956,2985,2942,2942,2887,2847,2847,2821,2821,2783,2758,2758,2758,2758,2758,2746,2746,2734,2734,2734,2734,2734,2722,2722,2734,2722,2722,2722,2722,2734,2734,2722,2722,2722,2722,2722,2722,2734,2734,2734,2734,2734,2734,2734,2734,2746,2746,2746,2758,2758,2758,2758,2746,2746,2746,2746,2746,2746,2746,2746,2746,2746,2758,2758,2758,2758,2758,2771,2771,2771,2771,2771,2783,2783,2796,2808,2808,2821,2847,2847,2860,2887,2887,2901,2901,2928,2942,2942,2956,2970,2970,2985,2985,2985,2985,2985,2985,2999,2999,2999,2999,2985,2985,2970,2970,2985,2970,2970,2970,2956,2956,2942,2928,2928,2928,2928,2928,2928,2928,2928,2928,2942,2942,2970,2970,2985,2999,2999,3029,3044,3044,3059,3059,3059,3074,3059,3059,3059,3059,3044,3044,3029,3029,3014,2999,2999,2999,2999,2999,2970,2970,2942,2928,2928,2914,2914,2901,2887,2887,2887,2887,2887,2874,2874,2874,2887,2901,2901,2914,2928,2928,2942,2942,2942,2956,2956,2970,2985,2985,2985,2999,2999,2999,2999,3014,3029,3029,3044,3044,3044,3059,3059,3074,3074,3074,3089,3105,3105,3120,3185,3185,3185,3185,3218,3235,3235,3286,3340,3340,3414,3491,3491,3592,3678,3678,3745,3745,3838,3886,3886,3935,3986,3986,3986,3986,3961,3961,3935,3910,3910,3886,3886,3862,3838,3838,3838,0,0,0,0,0,0,0,0,0,0,0,0,0,0,0,0,0,0,0,0,0,0,0,0,0,0,0,0,0,0,0,0,0,0,0,0,0,0,0,0,0,0,0,0,0,0,0,0,0,0,0,0,0,0,0,0,0,0,2376,2367,2367,2358,2358,2358,2349,2349,2349,2340,2340,2340,2340,2340,2297,2297,2297,0,0,0,0,0,0,0,1665,1665,1605,1584,1584,1580,1580,1576,1572,1572,1568,1568,1568,1568,1568,1568,1572,1584,1584,1592,1609,1609,1626,1643,1643,1656,1665,1665,1674,1674,1679,1684,1684,1679,1679,1674,1674,1670,1665,1665,1661,1656,1656,1652,1652,1643,1639,1639,1630,1626,1626,1617,1617,1605,1592,1592,1576,1576,1564,1549,1549,1537,1537,1522,1511,1511,1496,1496,1489,1485,1485,1478,1475,1475,1471,1471,1468,1468,1468,1468,1471,1471,1471,1471,1471,1471,1471,1471,4065,4065,4065,4065,4065,4065
0,0,0,0,0,0,0,0,0,0,0,0,0,0,0,0,0,0,0,0,0,0,0,0,0,0,0,0,0,0,0,0,0,0,0,0,0,0,0,0,0,0,0,0,0,0,0,0,0,0,0,0,0,0,0,0,0,0,0,0,0,0,0,0,0,0,0,0,0,0,0,0,0,0,0,0,0,0,0,0,0,0,0,0,0,0,0,0,0,0,0,0,0,0,0,0,0,0,0,0,0,0,0,0,0,0,0,0,0,0,0,0,0,0,0,0,0,0,0,0,0,0,0,0,0,0,0,0,0,0,0,0,0,0,0,0,0,0,0,0,0,0,0,0,0,0,0,0,0,0,0,0,0,0,0,0,0,0,0,0,0,0,0,0,0,0,0,0,0,0,0,0,0,0,0,0,0,0,0,0,0,0,0,0,0,0,0,0,0,0,0,0,0,3074,3074,3074,3089,3089,3089,3105,3120,3120,3136,3136,3136,3152,3152,3168,3168,3168,3168,3168,3168,3185,3168,3152,3152,3152,3152,3136,3105,3105,3074,3074,3044,3014,3014,2956,2928,2928,2887,2887,2860,2808,2808,2796,2796,2771,2746,2746,2734,2734,2734,2722,2722,2722,2710,2710,2710,2710,2710,2710,2710,2710,2710,2710,2710,2710,2722,2710,2710,2710,2710,2710,2710,2710,2710,2710,2710,2710,2722,2722,2722,2722,2734,2734,2746,2746,2746,2746,2746,2734,2734,2734,2746,2746,2746,2746,2746,2746,2758,2758,2758,2758,2758,2771,2771,2771,2771,2771,2783,2783,2796,2808,2808,2821,2847,2847,2860,2887,2887,2901,2901,2928,2942,2942,2956,2970,2970,2985,2985,2985,2985,2985,2999,3014,2999,2999,2999,2985,2985,2970,2970,2985,2970,2970,2956,2942,2942,2928,2928,2928,2914,2914,2914,2914,2914,2914,2914,2914,2914,2942,2942,2956,2985,2985,2999,3014,3014,3029,3044,3044,3059,3044,3029,3029,3029,3029,3029,3014,3014,2985,2985,2985,2970,2970,2956,2928,2928,2914,2901,2901,2874,2874,2860,2860,2860,2847,2847,2887,2874,2874,2874,2887,2901,2901,2914,2928,2928,2942,2942,2942,2956,2956,2970,2985,2985,2985,2999,2999,2999,2999,3014,3029,3029,3044,3044,3044,3059,3059,3074,3074,3074,3089,3105,3105,3120,3136,3136,3152,3152,3168,3201,3201,3235,3304,3304,3376,3452,3452,3551,3551,3613,3700,3700,3767,3862,3862,3910,3935,3935,3935,3935,3935,3935,3910,3862,3862,3838,3838,3814,3767,3767,3722,3722,0,0,0,0,0,0,0,0,0,0,0,0,0,0,0,0,0,0,0,0,0,0,0,0,0,0,0,0,0,0,0,0,0,0,0,0,0,0,0,0,0,0,0,0,0,0,0,0,0,0,0,0,0,0,0,0,0,2376,2367,2367,2358,2358,2358,2349,2349,2349,2340,2340,2340,2340,2340,2297,2297,2231,2231,2231,0,0,0,0,0,1665,1665,1605,1572,1572,1568,1568,1564,1560,1560,1552,1552,1552,1552,1552,1552,1556,1560,1560,1572,1584,1584,1601,1617,1617,1643,1643,1643,1656,1656,1661,1670,1670,1670,1670,1665,1665,1661,1661,1665,1661,1656,1656,1652,1652,1643,1639,1639,1635,1626,1626,1617,1617,1609,1592,1592,1580,1580,1564,1552,1552,1537,1537,1522,1511,1511,1500,1500,1492,1485,1485,1482,1475,1475,1471,1471,1468,1468,1468,1468,1471,1471,1471,1471,1471,1471,1471,1471,4065,4065,4065,4065,4065,4065
0,0,0,0,0,0,0,0,0,0,0,0,0,0,0,0,0,0,0,0,0,0,0,0,0,0,0,0,0,0,0,0,0,0,0,0,0,0,0,0,0,0,0,0,0,0,0,0,0,0,0,0,0,0,0,0,0,0,0,0,0,0,0,0,0,0,0,0,0,0,0,0,0,0,0,0,0,0,0,0,0,0,0,0,0,0,0,0,0,0,0,0,0,0,0,0,0,0,0,0,0,0,0,0,0,0,0,0,0,0,0,0,0,0,0,0,0,0,0,0,0,0,0,0,0,0,0,0,0,0,0,0,0,0,0,0,0,0,0,0,0,0,0,0,0,0,0,0,0,0,0,0,0,0,0,0,0,0,0,0,0,0,0,0,0,0,0,0,0,0,0,0,0,0,0,0,0,0,0,0,0,0,0,0,0,0,0,0,0,0,0,0,0,3074,3074,3074,3089,3089,3089,3105,3120,3120,3120,3120,3136,3152,3152,3152,3152,3152,3152,3152,3152,3152,3136,3120,3120,3105,3105,3089,3059,3059,3029,3029,2999,2956,2956,2914,2887,2887,2860,2860,2821,2783,2783,2771,2771,2758,2734,2734,2722,2722,2722,2710,2710,2710,2698,2698,2698,2698,2698,2698,2698,2698,2710,2710,2710,2710,2722,2710,2710,2710,2710,2710,2710,2710,2710,2710,2710,2710,2722,2722,2722,2722,2734,2734,2746,2746,2746,2746,2746,2734,2734,2734,2746,2746,2746,2746,2746,2746,2758,2758,2758,2758,2758,2758,2758,2771,2771,2771,2771,2771,2796,2808,2808,2821,2847,2847,2860,2887,2887,2901,2901,2914,2942,2942,2956,2956,2956,2985,2985,2985,2985,2985,2999,2999,2999,2999,2999,2985,2985,2985,2970,2970,2956,2956,2942,2928,2928,2914,2901,2901,2901,2901,2901,2887,2887,2887,2887,2901,2901,2914,2914,2956,2985,2985,2999,3014,3014,3029,3044,3044,3059,3044,3029,3029,3029,3029,3029,3014,3014,2985,2985,2985,2970,2970,2956,2928,2928,2914,2901,2901,2874,2874,2860,2860,2860,2847,2847,2860,2860,2860,2860,2860,2874,2874,2887,2901,2901,2914,2914,2914,2928,2928,2956,2956,2956,2970,2970,2970,2985,2985,2999,3014,3014,3029,3029,3029,3029,3029,3044,3059,3059,3059,3074,3074,3089,3105,3105,3120,3120,3152,3168,3168,3201,3269,3269,3340,3433,3433,3511,3511,3592,3678,3678,3745,3814,3814,3862,3886,3886,3886,3935,3935,3935,3910,3862,3862,3838,3838,3814,3767,3767,3722,3722,0,0,0,0,0,0,0,0,0,0,0,0,0,0,0,0,0,0,0,0,0,0,0,0,0,0,0,0,0,0,0,0,0,0,0,0,0,0,0,0,0,0,0,0,0,0,0,0,0,0,0,0,0,0,0,0,0,2376,2367,2367,2358,2358,2358,2358,2358,2349,2349,2349,2349,2349,2340,2323,2323,2231,2231,2231,0,0,0,0,0,0,0,1613,1572,1572,1568,1568,1564,1560,1560,1552,1552,1552,1552,1552,1552,1556,1560,1560,1572,1584,1584,1601,1617,1617,1643,1643,1643,1656,1656,1661,1670,1670,1670,1670,1665,1665,1661,1656,1656,1656,1652,1652,1648,1648,1643,1639,1639,1635,1626,1626,1617,1617,1605,1592,1592,1580,1580,1564,1552,1552,1537,1537,1522,1511,1511,1500,1500,1492,1485,1485,1482,1478,1478,1475,1475,1471,1471,1471,1471,1471,1471,1471,1471,1471,1471,1471,1471,4092,4092,4092,4092,4092,4092
0,0,0,0,0,0,0,0,0,0,0,0,0,0,0,0,0,0,0,0,0,0,0,0,0,0,0,0,0,0,0,0,0,0,0,0,0,0,0,0,0,0,0,0,0,0,0,0,0,0,0,0,0,0,0,0,0,0,0,0,0,0,0,0,0,0,0,0,0,0,0,0,0,0,0,0,0,0,0,0,0,0,0,0,0,0,0,0,0,0,0,0,0,0,0,0,0,0,0,0,0,0,0,0,0,0,0,0,0,0,0,0,0,0,0,0,0,0,0,0,0,0,0,0,0,0,0,0,0,0,0,0,0,0,0,0,0,0,0,0,0,0,0,0,0,0,0,0,0,0,0,0,0,0,0,0,0,0,0,0,0,0,0,0,0,0,0,0,0,0,0,0,0,0,0,0,0,0,0,0,0,0,0,0,0,0,0,0,0,0,0,0,3059,3059,3074,3074,3074,3089,3089,3089,3105,3105,3120,3120,3120,3120,3120,3136,3136,3136,3136,3136,3136,3136,3120,3120,3120,3105,3105,3089,3059,3059,3029,3029,2999,2956,2956,2914,2887,2887,2860,2860,2821,2783,2783,2771,2771,2758,2734,2734,2722,2722,2722,2710,2710,2710,2698,2698,2698,2698,2698,2698,2698,2698,2698,2698,2698,2698,2710,2710,2710,2698,2698,2698,2698,2710,2710,2710,2710,2710,2722,2722,2722,2722,2722,2722,2734,2734,2734,2734,2734,2734,2734,2734,2746,2746,2746,2746,2746,2746,2746,2746,2758,2758,2758,2758,2758,2771,2771,2771,2771,2771,2783,2796,2796,2808,2834,2834,2847,2874,2874,2887,2887,2901,2928,2928,2956,2956,2956,2985,2985,2985,2985,2985,2999,2999,2999,2999,2999,2985,2985,2985,2970,2970,2956,2956,2942,2928,2928,2914,2901,2901,2901,2901,2901,2887,2887,2887,2887,2901,2901,2914,2914,2928,2956,2956,2956,2985,2985,2999,2999,2999,3014,2999,2999,2999,2999,2999,2999,2985,2985,2970,2956,2956,2942,2942,2928,2914,2914,2901,2874,2874,2860,2860,2847,2834,2834,2834,2834,2834,2834,2834,2834,2847,2847,2847,2874,2887,2887,2901,2901,2901,2928,2928,2942,2956,2956,2970,2970,2970,2985,2985,2985,2999,2999,3029,3029,3029,3029,3029,3044,3059,3059,3059,3074,3074,3089,3105,3105,3120,3120,3152,3168,3168,3201,3269,3269,3340,3433,3433,3511,3511,3592,3678,3678,3745,3814,3814,3862,3886,3886,3886,3886,3886,3886,3862,3814,3814,3791,3791,3745,3722,3722,3656,3656,0,0,0,0,0,0,0,0,0,0,0,0,0,0,0,0,0,0,0,0,0,0,0,0,0,0,0,0,0,0,0,0,0,0,0,0,0,0,0,0,0,0,0,0,0,0,0,0,0,0,0,0,0,0,0,0,0,2376,2376,2376,2358,2358,2358,2358,2358,2349,2349,2349,2349,2349,2349,2340,2340,2280,2280,0,0,0,0,0,0,0,0,1613,1564,1564,1556,1556,1556,1552,1552,1545,1541,1541,1541,1541,1541,1541,1541,1541,1552,1560,1560,1580,1592,1592,1609,1622,1622,1635,1635,1639,1652,1652,1656,1656,1656,1656,1652,1648,1648,1648,1643,1643,1643,1643,1639,1635,1635,1630,1626,1626,1613,1613,1605,1588,1588,1576,1576,1564,1549,1549,1537,1537,1526,1514,1514,1503,1503,1496,1489,1489,1485,1482,1482,1478,1478,1475,1475,1475,1475,1475,1475,1475,1475,1475,1475,1475,1475,4119,4119,4119,4119,4119,4119
0,0,0,0,0,0,0,0,0,0,0,0,0,0,0,0,0,0,0,0,0,0,0,0,0,0,0,0,0,0,0,0,0,0,0,0,0,0,0,0,0,0,0,0,0,0,0,0,0,0,0,0,0,0,0,0,0,0,0,0,0,0,0,0,0,0,0,0,0,0,0,0,0,0,0,0,0,0,0,0,0,0,0,0,0,0,0,0,0,0,0,0,0,0,0,0,0,0,0,0,0,0,0,0,0,0,0,0,0,0,0,0,0,0,0,0,0,0,0,0,0,0,0,0,0,0,0,0,0,0,0,0,0,0,0,0,0,0,0,0,0,0,0,0,0,0,0,0,0,0,0,0,0,0,0,0,0,0,0,0,0,0,0,0,0,0,0,0,0,0,0,0,0,0,0,0,0,0,0,0,0,0,0,0,0,0,0,0,0,0,0,0,3059,3059,3074,3074,3074,3089,3089,3089,3105,3105,3120,3120,3120,3120,3120,3136,3136,3136,3136,3136,3136,3136,3120,3105,3105,3089,3089,3059,3014,3014,2970,2970,2956,2914,2914,2874,2860,2860,2821,2821,2796,2771,2771,2746,2746,2734,2722,2722,2710,2710,2710,2698,2698,2698,2698,2698,2686,2686,2686,2686,2686,2686,2686,2686,2686,2686,2698,2698,2698,2698,2698,2698,2698,2710,2710,2710,2710,2710,2722,2722,2722,2722,2722,2722,2734,2734,2734,2734,2734,2734,2734,2734,2746,2746,2746,2746,2746,2746,2746,2746,2758,2758,2758,2758,2758,2771,2771,2771,2783,2783,2783,2796,2796,2808,2834,2834,2847,2874,2874,2887,2887,2901,2928,2928,2928,2956,2956,2970,2970,2970,2985,2985,2985,2985,2985,2985,2985,2985,2985,2970,2970,2970,2942,2942,2928,2914,2914,2914,2901,2901,2887,2887,2874,2874,2874,2874,2874,2874,2874,2887,2887,2901,2928,2928,2942,2942,2942,2956,2985,2985,2985,2970,2956,2956,2956,2942,2942,2942,2942,2928,2928,2928,2901,2901,2901,2901,2914,2901,2874,2874,2860,2860,2847,2834,2834,2834,2834,2834,2834,2834,2834,2847,2847,2847,2874,2887,2887,2901,2901,2901,2928,2928,2942,2956,2956,2970,2970,2970,2985,2985,2985,2999,2999,3014,3014,3014,3014,3014,3029,3044,3044,3044,3059,3059,3074,3089,3089,3105,3105,3120,3152,3152,3201,3252,3252,3322,3395,3395,3491,3511,3571,3634,3634,3700,3767,3767,3814,3838,3838,3838,3838,3838,3838,3814,3767,3767,3745,3745,3700,3656,3656,3613,3571,3571,3531,3531,3531,0,0,0,0,0,0,0,0,0,0,0,0,0,0,0,0,0,0,0,0,0,0,0,0,0,0,0,0,0,0,0,0,0,0,0,0,0,0,0,0,0,0,0,0,0,0,0,0,0,0,0,0,0,2376,2376,2376,2358,2358,2358,2358,2358,2349,2349,2349,2349,2349,2349,2340,2340,2280,2280,2223,2223,0,0,0,0,0,0,0,1564,1564,1552,1552,1549,1541,1541,1537,1533,1533,1529,1529,1529,1526,1526,1526,1529,1541,1541,1552,1568,1568,1580,1580,1622,1635,1635,1639,1652,1652,1656,1656,1656,1656,1652,1648,1648,1648,1643,1643,1643,1643,1639,1635,1635,1630,1626,1626,1613,1613,1605,1588,1588,1576,1576,1564,1549,1549,1537,1537,1526,1514,1514,1503,1503,1496,1489,1489,1485,1482,1482,1478,1478,1475,1475,1475,1475,1475,1475,1475,1475,1475,1475,1475,1475,4119,4119,4119,4119,4119,4119
0,0,0,0,0,0,0,0,0,0,0,0,0,0,0,0,0,0,0,0,0,0,0,0,0,0,0,0,0,0,0,0,0,0,0,0,0,0,0,0,0,0,0,0,0,0,0,0,0,0,0,0,0,0,0,0,0,0,0,0,0,0,0,0,0,0,0,0,0,0,0,0,0,0,0,0,0,0,0,0,0,0,0,0,0,0,0,0,0,0,0,0,0,0,0,0,0,0,0,0,0,0,0,0,0,0,0,0,0,0,0,0,0,0,0,0,0,0,0,0,0,0,0,0,0,0,0,0,0,0,0,0,0,0,0,0,0,0,0,0,0,0,0,0,0,0,0,0,0,0,0,0,0,0,0,0,0,0,0,0,0,0,0,0,0,0,0,0,0,0,0,0,0,0,0,0,0,0,0,0,0,0,0,0,0,0,0,0,0,0,3059,3059,3059,3059,3059,3059,3074,3089,3089,3089,3105,3089,3089,3089,3105,3120,3120,3136,3136,3120,3120,3120,3120,3120,3105,3074,3074,3059,3059,3029,2970,2970,2928,2928,2914,2874,2874,2847,2847,2821,2808,2808,2783,2758,2758,2746,2746,2734,2722,2722,2710,2710,2710,2698,2698,2698,2698,2698,2686,2686,2686,2686,2686,2686,2686,2686,2686,2686,2698,2698,2698,2698,2698,2710,2710,2710,2710,2710,2722,2722,2722,2734,2722,2722,2734,2734,2734,2734,2734,2734,2734,2734,2734,2734,2734,2734,2734,2734,2734,2746,2746,2746,2758,2746,2746,2758,2758,2758,2771,2771,2771,2771,2771,2783,2783,2796,2821,2821,2847,2847,2847,2874,2874,2887,2901,2901,2914,2928,2928,2956,2956,2956,2956,2956,2970,2970,2970,2985,2985,2985,2985,2970,2956,2956,2942,2928,2928,2914,2914,2901,2901,2901,2887,2887,2874,2874,2874,2874,2874,2874,2874,2887,2887,2901,2928,2928,2942,2942,2942,2956,2985,2985,2985,2970,2956,2956,2956,2942,2942,2942,2942,2928,2928,2928,2901,2901,2901,2887,2887,2860,2847,2847,2834,2834,2834,2821,2821,2821,2808,2808,2808,2808,2808,2821,2834,2834,2847,2860,2860,2874,2887,2887,2914,2914,2928,2956,2956,2970,2970,2970,2985,2985,2985,2999,2999,3014,3014,3014,3014,3014,3029,3029,3029,3044,3044,3044,3059,3074,3074,3089,3089,3105,3152,3152,3185,3235,3235,3322,3376,3376,3491,3571,3571,3634,3634,3700,3767,3767,3814,3838,3838,3838,3838,3838,3838,3814,3767,3767,3745,3745,3700,3656,3656,3613,3571,3571,3531,3531,3531,0,0,0,0,0,0,0,0,0,0,0,0,0,0,0,2985,2985,2985,2928,2928,2928,0,0,0,0,0,0,0,0,0,0,0,0,0,0,0,0,0,0,0,0,0,0,0,0,0,0,0,2386,2386,2386,2376,2376,2376,2367,2367,2358,2358,2358,2358,2358,2349,2340,2340,2340,2340,2340,2332,2332,2297,2297,2223,2223,0,0,0,0,0,0,0,0,0,1552,1552,1549,1541,1541,1537,1533,1533,1529,1529,1529,1526,1526,1526,1529,1541,1541,1552,1568,1568,1580,1580,1597,1609,1609,1622,1630,1630,1643,1643,1643,1643,1643,1643,1643,1639,1639,1639,1639,1639,1635,1630,1630,1626,1617,1617,1609,1609,1597,1584,1584,1572,1572,1560,1545,1545,1533,1533,1526,1514,1514,1503,1500,1496,1492,1492,1492,1485,1485,1482,1482,1478,1478,1478,1478,1478,1478,1478,1478,1478,1478,4147,4147,4147,4147,4147,4147,4147,4147
0,0,0,0,0,0,0,0,0,0,0,0,0,0,0,0,0,0,0,0,0,0,0,0,0,0,0,0,0,0,0,0,0,0,0,0,0,0,0,0,0,0,0,0,0,0,0,0,0,0,0,0,0,0,0,0,0,0,0,0,0,0,0,0,0,0,0,0,0,0,0,0,0,0,0,0,0,0,0,0,0,0,0,0,0,0,0,0,0,0,0,0,0,0,0,0,0,0,0,0,0,0,0,0,0,0,0,0,0,0,0,0,0,0,0,0,0,0,0,0,0,0,0,0,0,0,0,0,0,0,0,0,0,0,0,0,0,0,0,0,0,0,0,0,0,0,0,0,0,0,0,0,0,0,0,0,0,0,0,0,0,0,0,0,0,0,0,0,0,0,0,0,0,0,0,0,0,0,0,0,0,0,0,0,0,0,0,0,3044,3044,3044,3044,3059,3059,3059,3059,3074,3074,3074,3074,3089,3089,3089,3089,3105,3120,3120,3136,3136,3120,3120,3120,3120,3120,3105,3074,3074,3059,3059,3029,2970,2970,2928,2928,2914,2874,2874,2847,2847,2821,2808,2808,2783,2758,2758,2746,2746,2734,2722,2722,2710,2710,2710,2698,2698,2686,2686,2686,2686,2686,2686,2686,2686,2675,2675,2675,2675,2686,2686,2686,2686,2686,2698,2698,2698,2698,2710,2710,2710,2710,2710,2722,2710,2710,2722,2722,2722,2722,2722,2722,2722,2722,2722,2722,2734,2734,2734,2734,2734,2734,2746,2746,2746,2746,2746,2746,2746,2758,2758,2758,2758,2771,2771,2783,2783,2796,2821,2821,2847,2847,2847,2874,2874,2887,2901,2901,2914,2928,2928,2956,2956,2956,2956,2956,2970,2970,2970,2985,2985,2985,2985,2970,2956,2956,2942,2928,2928,2914,2914,2901,2887,2887,2874,2874,2874,2860,2860,2860,2860,2860,2860,2874,2874,2887,2887,2887,2901,2928,2928,2928,2942,2942,2942,2942,2942,2942,2942,2928,2928,2928,2928,2914,2901,2901,2887,2887,2887,2887,2887,2860,2847,2847,2821,2821,2821,2808,2808,2808,2796,2796,2796,2796,2796,2808,2821,2821,2847,2847,2847,2860,2874,2874,2914,2914,2928,2956,2956,2970,2985,2985,2985,2985,2999,3014,3014,3014,3029,3014,3014,3014,3029,3029,3029,3044,3044,3044,3059,3074,3074,3089,3089,3105,3152,3152,3185,3235,3235,3322,3376,3376,3452,3531,3531,3613,3613,3678,3745,3745,3767,3791,3791,3791,3791,3791,3791,3767,3722,3722,3700,3700,3656,3634,3634,3592,3551,3551,3491,3491,3491,3395,3395,3395,0,0,0,0,0,0,0,0,0,0,3014,3014,2985,2985,2956,2914,2914,2887,2887,2860,2821,2821,2796,2796,2783,2783,0,0,0,0,0,0,0,0,0,0,0,0,0,0,0,0,0,0,0,2386,2386,2386,2376,2376,2376,2367,2367,2358,2358,2358,2358,2358,2349,2340,2340,2340,2340,2340,2332,2332,2297,2263,2223,2223,0,0,0,0,0,0,0,0,0,1552,1552,1541,1537,1537,1529,1526,1526,1518,1518,1514,1514,1514,1511,1511,1522,1522,1529,1529,1541,1552,1552,1568,1576,1576,1592,1609,1609,1622,1626,1626,1630,1630,1630,1635,1635,1635,1635,1630,1630,1630,1626,1626,1617,1609,1609,1609,1609,1597,1584,1584,1572,1572,1560,1545,1545,1533,1533,1526,1514,1514,1503,1500,1500,1496,1496,1492,1489,1489,1485,1485,1482,1482,1482,1482,1482,1482,1478,1478,1478,1482,4147,4147,4147,4147,4147,4147,4147,4147
0,0,0,0,0,0,0,0,0,0,0,0,0,0,0,0,0,0,0,0,0,0,0,0,0,0,0,0,0,0,0,0,0,0,0,0,0,0,0,0,0,0,0,0,0,0,0,0,0,0,0,0,0,0,0,0,0,0,0,0,0,0,0,0,0,0,0,0,0,0,0,0,0,0,0,0,0,0,0,0,0,0,0,0,0,0,0,0,0,0,0,0,0,0,0,0,0,0,0,0,0,0,0,0,0,0,0,0,0,0,0,0,0,0,0,0,0,0,0,0,0,0,0,0,0,0,0,0,0,0,0,0,0,0,0,0,0,0,0,0,0,0,0,0,0,0,0,0,0,0,0,0,0,0,0,0,0,0,0,0,0,0,0,0,0,0,0,0,0,0,0,0,0,0,0,0,0,0,0,0,0,0,0,0,0,0,0,0,3044,3044,3044,3044,3059,3059,3059,3059,3074,3074,3074,3074,3089,3089,3089,3089,3105,3105,3105,3120,3120,3120,3120,3120,3105,3105,3089,3059,3059,3029,3029,2999,2942,2942,2901,2901,2874,2847,2847,2821,2821,2796,2783,2783,2758,2746,2746,2734,2734,2722,2710,2710,2698,2698,2698,2686,2686,2686,2686,2686,2675,2675,2675,2675,2675,2675,2675,2675,2675,2675,2686,2686,2686,2686,2698,2698,2698,2698,2710,2710,2710,2710,2710,2722,2710,2710,2722,2722,2722,2722,2722,2722,2722,2722,2722,2722,2734,2734,2734,2734,2734,2734,2746,2746,2746,2746,2746,2746,2746,2758,2758,2758,2758,2771,2771,2783,2783,2796,2808,2808,2834,2847,2847,2860,2860,2874,2887,2887,2901,2914,2914,2928,2942,2942,2942,2942,2942,2956,2956,2956,2970,2970,2970,2956,2942,2942,2928,2914,2914,2901,2901,2887,2874,2874,2874,2874,2860,2860,2860,2860,2847,2847,2847,2860,2860,2860,2874,2874,2874,2901,2901,2901,2914,2914,2914,2914,2914,2942,2942,2928,2928,2928,2928,2914,2901,2901,2887,2887,2887,2887,2887,2860,2847,2847,2821,2821,2821,2808,2808,2808,2796,2796,2796,2796,2796,2808,2821,2821,2847,2847,2847,2860,2874,2874,2914,2914,2928,2956,2956,2970,2985,2985,2985,2985,2999,3014,3014,3014,3029,3014,3014,3014,3029,3029,3029,3044,3044,3044,3059,3074,3074,3089,3089,3105,3136,3136,3185,3235,3235,3304,3376,3376,3433,3511,3511,3592,3592,3634,3700,3700,3745,3767,3767,3745,3745,3745,3745,3722,3700,3700,3656,3656,3634,3592,3592,3571,3551,3551,3491,3491,3491,3395,3395,3395,0,0,0,0,0,0,0,0,0,0,3014,3014,2985,2985,2956,2914,2914,2887,2887,2860,2821,2821,2796,2796,2783,2783,0,0,0,0,0,0,0,0,0,0,0,0,0,0,0,0,0,0,0,2386,2376,2376,2376,2376,2367,2367,2367,2358,2349,2349,2349,2349,2340,2332,2332,2332,2332,2323,2314,2314,2305,2263,2263,2263,0,0,0,0,0,0,0,0,0,1556,1556,1541,1533,1533,1522,1518,1518,1518,1518,1514,1514,1514,1511,1511,1522,1522,1529,1529,1541,1552,1552,1568,1576,1576,1592,1609,1609,1622,1626,1626,1630,1630,1630,1635,1635,1635,1635,1630,1630,1630,1626,1626,1617,1609,1609,1601,1601,1592,1576,1576,1564,1564,1552,1541,1541,1533,1533,1522,1514,1514,1503,1500,1500,1496,1496,1492,1489,1489,1485,1485,1482,1482,1482,1482,1482,1482,1478,1478,1478,1482,4147,4147,4147,4147,4147,4147,4147,4147
0,0,0,0,0,0,0,0,0,0,0,0,0,0,0,0,0,0,0,0,0,0,0,0,0,0,0,0,0,0,0,0,0,0,0,0,0,0,0,0,0,0,0,0,0,0,0,0,0,0,0,0,0,0,0,0,0,0,0,0,0,0,0,0,0,0,0,0,0,0,0,0,0,0,0,0,0,0,0,0,0,0,0,0,0,0,0,0,0,0,0,0,0,0,0,0,0,0,0,0,0,0,0,0,0,0,0,0,0,0,0,0,0,0,0,0,0,0,0,0,0,0,0,0,0,0,0,0,0,0,0,0,0,0,0,0,0,0,0,0,0,0,0,0,0,0,0,0,0,0,0,0,0,0,0,0,0,0,0,0,0,0,0,0,0,0,0,0,0,0,0,0,0,0,0,0,0,0,0,0,0,0,0,0,0,0,0,3044,3044,3044,3044,3044,3044,3044,3059,3059,3059,3074,3074,3074,3074,3074,3089,3089,3089,3105,3105,3120,3120,3120,3120,3120,3105,3105,3074,3044,3044,3014,3014,2970,2914,2914,2874,2874,2860,2834,2834,2808,2808,2796,2783,2783,2758,2746,2746,2734,2734,2722,2710,2710,2698,2698,2698,2686,2686,2686,2686,2686,2675,2675,2675,2675,2675,2675,2686,2686,2675,2675,2686,2686,2686,2686,2698,2698,2698,2698,2698,2698,2698,2698,2698,2710,2710,2710,2710,2710,2710,2710,2722,2722,2722,2722,2722,2722,2734,2734,2734,2734,2734,2734,2734,2734,2734,2734,2734,2746,2746,2746,2746,2746,2746,2771,2771,2783,2783,2796,2808,2808,2834,2847,2847,2860,2860,2874,2887,2887,2887,2901,2901,2928,2928,2928,2928,2928,2928,2928,2928,2942,2970,2970,2970,2956,2942,2942,2928,2914,2914,2901,2901,2887,2874,2874,2874,2874,2860,2860,2860,2860,2847,2847,2847,2860,2860,2860,2874,2874,2874,2901,2901,2901,2914,2914,2914,2914,2914,2914,2914,2928,2928,2928,2928,2914,2901,2901,2887,2887,2887,2874,2874,2860,2834,2834,2821,2821,2808,2796,2796,2796,2796,2796,2796,2796,2796,2796,2808,2808,2834,2847,2847,2860,2874,2874,2901,2901,2928,2956,2956,2985,2985,2985,2999,2999,3014,3014,3014,3029,3029,3029,3029,3029,3029,3029,3029,3044,3044,3044,3059,3074,3074,3089,3089,3105,3136,3136,3185,3235,3235,3304,3376,3376,3433,3511,3511,3592,3592,3634,3700,3700,3745,3767,3767,3745,3745,3745,3745,3722,3700,3700,3656,3656,3634,3592,3592,3571,3511,3511,3471,3471,3414,3376,3376,3322,3322,3286,3235,3235,3235,0,3136,3136,0,3059,3014,3014,2985,2985,2942,2914,2914,2887,2887,2860,2821,2821,2796,2771,2771,2758,2758,2734,2734,0,0,0,0,0,0,0,0,0,0,0,0,0,0,2386,2386,2376,2367,2367,2367,2367,2358,2358,2358,2358,2349,2349,2349,2349,2340,2332,2332,2332,2332,2323,2314,2314,2314,2280,2280,2280,0,0,0,0,0,0,0,0,0,0,0,1541,1533,1533,1522,1518,1518,1511,1511,1507,1503,1503,1503,1503,1503,1503,1511,1511,1518,1529,1529,1541,1556,1556,1568,1584,1584,1601,1605,1605,1613,1613,1622,1622,1622,1626,1626,1626,1626,1622,1617,1617,1609,1605,1605,1592,1592,1580,1568,1568,1556,1556,1549,1537,1537,1529,1529,1522,1511,1511,1503,1500,1500,1496,1496,1496,1489,1489,1489,1485,1485,1485,1485,1482,1482,1482,1482,1482,1482,1482,4147,4147,4147,4147,4147,4147,4147,4147
0,0,0,0,0,0,0,0,0,0,0,0,0,0,0,0,0,0,0,0,0,0,0,0,0,0,0,0,0,0,0,0,0,0,0,0,0,0,0,0,0,0,0,0,0,0,0,0,0,0,0,0,0,0,0,0,0,0,0,0,0,0,0,0,0,0,0,0,0,0,0,0,0,0,0,0,0,0,0,0,0,0,0,0,0,0,0,0,0,0,0,0,0,0,0,0,0,0,0,0,0,0,0,0,0,0,0,0,0,0,0,0,0,0,0,0,0,0,0,0,0,0,0,0,0,0,0,0,0,0,0,0,0,0,0,0,0,0,0,0,0,0,0,0,0,0,0,0,0,0,0,0,0,0,0,0,0,0,0,0,0,0,0,0,0,0,0,0,0,0,0,0,0,0,0,0,0,0,0,0,0,0,0,0,0,3044,3044,3029,3029,3044,3029,3029,3044,3044,3059,3059,3059,3074,3074,3074,3074,3074,3089,3089,3089,3105,3105,3120,3120,3120,3120,3120,3105,3105,3074,3044,3044,3014,3014,2970,2914,2914,2874,2874,2860,2834,2834,2808,2808,2783,2758,2758,2746,2734,2734,2722,2722,2722,2710,2710,2698,2698,2698,2686,2686,2686,2686,2686,2675,2675,2675,2675,2675,2675,2675,2675,2675,2675,2686,2686,2686,2686,2686,2686,2686,2686,2686,2686,2686,2686,2698,2698,2698,2698,2698,2698,2698,2698,2698,2698,2698,2710,2722,2722,2734,2734,2734,2734,2734,2734,2734,2734,2734,2734,2734,2746,2746,2746,2746,2746,2746,2771,2771,2783,2783,2796,2808,2808,2834,2847,2847,2860,2860,2874,2887,2887,2887,2901,2901,2928,2928,2928,2928,2928,2928,2928,2928,2942,2942,2942,2942,2942,2928,2928,2914,2901,2901,2887,2887,2874,2860,2860,2860,2860,2847,2847,2847,2847,2847,2847,2847,2847,2847,2847,2860,2860,2860,2874,2874,2887,2887,2887,2887,2887,2887,2887,2887,2901,2901,2901,2914,2914,2901,2901,2887,2887,2887,2874,2874,2860,2834,2834,2821,2821,2808,2796,2796,2796,2783,2783,2783,2796,2796,2796,2808,2808,2834,2847,2847,2860,2874,2874,2901,2901,2928,2956,2956,2985,2999,2999,2999,3014,3014,3014,3014,3029,3029,3029,3029,3029,3029,3044,3044,3044,3044,3044,3059,3074,3074,3089,3089,3105,3136,3136,3168,3218,3218,3286,3340,3340,3414,3491,3491,3551,3551,3613,3656,3656,3722,3722,3722,3722,3722,3700,3700,3678,3656,3656,3634,3634,3592,3571,3571,3511,3491,3491,3452,3452,3395,3358,3358,3304,3304,3269,3235,3235,3168,3136,3136,3089,3089,3044,3014,3014,2985,2985,2942,2914,2914,2887,2887,2860,2821,2821,2796,2771,2771,2758,2758,2734,2734,0,0,0,0,0,0,0,0,0,0,0,0,0,0,2386,2386,2376,2367,2367,2367,2367,2358,2358,2358,2349,2340,2340,2340,2340,2332,2323,2323,2314,2314,2305,2297,2297,2280,2263,2263,2255,2255,2255,0,0,0,0,0,0,0,0,1556,1541,1533,1533,1518,1511,1511,1503,1503,1500,1496,1496,1492,1492,1492,1492,1500,1500,1503,1511,1511,1522,1533,1533,1549,1564,1564,1580,1592,1592,1601,1601,1609,1622,1622,1626,1626,1626,1626,1622,1617,1617,1609,1605,1605,1592,1592,1580,1568,1568,1556,1556,1549,1537,1537,1529,1529,1522,1511,1511,1503,1503,1503,1500,1500,1496,1496,1496,1489,1485,1485,1485,1485,1482,1482,1482,1482,1482,1482,1482,4119,4119,4119,4119,4119,4119,4119,4119
0,0,0,0,0,0,0,0,0,0,0,0,0,0,0,0,0,0,0,0,0,0,0,0,0,0,0,0,0,0,0,0,0,0,0,0,0,0,0,0,0,0,0,0,0,0,0,0,0,0,0,0,0,0,0,0,0,0,0,0,0,0,0,0,0,0,0,0,0,0,0,0,0,0,0,0,0,0,0,0,0,0,0,0,0,0,0,0,0,0,0,0,0,0,0,0,0,0,0,0,0,0,0,0,0,0,0,0,0,0,0,0,0,0,0,0,0,0,0,0,0,0,0,0,0,0,0,0,0,0,0,0,0,0,0,0,0,0,0,0,2874,2874,2847,2847,2834,2808,2808,2808,0,2758,2722,2722,2722,0,0,0,0,0,0,0,0,0,0,0,0,0,0,0,0,0,0,0,0,0,0,0,0,0,0,0,0,0,0,0,0,3044,3044,3029,3029,3044,3029,3029,3044,3044,3044,3044,3059,3059,3059,3059,3074,3074,3089,3089,3089,3105,3105,3120,3120,3120,3120,3105,3089,3089,3074,3044,3044,3014,3014,2970,2901,2901,2874,2874,2847,2821,2821,2796,2783,2783,2758,2758,2746,2734,2734,2722,2722,2722,2710,2710,2698,2698,2698,2686,2686,2675,2675,2675,2675,2675,2675,2675,2675,2675,2675,2675,2675,2675,2686,2686,2686,2686,2686,2686,2686,2686,2686,2686,2686,2686,2698,2698,2698,2698,2698,2698,2698,2698,2698,2698,2698,2710,2722,2722,2734,2734,2734,2734,2734,2734,2734,2734,2734,2734,2734,2734,2734,2734,2734,2734,2746,2758,2758,2771,2771,2783,2808,2808,2821,2847,2847,2860,2860,2874,2887,2887,2887,2901,2901,2914,2928,2928,2928,2928,2928,2928,2928,2942,2942,2942,2942,2928,2914,2914,2901,2887,2887,2874,2874,2860,2860,2860,2847,2847,2847,2847,2847,2847,2834,2834,2834,2847,2847,2847,2860,2860,2860,2874,2874,2887,2887,2887,2887,2887,2887,2887,2887,2901,2901,2901,2914,2914,2901,2901,2887,2887,2887,2887,2887,2874,2847,2847,2834,2834,2808,2796,2796,2796,2783,2783,2783,2783,2783,2783,2796,2796,2808,2821,2821,2847,2860,2860,2901,2901,2914,2942,2942,2970,2999,2999,2999,3014,3014,3014,3014,3029,3029,3029,3029,3029,3029,3044,3044,3044,3044,3044,3059,3074,3074,3089,3089,3105,3120,3120,3168,3201,3201,3252,3322,3322,3395,3471,3471,3531,3531,3592,3634,3634,3678,3700,3700,3678,3678,3678,3700,3678,3656,3656,3634,3634,3592,3571,3571,3511,3491,3491,3452,3452,3395,3358,3358,3304,3304,3269,3269,0,3168,3136,3136,3089,3089,3044,3014,3014,2985,2985,2956,2914,2914,2887,2887,2860,2821,2821,2796,2771,2771,2746,2746,2722,2722,0,0,0,0,0,0,0,0,0,0,0,0,0,2376,2376,2376,2367,2367,2367,2358,2358,2349,2349,2349,2332,2332,2332,2323,2323,2314,2305,2305,2297,2297,2288,2272,2272,2255,2231,2231,2207,2207,2207,0,0,0,0,0,0,0,0,1556,1556,1533,1533,1518,1511,1511,1503,1503,1500,1496,1496,1492,1492,1492,1492,1500,1500,1503,1511,1511,1522,1533,1533,1549,1564,1564,1580,1592,1592,1601,1601,1609,1613,1613,1617,1622,1617,1617,1613,1609,1609,1601,1592,1592,1584,1584,1572,1560,1560,1552,1552,1541,1529,1529,1526,1526,1518,1511,1511,1503,1503,1503,1500,1500,1496,1492,1492,1492,1489,1489,1485,1485,1485,1482,1482,1482,1482,1485,1485,4092,4092,4092,4092,4092,4092,4119,4119
0,0,0,0,0,0,0,0,0,0,0,0,0,0,0,0,0,0,0,0,0,0,0,0,0,0,0,0,0,0,0,0,0,0,0,0,0,0,0,0,0,0,0,0,0,0,0,0,0,0,0,0,0,0,0,0,0,0,0,0,0,0,0,0,0,0,0,0,0,0,0,0,0,0,0,0,0,0,0,0,0,0,0,0,0,0,0,0,0,0,0,0,0,0,0,0,0,0,0,0,0,0,0,0,0,0,0,0,0,0,0,0,0,0,0,0,0,0,0,0,0,0,0,0,0,0,0,0,0,0,0,0,0,0,0,0,0,0,0,0,2874,2874,2847,2847,2834,2808,2808,2808,0,2758,2722,2722,2722,0,0,0,0,0,0,0,0,0,0,0,0,0,0,0,0,0,0,0,0,0,0,0,0,0,0,0,0,0,0,3014,3014,3014,3029,3029,3029,3029,3029,3029,3029,3029,3044,3044,3044,3059,3059,3059,3059,3059,3074,3074,3089,3105,3105,3105,3105,3105,3105,3089,3074,3074,3059,3044,3044,3014,3014,2970,2901,2901,2874,2874,2847,2821,2821,2796,2783,2783,2771,2771,2746,2734,2734,2734,2734,2722,2722,2722,2698,2698,2698,2686,2686,2675,2675,2675,2675,2675,2675,2675,2675,2675,2675,2675,2675,2675,2686,2686,2686,2686,2686,2686,2686,2686,2686,2686,2686,2686,2698,2698,2698,2698,2698,2698,2698,2698,2698,2698,2698,2710,2710,2710,2722,2734,2734,2734,2734,2734,2746,2734,2734,2734,2734,2734,2734,2734,2734,2734,2746,2758,2758,2771,2771,2783,2808,2808,2821,2847,2847,2860,2874,2874,2887,2887,2901,2914,2914,2914,2928,2928,2928,2928,2928,2928,2928,2942,2942,2942,2942,2928,2914,2914,2901,2887,2887,2874,2874,2860,2860,2860,2847,2847,2847,2847,2847,2847,2834,2834,2834,2847,2847,2847,2847,2847,2847,2860,2860,2874,2874,2874,2887,2887,2887,2887,2887,2901,2901,2901,2901,2901,2901,2901,2887,2887,2887,2887,2887,2874,2847,2847,2834,2834,2808,2796,2796,2796,2783,2783,2783,2783,2783,2783,2783,2783,2808,2821,2821,2821,2834,2834,2887,2887,2914,2942,2942,2970,2985,2985,2999,2999,2999,3014,3014,3029,3029,3029,3029,3029,3029,3044,3044,3044,3059,3059,3059,3074,3074,3089,3089,3105,3120,3120,3168,3201,3201,3252,3322,3322,3395,3471,3471,3531,3531,3592,3634,3634,3678,3700,3700,3678,3678,3678,3678,3656,3634,3634,3613,3613,3571,3531,3531,3511,3452,3452,3433,3433,3376,3340,3340,3304,3304,3269,3218,3218,3168,3136,3136,3089,3089,3044,3014,3014,2985,2985,2942,2914,2914,2887,2887,2847,2808,2808,2783,2771,2771,2734,2734,2722,2698,2698,2698,0,0,0,0,0,0,0,0,0,0,0,2376,2376,2376,2367,2367,2367,2358,2358,2349,2349,2349,2332,2332,2332,2323,2323,2314,2305,2305,2297,2297,2288,2272,2272,2255,2231,2231,2207,2207,2207,0,0,0,0,0,0,0,0,1556,1556,1533,1533,1518,1507,1507,1496,1496,1492,1489,1489,1485,1485,1485,1485,1489,1489,1489,1496,1496,1507,1518,1518,1533,1549,1549,1564,1564,1580,1592,1592,1601,1609,1609,1609,1613,1609,1609,1609,1601,1601,1592,1584,1584,1572,1572,1564,1552,1552,1545,1545,1533,1526,1526,1522,1522,1518,1511,1511,1507,1503,1503,1500,1500,1496,1492,1492,1492,1489,1489,1489,1489,1485,1482,1482,1482,1482,4092,4092,4092,4092,4092,4092,4092,4092,4119,4119
0,0,0,0,0,0,0,0,0,0,0,0,0,0,0,0,0,0,0,0,0,0,0,0,0,0,0,0,0,0,0,0,0,0,0,0,0,0,0,0,0,0,0,0,0,0,0,0,0,0,0,0,0,0,0,0,0,0,0,0,0,0,0,0,0,0,0,0,0,0,0,0,0,0,0,0,0,0,0,0,0,0,0,0,0,0,0,0,0,0,0,0,0,0,0,0,0,0,0,0,0,0,0,0,0,0,0,0,0,0,0,0,0,0,0,0,0,0,0,0,0,0,0,0,0,0,0,0,0,0,0,0,0,0,0,0,0,0,0,0,2860,2860,2821,2821,2808,2783,2783,2771,2771,2758,2710,2710,2686,2686,0,0,0,0,0,0,0,0,0,0,0,0,0,0,0,0,0,0,0,0,0,0,0,0,0,0,0,0,0,3014,3014,3014,3029,3029,3029,3029,3029,3029,3029,3029,3044,3044,3044,3059,3059,3059,3059,3059,3074,3074,3089,3105,3105,3105,3105,3105,3105,3089,3074,3074,3059,3044,3044,2999,2999,2970,2901,2901,2874,2874,2847,2821,2821,2796,2783,2783,2771,2771,2746,2734,2734,2734,2734,2722,2710,2710,2698,2698,2698,2686,2686,2675,2675,2675,2675,2675,2675,2675,2675,2675,2675,2675,2675,2686,2686,2686,2698,2698,2698,2710,2710,2710,2710,2710,2710,2698,2698,2698,2686,2686,2686,2686,2686,2675,2675,2698,2698,2710,2710,2710,2722,2734,2734,2734,2734,2734,2746,2746,2746,2746,2746,2746,2746,2746,2758,2758,2771,2771,2771,2783,2783,2808,2821,2821,2834,2847,2847,2874,2874,2874,2887,2887,2901,2914,2914,2914,2928,2928,2928,2928,2928,2928,2928,2942,2942,2942,2942,2928,2914,2914,2901,2874,2874,2874,2874,2860,2847,2847,2834,2834,2834,2821,2821,2821,2834,2834,2834,2834,2834,2834,2847,2847,2847,2847,2847,2860,2860,2860,2874,2874,2887,2887,2887,2887,2901,2901,2901,2901,2901,2901,2901,2901,2901,2887,2887,2874,2860,2860,2847,2834,2834,2821,2821,2808,2796,2796,2783,2783,2783,2783,2783,2783,2808,2821,2821,2821,2834,2834,2887,2887,2914,2942,2942,2970,2985,2985,2999,2999,2999,3014,3014,3029,3029,3029,3029,3029,3029,3044,3044,3044,3059,3059,3059,3074,3074,3089,3089,3105,3120,3120,3168,3201,3201,3252,3322,3322,3395,3452,3452,3511,3511,3571,3613,3613,3656,3678,3678,3678,3678,3656,3656,3634,3613,3613,3592,3592,3551,3511,3511,3471,3452,3452,3414,3414,3358,3322,3322,3304,3304,3235,3201,3201,3168,3136,3136,3089,3089,3044,3014,3014,2985,2985,2942,2914,2914,2887,2887,2847,2808,2808,2783,2771,2771,2734,2734,2722,2698,2698,2698,0,0,0,0,0,0,0,0,0,0,0,2376,2376,2376,2367,2358,2358,2358,2358,2349,2340,2340,2323,2323,2323,2314,2314,2305,2288,2288,2272,2272,2263,2247,2247,2223,2199,2199,2176,2176,2138,2138,0,0,0,0,0,0,0,0,0,1545,1545,1522,1503,1503,1489,1489,1485,1478,1478,1475,1475,1475,1475,1475,1475,1475,1478,1478,1507,1518,1518,1533,1549,1549,1564,1564,1580,1592,1592,1601,1609,1609,1609,1613,1609,1609,1609,1601,1601,1592,1584,1584,1572,1572,1564,1552,1552,1545,1545,1533,1526,1526,1522,1522,1514,1507,1507,1507,1500,1500,1500,1500,1496,1492,1492,1489,1489,1489,1485,1485,1482,1482,1482,1482,1482,4092,4092,4092,4092,4092,4092,4092,4092,4119,4119
0,0,0,0,0,0,0,0,0,0,0,0,0,0,0,0,0,0,0,0,0,0,0,0,0,0,0,0,0,0,0,0,0,0,0,0,0,0,0,0,0,0,0,0,0,0,0,0,0,0,0,0,0,0,0,0,0,0,0,0,0,0,0,0,0,0,0,0,0,0,0,0,0,0,0,0,0,0,0,0,0,0,0,0,0,0,0,0,0,0,0,0,0,0,0,0,0,0,0,0,0,0,0,0,0,0,0,0,0,0,0,0,0,0,0,0,0,0,0,0,0,0,0,0,0,0,0,0,0,0,0,0,0,0,0,0,0,0,0,0,2821,2821,2821,2821,2808,2783,2783,2771,2771,0,2710,2710,2686,2686,0,0,0,0,0,0,0,0,0,0,0,0,0,0,0,0,0,0,0,0,0,0,0,0,0,0,0,0,2985,2985,2999,2999,3014,3014,3014,3014,3014,3014,3029,3029,3029,3029,3044,3044,3044,3059,3059,3059,3059,3059,3089,3089,3089,3074,3074,3074,3074,3074,3044,3044,3029,2999,2999,2985,2985,2942,2901,2901,2874,2874,2847,2821,2821,2808,2783,2783,2771,2771,2746,2734,2734,2722,2722,2722,2710,2710,2698,2698,2698,2686,2686,2686,2686,2686,2686,2675,2675,2675,2675,2675,2675,2675,2675,2686,2698,2698,2698,2710,2710,2710,2710,2710,2710,2710,2710,2698,2698,2698,2686,2686,2686,2686,2686,2675,2675,2675,2675,2686,2686,2686,2698,2698,2698,2710,2710,2722,2734,2734,2746,2746,2746,2746,2746,2746,2758,2758,2771,2771,2771,2783,2783,2808,2821,2821,2834,2847,2847,2874,2874,2874,2887,2887,2901,2914,2914,2914,2928,2928,2928,2928,2928,2942,2942,2942,2956,2942,2942,2928,2914,2914,2901,2874,2874,2874,2874,2860,2847,2847,2834,2834,2834,2821,2821,2821,2834,2834,2834,2834,2834,2834,2847,2847,2847,2847,2847,2860,2860,2860,2874,2874,2887,2887,2887,2887,2901,2901,2914,2914,2914,2914,2901,2901,2901,2887,2887,2874,2860,2860,2847,2834,2834,2821,2821,2808,2796,2796,2783,2783,2783,2783,2783,2783,2808,2821,2821,2821,2834,2834,2887,2887,2914,2942,2942,2970,2970,2970,2985,2999,2999,3014,3014,3014,3014,3014,3029,3029,3029,3044,3044,3044,3059,3059,3074,3089,3089,3105,3105,3120,3136,3136,3168,3218,3218,3269,3322,3322,3395,3452,3452,3511,3511,3571,3613,3613,3656,3678,3678,3678,3678,3656,3656,3634,3613,3613,3592,3592,3551,3511,3511,3471,3452,3452,3414,3414,3358,3322,3322,3322,0,3235,3201,3201,3168,3120,3120,3089,3089,3044,3014,3014,2985,2985,2942,2914,2914,2874,2874,2847,2808,2808,2783,2758,2758,2734,2734,2710,2686,2686,2686,0,0,0,0,0,0,0,0,0,0,0,2376,2367,2367,2367,2358,2358,2349,2349,2332,2323,2323,2314,2305,2305,2297,2297,2280,2263,2263,2247,2247,2239,2215,2215,2215,2199,2199,2176,2176,2138,2138,0,0,0,0,0,0,0,0,0,0,0,1529,1503,1503,1489,1489,1485,1478,1478,1475,1475,1475,1475,1475,1475,1475,1478,1478,1489,1500,1500,1511,1511,1529,1545,1545,1564,1576,1576,1592,1597,1597,1601,1601,1601,1601,1597,1588,1588,1584,1572,1572,1564,1564,1556,1545,1545,1537,1537,1529,1522,1522,1518,1511,1511,1507,1507,1503,1500,1500,1500,1500,1496,1492,1492,1485,1485,1485,1485,1485,1482,1482,1482,1482,1482,4092,4092,4092,4092,4092,4092,4092,4092,4119,4119
0,0,0,0,0,0,0,0,0,0,0,0,0,0,0,0,0,0,0,0,0,0,0,0,0,0,0,0,0,0,0,0,0,0,0,0,0,0,0,0,0,0,0,0,0,0,0,0,0,0,0,0,0,0,0,0,0,0,0,0,0,0,0,0,0,0,0,0,0,0,0,0,0,0,0,0,0,0,0,0,0,0,0,0,0,0,0,0,0,0,0,0,0,0,0,0,0,0,0,0,0,0,0,0,0,0,0,0,0,0,0,0,0,0,0,0,0,0,0,0,0,0,0,0,0,0,0,0,0,0,0,0,0,0,0,0,0,0,0,0,2821,2821,2796,2796,2783,2758,2758,2746,2746,2722,2710,2710,2663,2663,2663,2663,0,0,0,0,0,0,0,0,0,0,0,0,0,0,0,0,0,0,0,2942,2942,2942,2942,2942,2956,2956,2956,2970,2999,2999,2999,2999,2999,2999,2999,3014,3014,3014,3029,3029,3029,3029,3029,3044,3044,3044,3044,3044,3044,3089,3089,3074,3074,3074,3074,3074,3044,3044,3029,2999,2999,2985,2985,2942,2901,2901,2874,2874,2847,2821,2821,2808,2783,2783,2771,2771,2746,2734,2734,2722,2722,2722,2710,2710,2698,2686,2686,2686,2686,2675,2675,2686,2675,2675,2675,2675,2675,2675,2675,2675,2675,2675,2698,2698,2698,2698,2698,2710,2710,2710,2710,2710,2698,2698,2698,2698,2686,2675,2675,2675,2675,2663,2663,2663,2663,2663,2663,2663,2675,2686,2686,2686,2686,2698,2710,2710,2722,2722,2722,2746,2746,2746,2771,2771,2783,2796,2796,2808,2808,2821,2821,2821,2847,2874,2874,2874,2887,2887,2901,2901,2901,2914,2914,2928,2928,2928,2942,2928,2928,2942,2942,2942,2956,2942,2942,2942,2928,2928,2901,2887,2887,2874,2874,2860,2847,2847,2834,2821,2821,2821,2821,2821,2821,2821,2821,2821,2821,2821,2834,2834,2834,2847,2847,2847,2847,2847,2860,2860,2874,2874,2874,2874,2887,2887,2901,2901,2901,2901,2901,2901,2901,2901,2901,2887,2887,2887,2860,2847,2847,2847,2847,2834,2821,2821,2808,2808,2808,2808,2808,2808,2821,2834,2834,2847,2847,2847,2887,2887,2928,2942,2942,2970,2970,2970,2985,2999,2999,3014,3014,3014,3014,3014,3029,3029,3029,3044,3044,3044,3059,3059,3074,3089,3089,3105,3136,3136,3136,3136,3168,3218,3218,3269,3322,3322,3395,3452,3452,3511,3511,3571,3613,3613,3634,3656,3656,3656,3656,3634,3634,3613,3592,3592,3571,3571,3531,3491,3491,3452,3414,3414,3376,3376,3358,3304,3304,3269,3269,3235,3201,3201,3168,3120,3120,3089,3089,3044,3014,3014,2970,2970,2942,2901,2901,2874,2874,2834,2796,2796,2771,2746,2746,2722,2722,2698,2686,2686,2686,0,0,0,0,0,0,0,0,0,0,0,2376,2367,2367,2367,2358,2358,2349,2349,2332,2323,2323,2314,2305,2305,2297,2297,2280,2263,2263,2247,2247,2239,2215,2215,2191,2168,2168,2145,2145,2116,2066,2066,2000,2000,2000,0,1770,1770,1770,0,0,0,1529,1503,1503,1482,1482,1475,1471,1471,1468,1468,1464,1464,1464,1461,1461,1464,1464,1471,1485,1485,1496,1496,1511,1529,1529,1545,1560,1560,1576,1588,1588,1592,1592,1592,1592,1588,1580,1580,1572,1564,1564,1564,1564,1556,1545,1545,1537,1537,1529,1522,1522,1518,1511,1511,1507,1507,1503,1500,1500,1500,1500,1496,1492,1492,1485,1485,1485,1485,1485,1485,1482,1482,1482,1482,4092,4092,4092,4092,4092,4092,4092,4092,4119,4119
0,0,0,0,0,0,0,0,0,0,0,0,0,0,0,0,0,0,0,0,0,0,0,0,0,0,0,0,0,0,0,0,0,0,0,0,0,0,0,0,0,0,0,0,0,0,0,0,0,0,0,0,0,0,0,0,0,0,0,0,0,0,0,0,0,0,0,0,0,0,0,0,0,0,0,0,0,0,0,0,0,0,0,0,0,0,0,0,0,0,0,0,0,0,0,0,0,0,0,0,0,0,0,0,0,0,0,0,0,0,0,0,0,0,0,0,0,0,0,0,0,0,0,0,0,0,0,0,0,0,0,0,0,0,0,0,0,0,0,0,2796,2796,2771,2771,2746,2734,2734,2734,2734,2710,2686,2686,2663,2663,2663,2663,2663,2663,0,0,0,0,0,0,0,0,0,0,0,0,0,0,0,0,0,2942,2942,2942,2942,2942,2956,2956,2956,2970,2999,2999,2999,2999,2999,2999,2999,3014,3014,3014,3029,3029,3029,3029,3029,3044,3044,3044,3044,3044,3044,3044,3044,3029,3029,3014,3014,2999,2985,2985,2956,2928,2928,2901,2901,2874,2847,2847,2808,2808,2796,2783,2783,2771,2758,2758,2746,2746,2722,2710,2710,2710,2710,2710,2698,2698,2698,2686,2686,2686,2686,2675,2675,2686,2675,2675,2675,2675,2675,2675,2675,2675,2675,2675,2686,2686,2698,2698,2698,2710,2710,2710,2710,2710,2698,2698,2698,2698,2686,2675,2675,2675,2675,2663,2663,2663,2663,2663,2663,2663,2675,2686,2686,2686,2686,2698,2710,2710,2722,2722,2722,2746,2746,2746,2771,2771,2783,2796,2796,2808,2808,2821,2821,2821,2847,2874,2874,2874,2887,2887,2901,2901,2901,2914,2914,2928,2928,2928,2942,2928,2928,2942,2942,2942,2956,2942,2942,2942,2928,2928,2901,2887,2887,2874,2874,2860,2847,2847,2834,2821,2821,2821,2821,2821,2821,2821,2821,2821,2821,2821,2821,2821,2821,2834,2834,2834,2834,2834,2847,2847,2847,2874,2874,2874,2887,2887,2901,2901,2901,2901,2901,2901,2901,2901,2901,2901,2901,2901,2887,2874,2874,2860,2860,2860,2860,2860,2834,2834,2834,2834,2847,2847,2847,2847,2847,2847,2874,2874,2887,2887,2914,2942,2942,2956,2956,2956,2970,2985,2985,2999,2999,2999,3014,3014,3014,3029,3029,3029,3029,3044,3059,3059,3074,3089,3089,3105,3136,3136,3136,3136,3168,3218,3218,3269,3322,3322,3395,3452,3452,3491,3491,3551,3592,3592,3613,3656,3656,3656,3656,3613,3613,3592,3571,3571,3551,3531,3531,3471,3471,3433,3414,3414,3376,3376,3358,3304,3304,3269,3269,3235,3201,3201,3168,3120,3120,3089,3089,3044,3014,3014,2970,2970,2942,2901,2901,2874,2874,2834,2796,2796,2771,2746,2746,2722,2722,2698,2675,2675,2652,2652,2629,2629,0,0,0,0,0,0,0,0,2376,2358,2358,2358,2349,2349,2340,2340,2323,2314,2314,2297,2288,2288,2272,2272,2263,2239,2239,2223,2223,2207,2183,2183,2160,2160,2138,2116,2116,2094,2066,2066,2000,2000,1943,1943,1770,1770,1770,0,0,0,1541,1503,1503,1482,1482,1475,1471,1471,1468,1468,1464,1464,1464,1461,1461,1464,1464,1471,1485,1485,1496,1496,1511,1529,1529,1545,1560,1560,1576,1588,1588,1592,1592,1592,1592,1588,1580,1580,1572,1564,1564,1556,1556,1545,1537,1537,1533,1533,1526,1518,1518,1514,1511,1511,1507,1507,1503,1500,1500,1500,1500,1496,1492,1492,1485,1485,1485,1485,1485,1482,1482,1482,1482,1482,4092,4092,4092,4092,4092,4092,4092,4092,4119,4119
0,0,0,0,0,0,0,0,0,0,0,0,0,0,0,0,0,0,0,0,0,0,0,0,0,0,0,0,0,0,0,0,0,0,0,0,0,0,0,0,0,0,0,0,0,0,0,0,0,0,0,0,0,0,0,0,0,0,0,0,0,0,0,0,0,0,0,0,0,0,0,0,0,0,0,0,0,0,0,0,0,0,0,0,0,0,0,0,0,0,0,0,0,0,0,0,0,0,0,0,0,0,0,0,0,0,0,0,0,0,0,0,0,0,0,0,0,0,0,0,0,0,0,0,0,0,0,0,0,0,0,0,0,0,0,0,0,0,0,0,2796,2796,2771,2771,2746,2734,2734,2734,2734,2710,2686,2686,2663,2663,2663,2663,2663,2663,0,0,0,0,0,0,0,0,0,0,0,0,0,0,0,0,0,2942,2942,2928,2928,2928,2942,2956,2956,2956,2970,2970,2985,2985,2999,2999,2999,2999,2999,2999,3029,3029,3029,3029,3029,3014,3014,3014,3014,2999,2985,2985,2985,2956,2956,2928,2928,2914,2887,2887,2874,2874,2847,2834,2834,2808,2783,2783,2758,2758,2734,2722,2722,2710,2710,2758,2746,2746,2722,2710,2710,2710,2710,2710,2698,2698,2698,2686,2686,2686,2686,2675,2675,2686,2675,2675,2675,2675,2675,2675,2675,2675,2675,2686,2686,2686,2710,2710,2710,2710,2710,2710,2710,2710,2698,2698,2698,2698,2686,2675,2675,2663,2663,2663,2663,2663,2663,2663,2663,2663,2675,2686,2686,2686,2686,2698,2710,2710,2722,2722,2722,2722,2722,2734,2746,2746,2771,2783,2783,2808,2821,2821,2847,2847,2874,2901,2901,2914,2928,2928,2928,2928,2942,2942,2942,2942,2956,2956,2956,2942,2942,2942,2942,2942,2956,2956,2956,2942,2942,2942,2928,2901,2901,2901,2901,2887,2860,2860,2847,2834,2834,2834,2834,2821,2821,2821,2821,2821,2821,2821,2821,2821,2821,2834,2834,2834,2834,2834,2847,2847,2847,2860,2860,2874,2887,2887,2901,2901,2901,2901,2901,2901,2901,2901,2901,2901,2901,2901,2887,2874,2874,2860,2860,2860,2860,2860,2834,2834,2834,2834,2847,2847,2847,2847,2847,2847,2874,2874,2901,2914,2914,2928,2928,2942,2942,2942,2956,2970,2970,2970,2970,2985,2985,2985,2985,2999,2999,3014,3014,3029,3029,3029,3059,3074,3074,3105,3136,3136,3152,3152,3185,3218,3218,3269,3322,3322,3395,3452,3452,3491,3491,3551,3592,3592,3613,3656,3656,3656,3656,3613,3613,3592,3571,3571,3551,3531,3531,3471,3471,3433,3395,3395,3358,3358,3340,3304,3304,3269,3269,3218,3185,3185,3152,3120,3120,3074,3074,3044,3014,3014,2970,2970,2928,2901,2901,2860,2860,2821,2783,2783,2758,2734,2734,2710,2710,2686,2663,2663,2640,2640,2618,2574,2574,2574,0,0,0,0,2395,2376,2376,2358,2358,2349,2340,2340,2332,2332,2314,2297,2297,2297,2288,2288,2272,2272,2263,2239,2239,2223,2223,2207,2183,2183,2160,2160,2138,2116,2116,2094,2066,2066,2019,2019,1943,1943,1943,0,0,0,0,0,0,1503,1503,1482,1482,1471,1464,1464,1457,1457,1454,1450,1450,1450,1450,1450,1450,1457,1468,1468,1475,1475,1492,1507,1507,1522,1541,1541,1560,1572,1572,1576,1580,1580,1580,1572,1568,1568,1560,1552,1552,1549,1549,1537,1533,1533,1526,1526,1522,1518,1518,1511,1511,1511,1507,1507,1503,1503,1503,1500,1496,1496,1492,1492,1489,1489,1489,1485,1485,1482,1482,1482,1482,4092,4092,4092,4092,4092,4119,4119,4119,4119,4147,4147
