65535,65535,65535,65535,65535,65535,65535,65535,65535,65535,65535,65535,65535,65535,65535,65535,65535,65535,65535,65535,65535,65535,65535,65535,65535,65535,65535,65535,65535,65535,65535,65535,65535,65535,65535,65535,65535,65535,65535,65535,65535,65535,65535,65535,65535,65535,65535,65535,65535,65535,65535,65535,65535,65535,65535,65535,65535,65535,65535,65535,65535,65535,65535,65535,65535,61786,61786,61786,61786,61786,56169,56169,56169,51488,51488,47527,47527,47527,47527,47527,41190,36345,36345,36345,0,0,0,0,0,0,8349,8349,7102,7102,6179,5999,5999,5884,5884,5884,5829,5829,5829,5829,5829,5829,5829,5829,5829,5884,5884,5884,5884,5884,5884,5884,5884,5884,5884,5884,5884,5884,5884,5884,5884,5884,5884,5884,5941,5941,5999,6057,6057,6117,6117,6241,6305,6305,6436,6504,6504,6504,6504,6573,6573,6573,6573,6573,6573,6644,6644,6644,6644,6644,6716,6716,6716,6716,6790,6790,6790,6790,6790,6790,6790,6790,6790,6716,6716,6716,6716,6716,6716,6716,6716,6716,6716,6716,6716,6716,6716,6716,6716,6716,6716,6716,6716,6716,6716,6716,6716,6716,6716,6716,6716,6716,6716,6716,6716,6716,6716,6716,6716,6716,6716,6716,6716,6716,6716,6716,6716,6716,6716,6644,6644,6644,6644,6573,6573,6573,6504,6504,6436,6370,6370,6241,6179,6179,6117,6117,6057,5941,5941,5884,5774,5774,5774,5774,5668,5617,5617,5517,5517,5373,5373,0,0,0,0,0,0,0,0,0,0,0,0,0,0,0,0,0,0,0,0,0,0,0,0,0,0,0,0,0,0,0,0,0,0,0,0,0,0,0,0,0,0,0,0,0,0,0,0,0,0,0,0,0,0,0,0,0,0,0,0,0,0,0,0,0,0,0,0,0,0,0,0,0,0,0,0,0,0,0,0,0,0,0,0,0,0,0,0,0,0,0,0,0,0,0,0,0,0,0,0,0,0,0,0,0,0,0,0,5517,5517,0,0,0,0,0,0,0,0,0,0,6117,6117,6117,6179,6179,0,0,6305,6305,6305,6305,0,0,0,0,0,0,0,0,0,0,0,0,0,0,0,6436,6436,6436,6504,6504,6504,6504,6504,6504,6504,6504,6504,6504,6436,6370,6370,6370,6370,6370,6305,6305,6305,6241,6241,6117,6117,6057,6057,6057,6057,6057,6057,6057,6057,5999,5999,5999,5999,5999,5999,5999,5999,5941,5941,5941,5941,5884,5884,5884,5884,5884,5829,5829,5829,5829,5829,5774,5774,5774,5774,5774,5774,5774,5774,5721,5721,5721,5721,5721,5721,5721,5721,5668,5668,5668,5668,5668,5668,5668,5668,5668,5668,5668,5668,5668,5668,5668,5668,5668,5668,5668,5617,5617,5617,5617,5517,5326,5326,5236,5149,5149,5106,5106,5023,4943,4943,4904,4904,4904,4865,4865,4827,4827,4865,4865,4865,4827,4827,4827,4827,4790,4790,4790,4790,4753,4753,4753,4681,4611,4611,4577,4577,4510,4232,4232,4012,4012,4012,0,0,0,2970,2970,0,2629,2629,2596,2596,2543,2512,2512,2501,2501,2481,2471,2471,2471,2471,2471,2471,2501,2522,2522,2532,2532,2553,2564,2564,2564,2564,2564,2564,2553,2532,2532,2501,2501,2471,2442,2442,2414,2386,2386,2349,2349,2314,2280,2280,2247,2247,2223,2207,2207,2199,2199,2191,2183,2183,2176,2176,2176,2176,2191,2191,2207,2239,2239,2288,2501,2501,2501,2574,2574,2698,2834,2970,2970,3105,3168,3168,3235,3304,3304,3376,3414,3414,3471,3471,3511,3531,3531,3551,3551,3551,3551,3551,3571,3571,3571,3592,3592,3592,3613,3634,3634,3656,3656,3678,3700
65535,65535,65535,65535,65535,65535,65535,65535,65535,65535,65535,65535,65535,65535,65535,65535,65535,65535,65535,65535,65535,65535,65535,65535,65535,65535,65535,65535,65535,65535,65535,65535,65535,65535,65535,65535,65535,65535,65535,65535,65535,65535,65535,65535,65535,65535,65535,65535,65535,65535,65535,65535,65535,65535,65535,65535,65535,65535,65535,65535,65535,65535,65535,65535,65535,61786,61786,61786,61786,61786,56169,56169,56169,51488,51488,47527,47527,47527,47527,47527,41190,36345,36345,29422,29422,0,0,0,0,0,8349,8349,7102,7102,6436,6057,6057,5884,5884,5829,5829,5829,5829,5829,5829,5829,5829,5829,5829,5829,5829,5829,5884,5884,5884,5884,5884,5884,5884,5884,5884,5884,5884,5884,5884,5884,5884,5884,5941,5941,5999,6057,6057,6179,6179,6241,6305,6305,0,0,6504,6504,6504,6573,6573,6573,6573,6573,6573,6644,6644,6644,6644,6644,6716,6716,6716,6716,6716,6716,6716,6716,6716,6716,6716,6716,6716,6716,6716,6716,6716,6716,6716,6716,6644,6644,6644,6644,6644,6644,6644,6644,6644,6644,6644,6644,6644,6644,6644,6644,6644,6644,6644,6644,6644,6644,6644,6644,6644,6644,6644,6644,6644,6644,6644,6644,6644,6644,6644,6644,6644,6644,6644,6644,6644,6573,6573,6504,6504,6573,6504,6504,6436,6370,6370,6241,6179,6179,6117,6117,6057,5941,5941,5884,5774,5774,5774,5774,5668,5617,5617,5517,5517,5373,5373,0,0,0,0,0,0,0,0,0,0,0,0,0,0,0,0,0,0,0,0,0,0,0,0,0,0,0,0,0,0,0,0,0,0,0,0,0,0,0,0,0,0,0,0,0,0,0,0,0,0,0,0,0,0,0,0,0,0,0,0,0,0,0,0,0,0,0,0,0,0,0,0,0,0,0,0,0,0,0,0,0,0,0,0,0,0,0,0,0,0,0,0,0,0,0,0,0,0,0,0,0,0,0,0,0,0,0,0,5517,5517,5517,5517,5566,5566,5617,5721,5721,5774,5884,5884,5941,5999,5999,6057,6057,6179,6241,6241,6179,6179,6117,6117,6117,6117,0,0,0,0,0,0,0,0,0,0,6370,6370,6370,6370,6370,6370,6370,6370,6370,6436,6436,6436,6436,6370,6370,6370,6370,6370,6370,6370,6305,6305,6305,6179,6117,6117,6117,6117,6057,6057,6057,6057,6057,6057,6057,6057,5999,5999,5999,5999,5999,5999,5999,5999,5941,5941,5941,5941,5884,5884,5884,5884,5884,5829,5829,5829,5829,5829,5774,5774,5774,5774,5774,5774,5774,5721,5721,5721,5721,5721,5721,5668,5668,5668,5668,5668,5668,5668,5668,5668,5668,5668,5668,5668,5668,5668,5668,5668,5668,5668,5617,5617,5617,5617,5617,5617,5617,5468,5326,5326,5236,5149,5149,5106,5106,5023,4943,4943,4904,4904,4904,4827,4827,4827,4827,4827,4827,4827,4827,4827,4827,4827,4790,4790,4790,4790,4753,4753,4753,4681,4611,4611,4577,4577,4510,4232,4232,4012,4012,4012,0,0,0,0,0,0,2652,2652,2596,2596,2543,2512,2512,2501,2501,2481,2471,2471,2471,2471,2471,2471,2481,2481,2501,2512,2512,2522,2532,2532,2543,2543,2543,2543,2543,2522,2522,2491,2491,2462,2433,2433,2414,2386,2386,2349,2349,2314,2272,2272,2239,2239,2215,2199,2199,2191,2191,2183,2176,2176,2168,2168,2168,2168,2176,2176,2191,2207,2207,2247,2297,2297,2574,2574,2574,2574,2698,2698,2860,3029,3105,3105,3201,3269,3269,3340,3414,3414,3471,3471,3511,3531,3531,3551,3551,3551,3571,3571,3571,3592,3592,3592,3613,3613,3634,3656,3656,3678,3678,3700,3722
65535,65535,65535,65535,65535,65535,65535,65535,65535,65535,65535,65535,65535,65535,65535,65535,65535,65535,65535,65535,65535,65535,65535,65535,65535,65535,65535,65535,65535,65535,65535,65535,65535,65535,65535,65535,65535,65535,65535,65535,65535,65535,65535,65535,65535,65535,65535,65535,65535,65535,65535,65535,65535,65535,65535,65535,65535,65535,65535,65535,65535,65535,65535,65535,65535,61786,61786,61786,61786,61786,56169,56169,56169,51488,51488,51488,47527,47527,47527,47527,41190,36345,36345,29422,29422,0,0,0,0,0,0,0,7723,7723,6790,6241,6241,5941,5941,5829,5829,5829,5829,5829,5829,5829,5829,5829,5829,5829,5829,5829,5884,5884,5884,5884,5884,5884,5884,5884,5884,5884,5884,5884,5884,5884,5884,5884,5941,5941,5999,6057,6057,6179,6179,6241,6305,6305,6504,6504,6504,6504,6504,6504,6573,6573,6573,6573,6573,6573,6644,6644,6644,6644,6644,6644,6644,6716,6716,6716,6716,6716,6716,6716,6716,6716,6716,6716,6716,6644,6644,6644,6644,6644,6644,6644,6644,6644,6644,6644,6644,6644,6644,6644,6644,6644,6644,6644,6644,6644,6644,6644,6644,6644,6644,6644,6644,6644,6644,6644,6644,6644,6644,6644,6644,6644,6644,6644,6644,6644,6644,6644,6644,6644,6644,6573,6573,6504,6504,6504,6436,6436,6305,6241,6241,6179,6117,6117,5999,5999,5941,5884,5884,5829,5774,5774,5668,5668,5617,5566,5566,5468,5468,5326,5236,5236,5236,0,0,0,0,0,0,0,0,0,0,0,0,0,0,0,0,0,0,0,0,0,0,0,0,0,0,0,0,0,0,0,0,0,0,0,0,0,0,0,0,0,0,0,0,0,0,0,0,0,0,0,0,0,0,0,0,0,0,0,0,0,0,0,0,0,0,0,0,0,0,0,0,0,0,0,0,0,0,0,0,0,0,0,0,0,0,0,0,0,0,0,0,0,5281,5281,5281,5281,5326,5326,5326,5373,5373,5373,5373,5420,5468,5468,5517,5517,5517,5517,5517,5517,5668,5668,5668,5774,5774,5829,5884,5884,5999,5999,6057,6117,6117,6117,6117,6117,6117,6057,5999,5999,5999,0,0,0,0,0,0,0,0,6370,6370,6370,6370,6370,6370,6370,6370,6370,6436,6436,6436,6436,6370,6370,6370,6370,6370,6370,6370,6305,6305,6305,6179,6117,6117,6117,6117,6057,6057,6057,6057,5999,5999,5999,5999,5999,5999,5999,5999,5941,5941,5941,5941,5941,5884,5884,5884,5884,5884,5829,5829,5829,5829,5829,5774,5774,5774,5774,5774,5721,5721,5721,5721,5721,5721,5721,5721,5668,5668,5668,5668,5668,5668,5668,5668,5668,5617,5617,5617,5617,5617,5617,5617,5617,5617,5617,5617,5617,5617,5617,5617,5617,5617,5617,5617,5617,5468,5326,5326,5236,5149,5149,5106,5106,5023,4943,4943,4904,4904,4904,4827,4827,4827,4827,4827,4827,4827,4827,4827,4827,4827,4790,4790,4790,4790,4753,4716,4716,4646,4577,4577,4543,4543,4477,4232,4232,4012,4012,3791,3791,3491,3491,3168,2860,2860,2652,2652,2596,2596,2543,2512,2512,2501,2501,2481,2462,2462,2452,2452,2452,2452,2471,2471,2471,2491,2491,2501,2512,2512,2522,2522,2522,2522,2522,2512,2512,2491,2491,2452,2433,2433,2414,2386,2386,2349,2349,2314,2272,2272,2239,2239,2215,2199,2199,2191,2191,2183,2176,2176,2168,2168,2168,2168,2176,2176,2191,2207,2207,2247,2297,2297,0,0,2574,2574,2698,2698,2860,3029,3105,3105,3201,3269,3269,3340,3395,3395,3433,3433,3471,3511,3511,3531,3551,3551,3571,3571,3571,3592,3592,3592,3613,3613,3634,3656,3656,3678,3678,3700,3722
65535,65535,65535,65535,65535,65535,65535,65535,65535,65535,65535,65535,65535,65535,65535,65535,65535,65535,65535,65535,65535,65535,65535,65535,65535,65535,65535,65535,65535,65535,65535,65535,65535,65535,65535,65535,65535,65535,65535,65535,65535,65535,65535,65535,65535,65535,65535,65535,65535,65535,65535,65535,65535,65535,65535,65535,65535,65535,65535,65535,65535,65535,65535,65535,65535,61786,61786,61786,61786,61786,56169,56169,56169,51488,51488,51488,47527,47527,47527,47527,44133,38616,38616,29422,29422,24714,24714,0,0,0,0,0,7723,7269,6790,6241,6241,5941,5941,5829,5774,5774,5774,5774,5774,5774,5774,5774,5829,5829,5829,5829,5884,5884,5884,5884,5884,5884,5884,5884,5884,5884,5884,5884,5884,5884,5884,5884,5941,5941,5999,6117,6117,6179,6179,6241,0,6436,6436,6436,6436,6504,6504,6504,6504,6504,6573,6573,6573,6573,6644,6644,6644,6644,6644,6644,6644,6716,6716,6716,6716,6716,6716,6716,6716,6716,6716,6716,6716,6644,6644,6644,6644,6644,6644,6644,6644,6644,6644,6644,6644,6644,6644,6644,6644,6644,6644,6644,6644,6644,6644,6644,6644,6644,6644,6644,6644,6644,6644,6644,6644,6644,6644,6644,6644,6644,6644,6644,6644,6644,6644,6644,6573,6573,6573,6504,6504,6436,6436,6436,6305,6305,6241,6179,6179,6117,5999,5999,5941,5941,5884,5829,5829,5774,5721,5721,5617,5617,5566,5468,5468,5420,5420,5326,5236,5236,5236,0,0,0,0,0,0,0,0,0,0,0,0,0,0,0,0,0,0,0,0,0,0,0,0,0,0,0,0,0,0,0,0,0,0,0,0,0,0,0,0,0,0,0,0,0,0,0,0,0,0,0,0,0,0,0,0,0,0,0,0,0,0,0,0,0,0,0,0,0,0,0,0,0,0,0,0,0,0,0,0,0,0,0,0,0,0,0,5236,5236,5236,5236,5236,5281,5281,5281,5281,5281,5326,5326,5326,5373,5373,5373,5373,5420,5468,5468,5517,5517,5517,5517,5517,5517,5668,5668,5668,5774,5774,5829,5884,5884,5999,5999,6057,6117,6117,6117,6117,6117,6117,6057,5999,5999,5999,5999,0,0,0,5999,5999,0,0,6305,6305,6305,6305,6305,6305,6305,6305,6305,6370,6370,6370,6370,6370,6370,6370,6305,6305,6305,6305,6241,6241,6241,6179,6057,6057,6057,6057,6057,5999,5999,5999,5999,5999,5999,5999,5999,5941,5941,5941,5941,5941,5941,5941,5884,5884,5884,5884,5829,5829,5829,5829,5774,5774,5829,5774,5774,5774,5774,5774,5721,5721,5721,5721,5721,5721,5721,5721,5668,5668,5668,5668,5668,5668,5668,5668,5668,5617,5617,5617,5617,5617,5617,5617,5617,5617,5617,5617,5617,5617,5617,5617,5617,5617,5617,5617,5617,5420,5326,5326,5192,5106,5106,5023,5023,4983,4943,4943,4865,4865,4827,4827,4827,4790,4790,4827,4827,4827,4827,4790,4790,4790,4790,4790,4753,4753,4716,4716,4716,4646,4577,4577,4510,4510,4413,4261,4261,4119,4119,3791,3791,3491,3491,3168,2860,2860,2860,0,0,0,2543,2512,2512,2501,2501,2481,2462,2462,2452,2452,2452,2452,2471,2471,2471,2491,2491,2501,2512,2512,2522,2522,2522,2522,2522,2512,2512,2491,2491,2452,2433,2433,2414,2386,2386,2349,2349,2314,2272,2272,2239,2239,2215,2191,2191,2183,2183,2168,2168,2168,2160,2153,2153,2153,2160,2160,2168,2183,2183,2215,2255,2255,2323,2404,2404,2501,2629,2629,2771,2985,3089,3089,3168,3235,3235,3304,3358,3358,3414,3414,3452,3491,3491,3531,3551,3551,3571,3571,3571,3592,3592,3613,3634,3634,3656,3678,3678,3700,3700,3722,3745
65535,65535,65535,65535,65535,65535,65535,65535,65535,65535,65535,65535,65535,65535,65535,65535,65535,65535,65535,65535,65535,65535,65535,65535,65535,65535,65535,65535,65535,65535,65535,65535,65535,65535,65535,65535,65535,65535,65535,65535,65535,65535,65535,65535,65535,65535,65535,65535,65535,65535,65535,65535,65535,65535,65535,65535,65535,65535,65535,65535,65535,65535,65535,65535,65535,61786,61786,61786,61786,61786,56169,56169,56169,51488,51488,51488,47527,47527,47527,47527,44133,38616,38616,32519,26863,24714,20595,20595,20595,0,0,0,0,7269,7269,6573,6573,6117,6057,5884,5774,5774,5774,5774,5774,5774,5774,5774,5829,5829,5829,5829,5884,5884,5884,5884,5884,5884,5884,5884,5884,5884,5884,5884,5884,5884,5884,5884,5941,5941,6057,6117,6117,6179,6179,0,0,6436,6436,6436,6436,6504,6504,6504,6504,6504,6573,6573,6573,6573,6573,6573,6573,6573,6573,6644,6644,6644,6644,6644,6644,6644,6644,6644,6644,6644,6644,6644,6644,6644,6644,6644,6644,6644,6644,6644,6644,6644,6644,6644,6644,6644,6644,6644,6644,6644,6644,6644,6644,6644,6644,6644,6644,6644,6644,6644,6573,6573,6573,6573,6573,6573,6644,6644,6644,6644,6644,6644,6644,6644,6644,6644,6573,6573,6573,6504,6504,6436,6436,6436,6305,6305,6241,6179,6179,6117,5999,5999,5941,5941,5884,5829,5829,5774,5721,5721,5617,5617,5566,5468,5468,5420,5420,5281,5236,5236,5236,0,0,0,0,0,0,0,0,0,0,0,0,0,0,0,0,0,0,0,0,0,0,0,0,0,0,0,0,0,0,0,0,0,0,0,0,0,0,0,0,0,0,0,0,0,0,0,0,0,0,0,0,0,0,0,0,0,0,0,0,0,0,0,0,0,0,0,0,0,0,0,0,0,0,0,0,0,0,0,0,0,0,0,0,0,0,0,5236,5236,5236,5236,5236,5281,5281,5281,5281,5281,5281,5281,5326,5373,5373,5373,5373,5420,5420,5420,5420,5468,5468,5468,5468,5517,5617,5617,5668,5721,5721,5774,5884,5884,5941,5941,6057,6117,6117,6057,6057,6057,6057,5999,5999,5999,5941,5941,5999,5884,5884,5884,5941,0,6117,6117,6241,6241,6241,6241,6305,6305,6241,6241,6305,6305,6370,6305,6305,6305,6305,6305,6305,6305,6305,6241,6241,6241,6179,6057,6057,6057,6057,6057,5999,5999,5999,5999,5999,5999,5999,5999,5941,5941,5941,5941,5941,5941,5941,5884,5884,5884,5884,5829,5829,5829,5829,5774,5774,5774,5774,5774,5774,5721,5721,5721,5721,5721,5721,5668,5668,5668,5668,5668,5668,5668,5668,5668,5668,5617,5617,5617,5617,5617,5617,5617,5617,5617,5617,5617,5617,5617,5617,5617,5617,5617,5617,5617,5617,5617,5617,5617,5420,5326,5326,5192,5106,5106,5023,5023,4983,4904,4904,4865,4827,4827,4790,4790,4790,4790,4827,4827,4827,4827,4790,4790,4790,4790,4790,4753,4753,4716,4716,4716,4646,4577,4577,4510,4510,4413,4261,4261,4119,4119,4119,0,0,0,0,0,0,0,0,0,0,2543,2512,2512,2501,2501,2471,2452,2452,2442,2433,2433,2433,2442,2442,2452,2462,2462,2471,2491,2491,2501,2501,2501,2501,2501,2491,2491,2481,2452,2452,2433,2433,2414,2386,2386,2349,2349,2314,2272,2272,2231,2231,2207,2191,2191,2176,2176,2168,2160,2160,2145,2145,2145,2145,2145,2145,2153,2160,2160,2191,2223,2223,2323,2404,2404,2501,2629,2629,2771,2985,3089,3089,3168,3235,3235,3304,3358,3358,3414,3414,3452,3491,3491,3531,3551,3551,3571,3592,3592,3613,3613,3634,3656,3656,3678,3700,3700,3722,3722,3745,3745
65535,65535,65535,65535,65535,65535,65535,65535,65535,65535,65535,65535,65535,65535,65535,65535,65535,65535,65535,65535,65535,65535,65535,65535,65535,65535,65535,65535,65535,65535,65535,65535,65535,65535,65535,65535,65535,65535,65535,65535,65535,65535,65535,65535,65535,65535,65535,65535,65535,65535,65535,65535,65535,65535,65535,65535,65535,65535,65535,65535,61786,61786,61786,61786,61786,61786,61786,61786,61786,61786,61786,56169,56169,56169,56169,51488,51488,51488,47527,47527,44133,41190,41190,34325,26863,26863,20595,20595,20595,0,0,0,0,0,0,6942,6942,6370,6057,6057,5829,5829,5774,5774,5774,5774,5774,5774,5774,5774,5774,5829,5829,5829,5884,5884,5884,5884,5884,5884,5884,5884,5884,5884,5884,5884,5884,5884,5941,5941,6057,6117,6117,6179,6179,6370,6370,6370,6436,6436,6436,6504,6504,6504,6504,6504,6504,6504,6504,6504,6504,6504,6504,6504,6504,6504,6504,6573,6573,6573,6573,6573,6573,6573,6573,6573,6573,6573,6573,6573,6644,6644,6644,6644,6644,6644,6644,6644,6644,6644,6644,6644,6644,6644,6644,6644,6644,6644,6644,6644,6644,6644,6644,6644,6644,6644,6573,6573,6573,6573,6573,6573,6644,6644,6644,6644,6644,6573,6573,6573,6573,6573,6573,6504,6504,6436,6436,6370,6305,6305,6241,6241,6179,6117,6117,5999,5941,5941,5884,5884,5829,5774,5774,5721,5668,5668,5566,5566,5517,5468,5468,5373,5373,5281,5281,0,5106,5023,5023,5023,0,0,0,0,0,0,0,0,0,0,0,0,0,0,0,0,0,0,0,0,0,0,0,0,0,0,0,0,0,0,0,0,0,0,0,0,0,0,0,0,0,0,0,0,0,0,0,0,0,0,0,0,0,0,0,0,0,0,0,0,0,0,0,0,0,0,0,0,0,0,0,0,0,0,0,0,0,0,0,0,0,0,5192,5192,5192,5192,5192,5192,5236,5236,5236,5236,5236,5236,5281,5281,5281,5326,5326,5373,5373,5373,5420,5420,5420,5420,5420,5468,5468,5517,5566,5566,5617,5668,5668,5774,5829,5829,5941,5941,6057,6117,6117,6057,6057,6057,6057,5999,5999,5999,5941,5941,5999,5884,5884,5884,5941,0,6117,6117,6241,6241,6241,6241,6305,6305,6241,6241,6305,6305,6370,6305,6305,6305,6305,6241,6241,6241,6241,6179,6179,6179,6117,6057,6057,6057,6057,5999,5999,5999,5999,5999,5999,5941,5941,5941,5941,5941,5941,5884,5884,5884,5884,5884,5829,5829,5829,5829,5829,5774,5774,5774,5774,5774,5721,5721,5721,5721,5721,5721,5668,5668,5668,5668,5668,5668,5668,5668,5617,5617,5617,5617,5617,5617,5617,5617,5617,5617,5617,5617,5617,5617,5617,5617,5617,5617,5617,5617,5617,5617,5617,5617,5617,5617,5617,5617,5420,5326,5326,5192,5106,5106,5023,5023,4983,4904,4904,4865,4827,4827,4790,4790,4790,4790,4827,4827,4827,4827,4790,4790,4790,4790,4790,4753,4753,4716,4681,4681,4611,4543,4543,4477,4477,4351,4261,4261,4119,4119,4119,3722,3722,3722,0,0,0,2808,2808,2808,0,0,2501,2501,2491,2471,2471,2442,2442,2433,2414,2414,2414,2423,2423,2433,2442,2442,2452,2462,2462,2471,2481,2481,2481,2481,2491,2491,2481,2452,2452,2433,2433,2414,2386,2386,2349,2349,2314,2272,2272,2231,2231,2207,2191,2191,2176,2176,2168,2160,2160,2145,2145,2145,2145,2145,2145,2153,2160,2160,2191,2223,2223,2272,2404,2404,2414,2532,2532,2686,2901,3044,3044,3136,3201,3201,3269,3322,3322,3376,3376,3414,3471,3471,3511,3531,3531,3571,3592,3592,3613,3613,3634,3656,3656,3678,3700,3700,3722,3722,3745,3767
65535,65535,65535,65535,65535,65535,65535,65535,65535,65535,65535,65535,65535,65535,65535,65535,65535,65535,65535,65535,65535,65535,65535,65535,65535,65535,65535,65535,65535,65535,65535,65535,65535,65535,65535,65535,65535,65535,65535,65535,65535,65535,65535,65535,65535,65535,65535,65535,65535,65535,65535,65535,65535,65535,65535,65535,65535,65535,65535,65535,61786,61786,61786,61786,61786,61786,61786,61786,61786,61786,61786,56169,56169,56169,56169,51488,51488,51488,47527,47527,44133,41190,41190,34325,26863,26863,20595,20595,19308,19308,0,0,0,0,0,6942,6942,6370,6057,6057,5774,5774,5617,5566,5566,5566,5566,5566,5774,5774,5774,5829,5829,5829,5884,5884,5884,5884,5884,5884,5884,5884,5884,5884,5884,5884,5884,5884,5941,5941,6057,6117,6117,0,0,6370,6370,6370,6436,6436,6436,6504,6504,6504,6504,6504,6504,6504,6504,6504,6504,6504,6504,6504,6504,6504,6504,6573,6573,6573,6573,6573,6573,6573,6573,6573,6573,6573,6573,6573,6573,6573,6573,6573,6573,6573,6573,6573,6573,6573,6573,6573,6573,6504,6504,6504,6504,6504,6504,6504,6504,6504,6504,6504,6504,6504,6504,6504,6504,6504,6504,6504,6504,6504,6504,6504,6504,6504,6504,6504,6436,6436,6436,6370,6370,6305,6305,6241,6179,6179,6117,6117,5999,5941,5941,5829,5774,5774,5721,5721,5668,5668,5774,5721,5668,5668,5566,5566,5517,5468,5468,5373,5373,0,0,0,5106,5023,5023,5023,0,0,0,0,0,0,0,0,0,0,0,0,0,0,0,0,0,0,0,0,0,0,0,0,0,0,0,0,0,0,0,0,0,0,0,0,0,0,0,0,0,0,0,0,0,0,0,0,0,0,0,0,0,0,0,0,0,0,0,0,0,0,0,0,0,0,0,0,0,0,0,0,0,0,0,0,0,0,0,0,0,0,5192,5192,5192,5192,5192,5192,5236,5236,5236,5236,5236,5236,5281,5281,5281,5326,5326,5373,5373,5373,5420,5420,5420,5420,5420,5468,5468,5517,5566,5566,5617,5668,5668,5774,5829,5829,5884,5884,5941,5999,5999,6057,6057,5999,5999,5999,5999,5999,5941,5941,5999,5884,5884,5884,5941,0,6117,6117,6241,6241,6241,6241,6241,6241,6241,6241,6241,6241,6305,6305,6241,6241,6241,6179,6179,6179,6179,6179,6179,6179,6117,5999,5999,5999,5999,5999,5999,5999,5941,5941,5941,5941,5941,5941,5884,5884,5884,5884,5884,5884,5884,5884,5829,5829,5829,5829,5829,5774,5774,5774,5774,5774,5721,5721,5721,5721,5721,5721,5668,5668,5668,5668,5668,5668,5668,5668,5617,5617,5617,5617,5617,5617,5617,5617,5617,5617,5617,5617,5617,5617,5617,5617,5617,5617,5617,5617,5617,5617,5617,5617,5617,5617,5566,5420,5420,5326,5326,5192,5106,5106,5023,5023,4983,4904,4904,4865,4827,4827,4790,4790,4790,4790,4827,4827,4827,4827,4827,4827,4827,4790,4790,4790,4716,4716,4681,4681,4577,4510,4510,4413,4413,4321,4261,4261,4175,4175,4175,3722,3722,3722,0,0,0,2808,2808,2808,0,0,2501,2501,2491,2471,2471,2442,2442,2433,2414,2414,2414,2423,2423,2433,2442,2442,2452,2462,2462,2471,2481,2481,2481,2481,2481,2481,2471,2442,2442,2423,2423,2404,2386,2386,2349,2349,2314,2272,2272,2231,2231,2207,2183,2183,2168,2168,2160,2145,2145,2131,2131,2131,2131,2131,2131,2131,2145,2145,2160,2191,2191,2223,0,2340,2340,2442,2442,2585,2901,2928,2928,3089,3168,3168,3235,3286,3286,3340,3340,3395,3433,3433,3471,3531,3531,3571,3613,3613,3634,3634,3656,3678,3678,3700,3745,3745,3767,3791,3791,3814
65535,65535,65535,65535,65535,65535,65535,65535,65535,65535,65535,65535,65535,65535,65535,65535,65535,65535,65535,65535,65535,65535,65535,65535,65535,65535,65535,65535,65535,65535,65535,65535,65535,65535,65535,65535,65535,65535,65535,65535,65535,65535,65535,65535,65535,65535,65535,65535,65535,65535,65535,65535,65535,65535,65535,65535,65535,65535,65535,65535,61786,61786,61786,61786,61786,61786,61786,61786,61786,61786,61786,56169,56169,56169,56169,51488,51488,51488,51488,47527,47527,47527,47527,41190,34325,34325,25744,25744,19308,19308,19308,19308,0,0,0,0,0,6573,6057,6057,5774,5774,5617,5566,5566,5566,5566,5566,0,0,0,0,0,0,0,0,0,0,0,0,0,0,0,0,0,0,0,0,0,0,6117,6117,6117,0,6117,6117,6179,6179,6305,6305,6305,6370,6436,6436,6436,6436,6436,6436,6436,6436,6436,6436,6436,6436,6436,6504,6504,6504,6504,6504,6504,6504,6504,6504,6504,6504,6504,6504,6504,6504,6504,6504,6504,6504,6504,6504,6504,6504,6504,6504,6504,6436,6436,6436,6436,6436,6436,6436,6436,6436,6436,6436,6436,6436,6436,6504,6504,6504,6504,6504,6504,6504,6504,6504,6504,6504,6504,6504,6504,6504,6436,6436,6436,6370,6370,6305,6305,6241,6179,6179,6117,6117,5999,5941,5941,5829,5774,5774,5721,5721,5668,5617,5617,5566,5517,5517,5468,5468,5420,5373,5373,5373,5373,0,5149,5149,5106,5023,5023,4983,4983,4983,0,0,0,0,0,0,0,0,0,0,0,0,0,0,0,0,0,0,0,0,0,0,0,0,0,0,0,0,0,0,0,0,0,0,0,0,0,0,0,0,0,0,0,0,0,0,0,0,0,0,0,0,0,0,0,0,0,0,0,0,0,0,0,0,0,0,0,0,0,0,0,0,0,0,0,0,0,0,0,0,5192,5192,5192,5192,5192,5192,5192,5192,5192,5236,5236,5236,5281,5281,5281,5326,5326,5326,5326,5373,5373,5373,5420,5420,5420,5468,5468,5468,5517,5517,5566,5617,5617,5721,5774,5774,5829,5829,5941,5999,5999,5999,5999,5999,5999,5941,5941,0,0,0,0,0,0,0,0,0,0,0,0,6241,6241,6241,6241,6241,6241,6241,6241,6241,6305,6305,6241,6241,6241,6179,6179,6179,6179,6179,6179,6179,6117,5999,5999,5999,5999,5999,5999,5999,5941,5941,5941,5941,5941,5941,5884,5884,5884,5884,5884,5829,5829,5829,5829,5829,5774,5774,5774,5774,5774,5721,5721,5721,5721,5721,5721,5668,5668,5668,5668,5668,5668,5617,5617,5617,5617,5617,5617,5617,5617,5617,5617,5617,5617,5617,5617,5617,5617,5617,5617,5617,5617,5617,5617,5617,5617,5617,5617,5617,5617,5566,5566,5566,5566,5373,5373,5326,5326,5192,5106,5106,5064,5064,4983,4904,4904,4865,4827,4827,4827,4827,4790,4790,4827,4827,4827,4827,4827,4827,4827,4790,4790,4790,4716,4716,4681,4681,4577,4510,4510,4413,4413,4321,4261,4261,4175,4175,4038,3722,3722,3722,0,0,0,2808,2808,2808,0,0,2501,2501,2491,2471,2471,2433,2433,2423,2404,2404,2404,2404,2404,2414,2433,2433,2433,2442,2442,2452,2452,2452,2462,2462,2462,2462,2452,2433,2433,2414,2414,2404,2376,2376,2340,2340,2314,2263,2263,2231,2231,2199,2176,2176,2160,2160,2153,2145,2145,2131,2131,2131,2131,2131,2131,2131,2145,2145,2160,2191,2191,2223,0,2340,2340,2442,2442,2585,2928,2928,2928,3089,3168,3168,3235,3286,3286,3340,3340,3395,3433,3433,3471,3531,3531,3571,3613,3613,3634,3634,3656,3678,3678,3700,3745,3745,3767,3791,3791,3814
65535,65535,65535,65535,65535,65535,65535,65535,65535,65535,65535,65535,65535,65535,65535,65535,65535,65535,65535,65535,65535,65535,65535,65535,65535,65535,65535,65535,65535,65535,65535,65535,65535,65535,65535,65535,65535,65535,65535,65535,65535,65535,65535,65535,65535,65535,65535,65535,65535,65535,65535,65535,65535,65535,65535,65535,65535,65535,65535,65535,65535,65535,61786,61786,61786,61786,61786,61786,61786,61786,61786,61786,61786,56169,56169,56169,51488,51488,51488,51488,51488,47527,47527,47527,41190,41190,34325,34325,25744,19308,19308,19308,0,0,0,0,0,6573,6057,6057,5774,5774,5617,5566,5566,5566,5566,5566,0,0,0,0,0,0,0,0,0,0,0,0,0,0,0,0,0,0,0,0,0,0,0,0,0,0,6117,6117,6179,6179,6305,6305,6305,6370,6436,6436,6436,6436,6436,6436,6436,6436,6436,6436,6436,6436,6436,6504,6504,6504,6504,6504,6504,6504,6504,6504,6504,6504,6504,6504,6504,6504,6504,6504,6504,6504,6504,6504,6504,6504,6504,6504,6504,6436,6436,6436,6436,6436,6436,6436,6436,6436,6436,6436,6436,6436,6436,6436,6436,6436,6436,6436,6436,6436,6436,6436,6436,6436,6436,6436,6436,6370,6370,6370,6305,6241,6241,6179,6179,6117,5999,5999,5941,5941,5829,5774,5774,5668,5617,5617,5566,5566,5517,5468,5468,5420,5373,5373,5326,5326,5281,5281,5373,5373,0,5106,5064,5064,5023,4983,4983,4943,4943,4943,0,0,0,0,0,0,0,0,0,0,0,0,0,0,0,0,0,0,0,0,0,0,0,0,0,0,0,0,0,0,0,0,0,0,0,0,0,0,0,0,0,0,0,0,0,0,0,0,0,0,0,0,0,0,0,0,0,0,0,0,0,0,0,0,0,0,0,0,0,0,0,0,0,0,0,0,0,0,0,0,5192,5192,5149,5149,5149,5149,5192,5192,5192,5236,5236,5236,5236,5236,5236,5281,5281,5326,5326,5373,5373,5373,5373,5468,5468,5468,5468,5468,5517,5517,5566,5617,5617,5721,5774,5774,5829,5829,5941,5999,5999,5999,5999,5999,5999,5941,5941,0,0,0,0,0,0,0,0,0,0,0,0,6241,6241,6241,6117,6117,6117,6117,6179,6179,6179,6179,6179,6179,6117,6117,6117,6117,6117,6117,6057,6057,5999,5941,5941,5941,5941,5941,5941,5941,5884,5884,5884,5884,5884,5884,5829,5829,5829,5774,5774,5774,5774,5774,5721,5721,5721,5721,5721,5721,5721,5668,5668,5668,5668,5668,5668,5617,5617,5617,5617,5617,5617,5617,5617,5617,5617,5617,5617,5617,5617,5617,5617,5617,5617,5617,5617,5617,5617,5617,5617,5617,5617,5617,5617,5617,5617,5617,5617,5617,5617,5566,5566,5566,5566,5373,5373,5326,5326,5236,5106,5106,5064,5064,4983,4904,4904,4865,4827,4827,4827,4827,4790,4790,4827,4827,4827,4827,4827,4827,4827,4790,4790,4753,4716,4716,4646,4646,4577,4477,4477,4382,4382,4291,4203,4203,4119,4119,4038,3814,3814,3814,0,0,0,2887,2887,2758,2758,0,2501,2501,2501,2471,2471,2423,2423,2423,2395,2395,2395,2395,2395,2414,2433,2433,2433,2442,2442,2452,2452,2452,2462,2462,2462,2462,2452,2433,2433,2414,2414,2404,2376,2376,2340,2340,2314,2263,2263,2231,2231,2199,2176,2176,2160,2160,2153,2138,2138,2123,2116,2116,2116,2123,2123,2123,2123,2123,2145,2160,2160,2199,2231,2231,2280,2442,2442,2462,2928,2928,2928,2970,2970,3105,3185,3235,3235,3286,3286,3340,3395,3395,3452,3511,3511,3571,3613,3613,3656,3656,3678,3722,3722,3745,3791,3791,3814,3838,3838,3862
65535,65535,65535,65535,65535,65535,65535,65535,65535,65535,65535,65535,65535,65535,65535,65535,65535,65535,65535,65535,65535,65535,65535,65535,65535,65535,65535,65535,65535,65535,65535,65535,65535,65535,65535,65535,65535,65535,65535,65535,65535,65535,65535,65535,65535,65535,65535,65535,65535,65535,65535,65535,65535,65535,65535,65535,65535,65535,65535,65535,65535,65535,61786,61786,61786,61786,61786,61786,61786,61786,61786,61786,61786,56169,56169,56169,51488,51488,51488,51488,51488,47527,47527,47527,41190,41190,34325,34325,25744,19308,19308,19308,19308,0,0,0,0,0,6573,6573,6117,6117,5829,5617,5617,5566,5566,0,0,0,0,0,0,0,0,0,0,0,0,0,0,0,0,0,0,0,0,0,0,0,0,0,0,0,6179,6179,6305,6305,6305,6370,6370,6436,6436,6436,6436,6436,6436,6436,6436,6436,6436,6436,6436,6436,6504,6504,6504,6504,6504,6504,6504,6504,6504,6504,6504,6504,6504,6504,6504,6504,6504,6504,6504,6504,6504,6504,6504,6504,6504,6504,6436,6436,6436,6436,6436,6436,6436,6436,6436,6436,6436,6436,6436,6436,6436,6436,6436,6436,6436,6436,6436,6436,6436,6436,6436,6436,6436,6370,6370,6370,6305,6305,6241,6179,6179,6117,6117,5999,5999,5999,5941,5941,5829,5774,5774,5668,5617,5617,5566,5566,5517,5468,5468,5420,5373,5373,5326,5326,5281,5281,0,0,0,5106,5064,5064,5023,4983,4983,4943,4943,4943,0,0,0,0,0,0,0,0,0,0,0,0,0,0,0,0,0,0,0,0,0,0,0,0,0,0,0,0,0,0,0,0,0,0,0,0,0,0,0,0,0,0,0,0,0,0,0,0,0,0,0,0,0,0,0,0,0,0,0,0,0,0,0,0,0,0,0,0,0,0,0,0,0,0,0,0,0,0,0,0,5192,5192,5149,5149,5149,5149,5192,5192,5192,5236,5236,5236,5236,5236,5236,5281,5281,0,5373,5373,5373,5373,5373,5373,5373,5373,5373,5373,5420,5420,5468,5517,5517,5566,5617,5617,5721,5721,5941,5999,5829,5829,5829,5829,5829,5774,5774,0,0,0,0,0,0,0,0,0,0,0,0,0,0,0,6117,6117,6117,6117,6179,6117,6117,6117,6117,6117,6117,6117,6117,6117,6117,5999,5999,5999,5941,5884,5884,5884,5884,5884,5884,5941,5884,5884,5884,5884,5884,5884,5829,5829,5829,5774,5774,5774,5774,5774,5721,5721,5721,5721,5721,5721,5721,5668,5668,5668,5668,5668,5668,5617,5617,5617,5617,5617,5617,5617,5617,5566,5566,5566,5566,5566,5566,5566,5566,5566,5566,5566,5566,5566,5566,5566,5566,5566,5566,5566,5566,5566,5566,5566,5566,5566,5566,5566,5566,5566,5517,5373,5373,5326,5326,5192,5149,5149,5064,5064,4983,4904,4904,4865,4827,4827,4827,4827,4790,4790,4865,4865,4865,4865,4865,4865,4865,4827,4827,4753,4716,4716,4646,4646,4577,4477,4477,4382,4382,4291,4203,4203,4119,4119,4038,3862,3862,3862,0,0,0,2999,2999,2758,2758,0,2522,2522,2512,2471,2471,2423,2423,2423,2395,2395,2395,2395,2395,2395,2404,2404,2404,2414,2414,2423,2433,2433,2442,2442,2452,2452,2442,2423,2423,2414,2414,2395,2367,2367,2340,2340,2305,2263,2263,2223,2223,2199,2176,2176,2160,2160,2145,2123,2123,2109,2102,2102,2102,2109,2109,2109,2116,2116,2123,2131,2131,2153,2176,2176,2280,0,2462,2462,2491,2491,2970,2970,2970,2970,3136,3136,3235,3286,3286,3340,3395,3395,3452,3511,3511,3571,3613,3613,3678,3722,3722,3745,3745,3791,3814,3814,3862,3886,3886,3910
65535,65535,65535,65535,65535,65535,65535,65535,65535,65535,65535,65535,65535,65535,65535,65535,65535,65535,65535,65535,65535,65535,65535,65535,65535,65535,65535,65535,65535,65535,65535,65535,65535,65535,65535,65535,65535,65535,65535,65535,65535,65535,65535,65535,65535,65535,65535,65535,65535,65535,65535,65535,65535,65535,65535,65535,65535,65535,65535,65535,65535,65535,65535,61786,61786,61786,61786,61786,61786,61786,61786,61786,61786,61786,61786,56169,56169,56169,51488,51488,51488,51488,51488,47527,47527,47527,41190,34325,34325,25744,25744,19308,19308,0,0,0,0,0,0,0,6644,6644,6117,5829,5829,5617,5617,0,0,0,0,0,0,0,0,0,0,0,0,0,0,0,0,0,0,0,0,0,0,0,0,0,0,6305,6179,6179,6305,6305,6305,6370,6370,6436,6436,6436,6436,6436,6436,6436,6436,6436,6436,6436,6436,6436,6504,6504,6504,6504,6504,6504,6504,6504,6504,6504,6504,6504,6504,6504,6504,6504,6504,6504,6504,6504,6504,6504,6504,6504,6436,6436,6436,6436,6436,6436,6436,6436,6436,6436,6436,6436,6436,6436,6436,6436,6436,6436,6436,6436,6436,6436,6436,6436,6436,6436,6436,6436,6436,6370,6370,6370,6305,6305,6241,6179,6179,6117,6117,5999,5941,5941,5829,5829,5774,5668,5668,5617,5566,5566,5517,5517,5468,5420,5420,5373,5326,5326,5281,5281,5281,5281,0,5149,5149,5106,5064,5064,5023,4983,4983,4943,4943,4943,0,0,0,0,0,0,0,0,0,0,0,0,0,0,0,0,0,0,0,0,0,0,0,0,0,0,0,0,0,0,0,0,0,0,0,0,0,0,0,0,0,0,0,0,0,0,0,0,0,0,0,0,0,0,0,0,0,0,0,0,0,0,0,0,0,0,0,0,0,0,0,0,0,0,0,0,0,0,0,0,5106,5106,5106,5149,5149,5149,5149,5149,5149,5149,5149,5192,5192,5192,5192,5236,5236,5281,5281,5326,5326,5326,5326,5326,5326,5326,5281,5281,5326,5326,5373,5420,5420,5566,5617,5617,5721,5721,0,0,5668,5668,5721,5721,5721,5668,5668,0,0,0,0,0,0,0,0,0,0,0,0,0,0,0,0,0,0,0,0,6117,6117,6117,6117,6117,6117,6117,6117,6117,6117,5999,5999,5999,5941,5884,5884,5884,5884,5884,5884,5884,5829,5829,5829,5829,5829,5774,5774,5774,5774,5721,5721,5721,5721,5721,5668,5668,5668,5668,5668,5668,5668,5617,5617,5617,5617,5617,5617,5566,5566,5566,5566,5566,5566,5566,5566,5566,5566,5566,5517,5517,5517,5517,5517,5517,5517,5517,5566,5566,5566,5566,5566,5566,5566,5517,5517,5517,5517,5517,5517,5517,5566,5566,5566,5566,5517,5420,5420,5326,5326,5192,5149,5149,5064,5064,4983,4904,4904,4865,4865,4865,4827,4827,4827,4827,4865,4865,4865,4865,4865,4865,4865,4827,4827,4753,4716,4716,4611,4611,4543,4445,4445,4382,4382,4261,4203,4203,4119,4119,4038,3862,3862,3862,0,0,0,2999,2860,2758,2758,0,2522,2522,2512,2471,2471,2423,2423,2423,2386,2386,2376,2376,2376,2376,2386,2386,2386,2395,2395,2404,2404,2404,2423,2423,2423,2423,2423,2414,2414,2404,2404,2395,2367,2367,2332,2332,2305,2263,2263,2223,2223,2199,2176,2176,2160,2160,2145,2123,2123,2109,2102,2102,2102,2109,2109,2109,2116,2116,2123,2131,2131,2153,2176,2176,0,0,0,2491,2491,2491,0,0,2970,2970,3136,3136,3218,3252,3252,3304,3358,3358,3414,3471,3471,3551,3613,3613,3678,3722,3722,3745,3745,3791,3814,3814,3862,3886,3886,3910
65535,65535,65535,65535,65535,65535,65535,65535,65535,65535,65535,65535,65535,65535,65535,65535,65535,65535,65535,65535,65535,65535,65535,65535,65535,65535,65535,65535,65535,65535,65535,65535,65535,65535,65535,65535,65535,65535,65535,65535,65535,65535,65535,65535,65535,65535,65535,65535,65535,65535,65535,65535,65535,65535,65535,65535,65535,65535,65535,65535,65535,65535,65535,65535,65535,61786,61786,61786,61786,61786,61786,61786,61786,61786,61786,61786,56169,56169,56169,51488,51488,51488,51488,47527,47527,47527,41190,34325,34325,25744,25744,19308,19308,19308,19308,0,0,0,0,0,6644,6644,6117,5829,5829,5617,5617,5668,5566,5566,5566,0,0,0,0,0,0,0,0,0,0,0,0,0,0,0,0,0,0,0,0,0,0,6305,6305,6305,6305,6305,6370,6436,6436,6436,6436,6436,6436,6436,6436,6436,6436,6436,6436,6436,6504,6504,6504,6504,6504,6504,6504,6504,6504,6504,6504,6504,6504,6504,6504,6504,6504,6504,6504,6504,6504,6504,6504,6504,6504,6504,6436,6436,6436,6436,6436,6436,6436,6436,6436,6436,6436,6436,6436,6436,6436,6436,6436,6436,6436,6436,6436,6436,6436,6436,6436,6436,6436,6370,6370,6370,6370,6305,6241,6241,6179,6117,6117,5999,5999,5941,5829,5829,5774,5774,5668,5617,5617,5566,5517,5517,5468,5468,5420,5373,5373,5326,5326,5326,5281,5281,5281,5149,5149,5106,5106,5064,5064,5064,5023,4983,4983,4943,4943,4943,0,0,0,0,0,0,0,0,0,0,0,0,0,0,0,0,0,0,0,0,0,0,0,0,0,0,0,0,0,0,0,0,0,0,0,0,0,0,0,0,0,0,0,0,0,0,0,0,0,0,0,0,0,0,0,0,0,0,0,0,0,0,0,0,0,0,0,0,0,0,0,0,0,0,0,4983,4983,4983,5023,5064,5064,5064,5064,5064,5064,5064,5106,5106,5106,5106,5106,5106,5192,5192,5192,5236,5236,5281,5281,5326,5326,5326,5326,5326,5326,5326,5281,5281,5326,5326,5373,5420,5420,0,0,0,0,0,0,0,5668,5668,5721,5721,5721,5668,5668,0,0,0,0,0,0,0,0,0,0,0,0,0,0,0,0,0,0,0,0,6117,6117,6117,5884,5884,5884,5884,5884,5884,5884,5884,5884,5884,5829,5829,5829,5829,5829,5829,5829,5829,5774,5774,5774,5774,5774,5721,5721,5721,5668,5668,5668,5668,5668,5668,5617,5617,5617,5617,5617,5617,5617,5566,5566,5617,5617,5617,5617,5566,5566,5566,5566,5566,5566,5566,5566,5566,5566,5566,5517,5517,5517,5517,5517,5517,5517,5517,5566,5566,5566,5566,5566,5566,5566,5517,5517,5517,5517,5517,5517,5517,5517,5517,5517,5517,5517,5373,5373,5281,5281,5192,5149,5149,5064,5064,4983,4904,4904,4865,4865,4865,4827,4827,4827,4827,4865,4865,4865,4865,4865,4865,4865,4827,4827,4753,4681,4681,4611,4611,4510,4413,4413,4351,4351,4232,4175,4175,4147,4147,4038,3886,3886,3886,0,0,0,3136,2860,2860,2860,0,2574,2574,2543,2481,2481,2433,2433,2423,2386,2386,2376,2376,2376,2376,2386,2386,2386,2395,2395,2404,2404,2404,2423,2423,2423,2423,2423,2414,2414,2404,2404,2395,2367,2367,2332,2332,2297,2263,2263,2223,2223,2199,2168,2168,2153,2153,2138,2116,2116,2102,2094,2094,2094,2094,2087,2087,2094,2094,2102,2109,2109,2123,2123,2131,2153,2153,0,2491,2491,2491,0,0,2970,2970,3014,3014,3168,3235,3235,3286,3322,3322,3376,3471,3471,3551,3613,3613,3678,3745,3745,3791,3791,3838,3862,3862,3910,3935,3935,3935
65535,65535,65535,65535,65535,65535,65535,65535,65535,65535,65535,65535,65535,65535,65535,65535,65535,65535,65535,65535,65535,65535,65535,65535,65535,65535,65535,65535,65535,65535,65535,65535,65535,65535,65535,65535,65535,65535,65535,65535,65535,65535,65535,65535,65535,65535,65535,65535,65535,65535,65535,65535,65535,65535,65535,65535,65535,65535,65535,65535,65535,65535,65535,65535,65535,61786,61786,61786,61786,61786,61786,61786,61786,61786,61786,61786,56169,56169,56169,51488,51488,51488,51488,51488,47527,47527,47527,41190,41190,34325,34325,25744,19308,19308,19308,19308,19308,0,0,0,0,6716,6716,6179,6179,5884,5668,5668,5566,5566,5566,0,0,0,0,0,0,0,0,0,0,0,0,0,0,0,0,0,0,0,0,0,0,6370,6370,6370,6370,6370,6436,6436,6436,6436,6436,6436,6436,6436,6436,6436,6436,6436,6436,6436,6504,6504,6504,6504,6504,6504,6504,6504,6504,6504,6504,6504,6504,6504,6504,6504,6504,6504,6504,6504,6504,6504,6504,6504,6504,6436,6436,6436,6436,6436,6436,6436,6436,6436,6436,6436,6436,6436,6436,6436,6436,6436,6436,6436,6436,6436,6436,6436,6436,6436,6436,6436,6370,6370,6370,6370,6370,6305,6241,6241,6179,6117,6117,5999,5999,5941,5829,5829,5774,5774,5668,5617,5617,5566,5517,5517,5468,5468,5420,5373,5373,5326,5326,5326,5326,0,0,5149,5149,5106,5106,5064,5023,5023,4983,4983,4983,4943,4943,4943,0,0,0,0,0,0,0,0,0,0,0,0,0,0,0,0,0,0,0,0,0,0,0,0,0,0,0,0,0,0,0,0,0,0,0,0,0,0,0,0,0,0,0,0,0,0,0,0,0,0,0,0,0,0,0,0,0,0,0,0,0,0,0,0,0,0,0,0,0,0,0,0,0,0,0,4983,4983,4983,5023,5064,5064,5064,5064,5064,5064,5064,5106,5106,5106,5106,5106,5106,5106,5106,5106,5236,5236,5281,5281,5326,5326,5326,5281,5281,5281,5281,5281,5281,5281,5281,5281,5420,5420,0,0,0,0,0,0,0,5617,5617,5617,5617,5617,5617,5668,0,0,0,0,0,0,0,0,0,0,0,0,0,0,0,0,0,0,0,0,0,0,0,5884,5884,5829,5829,5884,5884,5884,5884,5884,5884,5829,5829,5829,5829,5829,5829,5829,5829,5774,5774,5774,5774,5774,5721,5721,5721,5668,5668,5668,5668,5668,5668,5617,5617,5617,5617,5617,5617,5617,5566,5566,5566,5566,5566,5566,5566,5566,5517,5517,5517,5517,5517,5517,5517,5517,5517,5517,5517,5517,5517,5517,5517,5517,5517,5517,5517,5517,5517,5517,5517,5517,5517,5517,5517,5517,5517,5517,5517,5517,5517,5468,5468,5468,5373,5373,5281,5281,5192,5149,5149,5064,5023,5023,4943,4943,4904,4865,4865,4827,4827,4827,4827,4865,4865,4865,4904,4904,4904,4865,4827,4827,4753,4681,4681,4611,4611,4510,4413,4413,4351,4351,4232,4175,4175,4147,4147,4038,3886,3886,3886,0,0,0,0,2970,2970,2970,0,2574,2574,2543,2481,2481,2433,2433,2414,2367,2367,2358,2358,2349,2349,2349,2349,2358,2367,2367,2376,2386,2386,2395,2395,2395,2395,2395,2395,2395,2395,2395,2386,2358,2358,2332,2332,2297,2297,0,2223,2223,2191,2168,2168,2145,2145,2131,2109,2109,2094,2080,2080,2073,2073,2073,2073,2080,2080,2080,2080,2080,2123,2123,2131,2153,2153,0,0,0,0,0,0,0,3014,3014,3014,3168,3235,3235,3286,3322,3322,3376,3471,3471,3551,3634,3634,3700,3767,3767,3838,3838,3886,3935,3935,3986,4012,3935,3935
65535,65535,65535,65535,65535,65535,65535,65535,65535,65535,65535,65535,65535,65535,65535,65535,65535,65535,65535,65535,65535,65535,65535,65535,65535,65535,65535,65535,65535,65535,65535,65535,65535,65535,65535,65535,65535,65535,65535,65535,65535,65535,65535,65535,65535,65535,65535,65535,65535,65535,65535,65535,65535,65535,65535,65535,65535,65535,65535,65535,65535,65535,65535,65535,65535,65535,65535,61786,61786,61786,61786,61786,61786,61786,61786,61786,61786,61786,56169,56169,56169,51488,51488,51488,51488,51488,47527,47527,47527,41190,41190,34325,25744,25744,19308,19308,19308,0,0,0,0,0,0,6865,6865,6305,5668,5668,5566,5566,5566,5566,5566,5517,5517,5566,5566,5566,5566,5566,5668,5668,5829,6057,6057,0,0,6305,6305,6305,6370,6370,6370,6370,6370,6370,6370,6370,6436,6436,6436,6436,6436,6436,6436,6436,6436,6436,6436,6436,6504,6504,6504,6504,6504,6504,6504,6504,6504,6504,6504,6504,6504,6504,6504,6504,6504,6504,6504,6504,6504,6504,6504,6504,6504,6504,6504,6436,6436,6436,6436,6436,6436,6436,6436,6436,6436,6436,6436,6436,6436,6436,6436,6436,6436,6436,6436,6436,6436,6436,6436,6436,6436,6436,6370,6370,6370,6305,6305,6241,6179,6179,6117,5999,5999,5941,5941,5829,5774,5774,5668,5668,5617,5566,5566,5517,5468,5468,5420,5420,5373,5326,5326,5281,5281,5326,5326,0,5149,5106,5106,5064,5064,5064,5023,5023,4983,4983,4983,4943,4943,4943,0,0,0,0,0,0,0,0,0,0,0,0,0,0,0,0,0,0,0,0,0,0,0,0,0,0,0,0,0,0,0,0,0,0,0,0,0,0,0,0,0,0,0,0,0,0,0,0,0,0,0,0,0,0,0,0,0,0,0,0,0,0,0,0,0,0,0,0,0,0,0,0,0,0,0,4943,4943,4943,4943,4983,4983,5023,5023,5023,5023,5023,5023,5064,5023,5023,5023,5023,5023,5023,5023,0,0,0,0,0,0,0,5192,5192,5192,5236,5236,5236,5236,5236,5236,0,0,0,0,0,0,0,0,0,5617,5617,5617,5617,5617,5617,0,0,0,0,0,0,0,0,0,0,0,0,0,0,0,0,0,0,0,0,0,0,0,0,0,0,5829,5829,5829,5829,5829,5774,5774,5829,5829,5829,5829,5829,5829,5774,5774,5774,5774,5721,5721,5721,5721,5721,5668,5668,5668,5617,5617,5617,5617,5617,5617,5617,5566,5566,5566,5566,5566,5566,5566,5566,5517,5517,5517,5517,5517,5517,5517,5517,5468,5468,5468,5468,5468,5468,5468,5468,5468,5468,5468,5468,5468,5468,5468,5468,5468,5517,5517,5517,5517,5517,5517,5517,5517,5517,5517,5517,5517,5517,5468,5468,5468,5420,5420,5326,5326,5236,5149,5149,5106,5023,5023,4943,4943,4904,4865,4865,4865,4865,4827,4827,4865,4865,4865,4865,4865,4904,4865,4827,4827,4753,4681,4681,4611,4611,4477,4382,4382,4321,4321,4232,4175,4175,4119,4119,4038,3862,3862,3862,0,0,0,0,2970,2970,2970,0,2629,2629,2585,2501,2501,2442,2442,2404,2349,2349,2332,2332,2323,2314,2314,2314,2314,2332,2332,2340,2340,2358,2367,2367,2367,2395,2395,2395,2395,2395,2395,2386,2358,2358,2332,2332,2297,2297,0,2223,2223,2191,2168,2168,2145,2145,2131,2109,2109,2094,2080,2080,2073,2073,2073,2073,2080,2080,2080,2080,2080,2087,2087,2094,2102,2102,2138,0,0,0,2512,2512,2512,3014,3014,3014,3136,3201,3201,3252,3304,3304,3340,3433,3433,3531,3613,3613,3700,3767,3767,3838,3838,3886,3935,3935,3986,4012,4012,4012
65535,65535,65535,65535,65535,65535,65535,65535,65535,65535,65535,65535,65535,65535,65535,65535,65535,65535,65535,65535,65535,65535,65535,65535,65535,65535,65535,65535,65535,65535,65535,65535,65535,65535,65535,65535,65535,65535,65535,65535,65535,65535,65535,65535,65535,65535,65535,65535,65535,65535,65535,65535,65535,65535,65535,65535,65535,65535,65535,65535,65535,65535,65535,65535,65535,65535,65535,65535,61786,61786,61786,61786,61786,61786,61786,61786,61786,61786,56169,56169,56169,51488,51488,51488,51488,51488,47527,47527,47527,41190,41190,34325,25744,25744,19308,19308,19308,19308,0,0,0,0,0,6865,6865,6305,5884,5884,5668,5668,5566,5566,5566,5517,5517,5566,5566,5566,5566,5566,5668,5668,5829,6057,6057,0,0,6305,6305,6305,6370,6370,6370,6370,6436,6436,6436,6436,6436,6436,6436,6436,6436,6436,6436,6436,6436,6436,6436,6504,6504,6504,6504,6504,6504,6504,6504,6504,6504,6504,6504,6504,6504,6504,6504,6504,6504,6504,6504,6504,6504,6504,6504,6504,6504,6436,6436,6436,6436,6436,6436,6436,6436,6436,6436,6436,6436,6436,6436,6436,6436,6436,6436,6436,6436,6436,6436,6436,6436,6436,6436,6436,6370,6370,6370,6305,6305,6241,6241,6179,6117,6117,5999,5941,5941,5829,5829,5774,5668,5668,5617,5617,5566,5517,5517,5468,5420,5420,5373,5373,5373,5326,5326,5281,5281,0,0,0,5149,5106,5106,5064,5064,0,0,0,0,0,0,0,0,0,0,0,0,0,0,0,0,0,0,0,0,0,0,0,0,0,0,0,0,0,0,0,0,0,0,0,0,0,0,0,0,0,0,0,0,0,0,0,0,0,0,0,0,0,0,0,0,0,0,0,0,0,0,0,0,0,0,0,0,0,0,0,0,0,0,0,0,0,0,0,0,0,0,0,0,4865,4865,4865,4904,4983,4983,5023,5023,5023,5023,5023,5023,5064,5023,5023,5023,5023,5023,5023,5023,0,0,0,0,0,0,0,5192,5192,5192,5236,5236,5236,5236,5236,5236,0,0,0,0,0,0,0,0,0,5566,5566,5617,5617,5617,5617,0,0,0,0,0,0,0,0,0,0,0,0,0,0,0,0,0,0,0,0,0,0,0,0,0,0,5829,5829,5829,5774,5774,5774,5774,5774,5774,5774,5774,5774,5774,5774,5721,5721,5721,5721,5721,5668,5668,5668,5617,5617,5617,5617,5617,5617,5617,5617,5617,5617,5566,5566,5566,5566,5566,5566,5566,5566,5517,5517,5517,5517,5517,5517,5517,5517,5468,5468,5468,5468,5468,5468,5468,5468,5468,5468,5468,5468,5468,5468,5468,5468,5468,5468,5468,5468,5468,5468,5468,5468,5468,5468,5468,5468,5468,5468,5468,5468,5468,5420,5420,5326,5326,5236,5149,5149,5106,5023,5023,4943,4943,4904,4865,4865,4865,4865,4865,4865,4865,4865,4865,4865,4865,4865,4865,4790,4790,4716,4646,4646,4577,4577,4477,4382,4382,4291,4291,4203,4119,4119,4065,4012,4012,3862,3862,3862,0,0,0,0,3059,3059,3059,0,2686,2686,2607,2532,2532,2452,2452,2404,2349,2349,2332,2332,2323,2314,2314,2314,2314,2332,2332,2340,2340,2358,2367,2367,2367,2376,2376,2386,2386,2386,2386,2376,2358,2358,2332,2332,2288,2255,2255,2223,2223,2191,2160,2160,2145,2145,2123,2102,2102,2087,2066,2066,2060,2060,2060,2060,2066,2060,2060,2060,2053,2053,2053,2053,2053,2053,2066,2102,2102,0,2512,2512,2512,2553,2553,2985,2985,3152,3152,3218,3252,3252,3286,3376,3376,3471,3592,3592,3700,3791,3791,3862,3935,3935,3986,3986,4065,4065,4065,4065
65535,65535,65535,65535,65535,65535,65535,65535,65535,65535,65535,65535,65535,65535,65535,65535,65535,65535,65535,65535,65535,65535,65535,65535,65535,65535,65535,65535,65535,65535,65535,65535,65535,65535,65535,65535,65535,65535,65535,65535,65535,65535,65535,65535,65535,65535,65535,65535,65535,65535,65535,65535,65535,65535,65535,65535,65535,65535,65535,65535,65535,65535,65535,65535,65535,65535,65535,65535,61786,61786,61786,61786,61786,61786,61786,61786,61786,61786,61786,56169,56169,56169,56169,51488,51488,51488,51488,47527,47527,47527,47527,41190,34325,34325,25744,25744,19308,19308,0,0,0,0,0,0,6865,6865,6305,6305,5941,5941,5668,5668,0,0,0,0,0,0,0,0,0,0,0,0,0,0,0,0,0,0,6370,6370,6370,6370,6436,6436,6436,6436,6436,6436,6436,6436,6436,6436,6436,6436,6436,6436,6436,6504,6504,6504,6504,6504,6504,6504,6504,6504,6504,6504,6504,6504,6504,6504,6504,6504,6504,6504,6504,6504,6504,6504,6504,6436,6436,6436,6436,6436,6436,6436,6436,6436,6436,6436,6436,6436,6436,6436,6436,6436,6436,6436,6436,6436,6436,6436,6436,6436,6436,6436,6436,6436,6370,6370,6370,6305,6305,6241,6241,6179,6117,6117,5999,5941,5941,5829,5829,5774,5668,5668,5617,5617,5566,5517,5517,5468,5420,5420,5373,5373,5373,5326,5326,5281,5281,0,5149,5149,5106,5106,5106,5064,5023,5023,4983,4983,4943,4904,4904,4904,0,0,0,0,0,0,0,0,0,0,0,0,0,0,0,0,0,0,0,0,0,0,0,0,0,0,0,0,0,0,0,0,0,0,0,0,0,0,0,0,0,0,0,0,0,0,0,0,0,0,0,0,0,0,0,0,0,0,0,0,0,0,0,0,0,0,0,0,0,0,0,0,0,0,0,0,0,4865,4865,4865,4904,4943,4943,4983,4983,4983,4983,4983,4983,5023,4983,4983,4983,4983,4983,4983,4983,0,0,0,0,0,0,0,5192,5192,5192,5236,5236,5236,5236,5236,5236,0,0,0,0,0,0,0,0,0,5566,5566,0,0,0,0,0,0,0,0,0,0,0,0,0,0,0,0,0,0,0,0,0,0,0,0,0,0,0,0,0,0,0,0,0,5774,5774,5774,5774,5774,5774,5774,5774,5774,5774,5774,5721,5721,5721,5721,5721,5668,5668,5668,5617,5617,5617,5617,5617,5566,5566,5566,5566,5566,5566,5517,5517,5517,5517,5517,5517,5517,5517,5468,5468,5468,5468,5468,5468,5468,5468,5468,5468,5468,5468,5468,5468,5468,5468,5468,5468,5468,5468,5468,5468,5468,5468,5468,5468,5468,5468,5468,5468,5468,5468,5468,5468,5468,5468,5468,5468,5468,5420,5420,5420,5326,5326,5281,5236,5236,5106,5064,5064,4983,4983,4943,4904,4904,4904,4904,4865,4865,4865,4865,4865,4865,4865,4865,4865,4790,4790,4716,4646,4646,4577,4577,4477,4382,4382,4291,4291,4203,4119,4119,4065,4012,4012,3838,3838,3745,3745,0,3376,3376,3059,3059,3059,0,2686,2652,2607,2532,2532,2452,2452,2395,2323,2323,2305,2305,2288,2280,2280,2280,2280,2297,2297,2305,2305,2314,2332,2332,2349,2358,2358,2367,2367,2367,2376,2367,2349,2349,2323,2323,2288,2255,2255,2215,2215,2183,2160,2160,2138,2123,2123,2102,2102,2087,2066,2066,2060,2060,2060,2060,2066,2060,2060,2060,2053,2053,2053,2053,2053,2053,2066,2102,2102,0,0,0,2553,2553,2553,2985,2985,3152,3152,3218,3252,3252,3286,3376,3376,3471,3592,3592,3678,3791,3791,3862,3935,3935,3986,3986,4065,4065,4065,4065
65535,65535,65535,65535,65535,65535,65535,65535,65535,65535,65535,65535,65535,65535,65535,65535,65535,65535,65535,65535,65535,65535,65535,65535,65535,65535,65535,65535,65535,65535,65535,65535,65535,65535,65535,65535,65535,65535,65535,65535,65535,65535,65535,65535,65535,65535,65535,65535,65535,65535,65535,65535,65535,65535,65535,65535,65535,65535,65535,65535,65535,65535,65535,65535,65535,65535,65535,65535,65535,65535,61786,61786,61786,61786,61786,61786,61786,61786,61786,61786,61786,56169,56169,56169,51488,51488,51488,51488,51488,47527,47527,47527,41190,41190,34325,25744,19308,19308,19308,19308,0,0,0,0,6865,6865,6305,6305,5941,5941,5668,5668,5721,5721,0,0,0,0,0,0,0,0,0,0,0,0,0,0,0,6436,6436,6436,6436,6436,6436,6436,6436,6436,6436,6436,6436,6436,6436,6436,6436,6436,6436,6504,6504,6504,6504,6504,6504,6504,6504,6504,6504,6504,6504,6504,6504,6504,6504,6504,6504,6504,6504,6504,6504,6504,6504,6504,6504,6436,6436,6436,6436,6436,6436,6436,6436,6436,6436,6436,6436,6436,6436,6436,6436,6436,6436,6436,6436,6436,6436,6436,6436,6436,6436,6436,6436,6370,6370,6370,6305,6241,6241,6179,6179,6117,5999,5999,5941,5829,5829,5774,5774,5668,5617,5617,5566,5566,5517,5468,5468,5420,5420,5420,5373,5373,5326,5326,5326,5326,5192,5192,5149,5149,5106,5064,5064,5064,5023,5023,4983,4983,4943,4904,4904,4904,0,0,0,0,0,0,0,0,0,0,0,0,0,0,0,0,0,0,0,0,0,0,0,0,0,0,0,0,0,0,0,0,0,0,0,0,0,0,0,0,0,0,0,0,0,0,0,0,0,0,0,0,0,0,0,0,0,0,0,0,0,0,0,0,0,0,0,0,0,0,0,0,0,0,4753,4753,4753,4790,4827,4827,4865,4904,4904,4943,4943,4943,4943,4943,4943,4943,4943,4943,4943,4943,4943,4904,4904,4904,4904,0,0,0,0,0,0,0,0,0,0,0,0,0,0,0,0,0,0,0,0,0,0,0,0,0,0,0,0,0,0,0,0,0,0,0,0,0,0,0,0,0,0,0,0,0,0,0,0,0,0,0,0,0,0,0,0,0,0,5774,5774,5774,5774,5774,5774,5774,5774,5774,5721,5721,5721,5721,5721,5668,5668,5668,5668,5668,5617,5617,5617,5566,5566,5566,5566,5566,5566,5566,5566,5517,5517,5517,5517,5517,5517,5517,5517,5468,5468,5468,5468,5468,5468,5468,5468,5468,5468,5468,5468,5468,5468,5468,5468,5468,5468,5468,5468,5468,5468,5468,5468,5468,5468,5468,5468,5468,5468,5468,5468,5468,5468,5468,5468,5468,5468,5468,5420,5420,5420,5373,5373,5281,5236,5236,5106,5064,5064,4983,4983,4943,4904,4904,4904,4865,4865,4865,4865,4865,4865,4865,4827,4827,4827,4753,4753,4681,4611,4611,4543,4543,4445,4351,4351,4261,4261,4175,4119,4119,4038,3986,3986,3814,3814,3722,3722,3571,3376,3376,3136,3136,2985,2985,2808,2652,2652,2553,2553,2452,2452,2395,2314,2314,2280,2280,2280,2280,2280,2280,2280,2297,2297,2305,2305,2314,2332,2332,2349,2358,2358,2367,2367,2367,2376,2367,2349,2349,2323,2323,2288,2255,2255,2215,2215,2183,2160,2160,2138,2123,2123,2102,2102,2073,2060,2060,2046,2046,2046,2046,2046,2039,2032,2032,2026,2026,2026,2019,2019,2019,2026,2039,2039,2066,2066,2386,2386,2553,2553,2874,2985,3152,3152,3201,3235,3235,3269,3340,3340,3452,3571,3571,3678,3791,3791,3862,3961,3961,4038,4038,4119,4147,4147,4147
65535,65535,65535,65535,65535,65535,65535,65535,65535,65535,65535,65535,65535,65535,65535,65535,65535,65535,65535,65535,65535,65535,65535,65535,65535,65535,65535,65535,65535,65535,65535,65535,65535,65535,65535,65535,65535,65535,65535,65535,65535,65535,65535,65535,65535,65535,65535,65535,65535,65535,65535,65535,65535,65535,65535,65535,65535,65535,65535,65535,65535,65535,65535,65535,65535,65535,65535,65535,65535,65535,61786,61786,61786,61786,61786,61786,61786,61786,61786,61786,61786,56169,56169,56169,51488,51488,51488,51488,51488,47527,47527,47527,41190,41190,34325,25744,25744,19308,19308,18172,18172,0,0,0,0,0,6865,6865,6305,5941,5941,5721,5721,5721,5999,0,0,0,0,0,0,0,0,0,0,0,0,0,0,6436,6436,6436,6436,6436,6436,6436,6436,6436,6436,6436,6436,6436,6436,6436,6436,6504,6504,6504,6504,6504,6504,6504,6504,6504,6504,6504,6504,6504,6504,6504,6504,6504,6504,6504,6504,6504,6504,6504,6504,6504,6504,6504,6436,6436,6436,6436,6436,6436,6436,6436,6436,6436,6436,6436,6436,6436,6436,6436,6436,6436,6436,6436,6436,6436,6436,6436,6436,6436,6436,6370,6370,6370,6305,6305,6241,6179,6179,6117,6117,5999,5941,5941,5829,5774,5774,5721,5721,5617,5566,5566,5566,5566,5517,5468,5468,5420,5420,5420,5373,5373,5326,5326,0,0,5192,5192,5149,5149,5106,5064,5064,5064,0,0,0,0,0,4904,4904,4904,0,0,0,0,0,0,0,0,0,0,0,0,0,0,0,0,0,0,0,0,0,0,0,0,0,0,0,5468,5468,5468,0,0,0,0,0,0,0,5149,5149,5149,5149,5149,5149,0,0,0,0,0,0,0,0,0,0,0,0,0,0,0,0,0,0,0,0,0,0,0,0,0,0,0,0,0,0,0,4753,4753,4753,4790,4827,4827,4865,4904,4904,4943,4943,4943,4943,4943,4943,4943,4943,4943,4943,4943,4943,4904,4904,4904,4904,0,0,0,0,0,0,0,0,0,0,0,0,0,0,0,0,0,0,0,0,0,0,0,0,0,0,0,0,0,0,0,0,0,0,0,0,0,0,0,0,0,0,0,0,0,0,0,0,0,0,0,0,0,0,0,0,0,0,0,0,0,0,0,0,5774,5774,5774,5721,5721,5721,5721,5721,5668,5668,5668,5668,5668,5617,5617,5617,5566,5566,5566,5566,5566,5566,5566,5566,5517,5517,5517,5517,5517,5517,5517,5517,5468,5468,5468,5468,5468,5468,5468,5468,5468,5468,5468,5468,5468,5468,5468,5468,5468,5468,5468,5468,5468,5468,5468,5468,5468,5468,5468,5468,5468,5468,5468,5468,5468,5468,5468,5468,5468,5468,5468,5420,5420,5420,5373,5373,5281,5236,5236,5106,5064,5064,4983,4983,4943,4904,4904,4865,4865,4865,4865,4865,4865,4827,4827,4790,4790,4790,4716,4716,4646,4577,4577,4543,4543,4445,4351,4351,4261,4261,4175,4119,4119,4038,3986,3986,3814,3814,3722,3722,3571,3414,3414,3414,0,2985,2985,2808,2686,2686,2574,2574,2471,2471,2395,2314,2314,2280,2280,2263,2255,2255,2255,2255,2263,2263,2272,2272,2288,2305,2305,2323,2332,2332,2349,2349,2349,2367,2358,2340,2340,2323,2323,2288,2247,2247,2215,2215,2176,2153,2153,2138,2116,2116,2094,2094,2073,2053,2053,2039,2039,2032,2026,2026,2019,2013,2013,2006,2006,2000,1993,1993,1993,1993,1993,1993,2006,2006,2046,2386,2640,2874,2874,3105,3168,3168,3201,3235,3235,3269,3340,3340,3452,3571,3571,3678,3791,3791,3910,4012,4012,4092,4203,4203,4203,4203,4203
65535,65535,65535,65535,65535,65535,65535,65535,65535,65535,65535,65535,65535,65535,65535,65535,65535,65535,65535,65535,65535,65535,65535,65535,65535,65535,65535,65535,65535,65535,65535,65535,65535,65535,65535,65535,65535,65535,65535,65535,65535,65535,65535,65535,65535,65535,65535,65535,65535,65535,65535,65535,65535,65535,65535,65535,65535,65535,65535,65535,65535,65535,65535,65535,65535,65535,65535,65535,65535,65535,65535,61786,61786,61786,61786,61786,61786,61786,61786,61786,61786,61786,56169,56169,56169,56169,51488,51488,51488,51488,47527,47527,47527,47527,41190,34325,34325,25744,25744,18172,18172,0,0,0,0,0,0,0,6790,6305,6305,5941,5941,5941,5999,0,0,0,0,0,0,0,0,0,0,6370,6370,6370,6370,6370,6436,6436,6436,6436,6436,6436,6436,6436,6436,6436,6436,6436,6436,6436,6436,6504,6504,6504,6504,6504,6504,6504,6504,6504,6504,6504,6504,6504,6504,6504,6504,6504,6504,6504,6504,6504,6504,6504,6504,6504,6436,6436,6436,6436,6436,6436,6436,6436,6436,6436,6436,6436,6436,6436,6436,6436,6436,6436,6436,6436,6436,6436,6436,6436,6436,6436,6436,6436,6436,6370,6370,6370,6305,6305,6241,6179,6179,6117,6117,5999,5941,5941,5829,5774,5774,5721,5721,5617,5566,5566,5517,5517,5468,5468,5468,5420,5373,5373,5326,5326,5326,5326,0,0,5149,5149,5106,5106,5106,5064,5064,5064,0,0,0,0,0,4904,4904,4904,0,0,0,0,0,0,0,0,0,0,0,0,0,0,0,0,0,0,5517,5517,5517,5517,0,0,0,0,0,5468,5468,5420,5420,5420,0,0,0,0,0,5149,5149,5149,5149,5149,5149,0,0,0,0,0,0,0,0,0,0,0,0,0,0,0,0,0,0,0,0,0,0,0,0,0,0,0,0,0,0,0,4753,4753,4753,4790,4827,4827,4827,4865,4865,4904,4904,4904,4904,4904,4904,4904,4904,4904,4865,4865,4865,4827,4827,4827,4790,4790,4790,4790,0,0,0,0,0,0,0,0,0,0,0,0,0,0,0,0,0,0,0,0,0,0,0,0,0,0,0,0,0,0,0,0,0,0,0,0,0,0,0,0,0,0,0,0,0,0,0,0,0,0,0,0,0,0,0,0,0,0,0,0,0,0,0,0,5721,5721,5721,5721,5721,5668,5668,5668,5617,5617,5617,5617,5566,5566,5566,5566,5566,5566,5566,5566,5517,5517,5517,5517,5517,5517,5468,5468,5468,5468,5468,5420,5420,5420,5420,5420,5420,5420,5420,5373,5373,5373,5373,5420,5420,5420,5420,5420,5420,5420,5420,5420,5420,5420,5420,5420,5420,5420,5420,5420,5420,5420,5420,5420,5468,5468,5468,5468,5420,5420,5420,5373,5373,5326,5236,5236,5149,5106,5106,5023,5023,4983,4904,4904,4865,4865,4865,4865,4865,4865,4827,4827,4790,4790,4790,4716,4716,4646,4577,4577,4510,4510,4413,4321,4321,4232,4232,4147,4092,4092,4012,3935,3935,3791,3791,3700,3700,3571,3414,3414,3269,3269,2985,2985,2808,2686,2686,2574,2574,2471,2471,2395,2305,2305,2255,2255,2239,2239,2239,2223,2223,2239,2239,2247,2247,2263,2280,2280,2297,2305,2305,2323,2332,2332,2349,2349,2332,2332,2314,2314,2288,2247,2247,2215,2215,2176,2153,2153,2138,2116,2116,2094,2094,2073,2053,2053,2039,2039,2032,2026,2026,2019,2013,2013,2006,2006,2000,1993,1993,1993,1993,1993,1993,2006,2006,2046,2640,2640,2874,2874,3105,3136,3136,3201,3235,3235,3252,3322,3322,3414,3531,3531,3656,3767,3767,3886,4012,4012,4092,4203,4203,4203,4203,4203
65535,65535,65535,65535,65535,65535,65535,65535,65535,65535,65535,65535,65535,65535,65535,65535,65535,65535,65535,65535,65535,65535,65535,65535,65535,65535,65535,65535,65535,65535,65535,65535,65535,65535,65535,65535,65535,65535,65535,65535,65535,65535,65535,65535,65535,65535,65535,65535,65535,65535,65535,65535,65535,65535,65535,65535,65535,65535,65535,65535,65535,65535,65535,65535,65535,65535,65535,65535,65535,65535,65535,65535,65535,61786,61786,61786,61786,61786,61786,61786,61786,61786,56169,56169,56169,56169,51488,51488,51488,51488,47527,47527,47527,47527,41190,34325,34325,25744,25744,18172,16259,16259,16259,0,0,0,0,0,6790,6305,6305,5941,5941,5941,5999,5999,5999,0,0,0,0,0,0,0,0,6370,6370,6370,6370,6370,6436,6436,6436,6436,6436,6436,6436,6436,6436,6436,6436,6436,6436,6436,6504,6504,6504,6504,6504,6504,6504,6504,6504,6504,6504,6504,6504,6504,6504,6504,6504,6504,6504,6504,6504,6504,6504,6504,6504,6504,6436,6436,6436,6436,6436,6436,6436,6436,6436,6436,6436,6436,6436,6436,6436,6436,6436,6436,6436,6436,6436,6436,6436,6436,6436,6436,6436,6370,6370,6370,6305,6305,6241,6241,6179,6117,6117,5999,5999,5941,5829,5829,5774,5668,5668,5617,5617,5566,5517,5517,5468,5468,5468,5420,5420,5373,5326,5326,5326,5326,5326,5192,5192,5149,5106,5106,5064,5064,5023,5023,0,4943,4904,4904,4904,0,0,0,0,0,0,0,0,0,0,0,0,0,0,0,0,0,0,0,0,0,0,0,5517,5517,5517,5517,0,0,0,0,0,5468,5468,5420,5420,5420,0,0,0,0,0,5149,5149,5149,5149,5149,5149,0,0,0,0,0,0,0,0,0,0,0,0,0,0,0,0,0,0,0,0,0,0,0,0,0,0,0,0,0,4716,4716,4716,4753,4753,4790,4790,4790,4827,4865,4865,4904,4904,4904,4904,4904,4904,4904,4865,4865,4865,4865,4865,4827,4827,4827,4790,4790,4790,4790,0,0,0,0,0,0,0,0,0,0,0,0,0,0,0,0,0,0,0,0,0,0,0,0,0,0,0,0,0,0,0,0,0,0,0,0,0,0,0,0,0,0,0,0,0,0,0,0,0,0,0,0,0,0,0,0,0,0,0,0,5774,5774,5774,5721,5721,5721,5721,5721,5668,5668,5668,5668,5617,5617,5617,5617,5566,5566,5566,5566,5566,5566,5517,5517,5517,5517,5517,5517,5517,5517,5468,5468,5468,5468,5468,5420,5420,5420,5420,5420,5420,5420,5420,5373,5373,5373,5373,5420,5420,5420,5420,5420,5420,5420,5420,5420,5420,5420,5420,5420,5420,5420,5420,5420,5420,5420,5420,5420,5420,5420,5373,5373,5373,5326,5326,5281,5281,5236,5192,5192,5106,5064,5064,5023,5023,4983,4904,4904,4865,4865,4865,4827,4827,4827,4790,4790,4753,4716,4716,4681,4681,4611,4543,4543,4477,4477,4382,4291,4291,4203,4203,4119,4065,4065,3986,3886,3886,3791,3791,3656,3656,3551,3433,3433,3269,3269,3059,3059,2860,2860,0,0,0,2491,2491,2404,2305,2305,2255,2255,2239,2239,2239,2223,2223,2239,2239,2247,2247,2263,2280,2280,2297,2305,2305,2323,2332,2332,2349,2349,2332,2332,2314,2314,2280,2247,2247,2215,2215,2176,2153,2153,2131,2116,2116,2094,2094,2066,2046,2046,2032,2032,2019,2013,2013,2000,1993,1993,1987,1987,1980,1968,1968,1961,1961,1961,1968,1968,1968,2046,0,2874,2874,2874,3120,3136,3136,3152,3218,3218,3235,3304,3304,3376,3471,3471,3592,3700,3700,3838,3961,3961,4065,4175,4175,4203,4203,4232
65535,65535,65535,65535,65535,65535,65535,65535,65535,65535,65535,65535,65535,65535,65535,65535,65535,65535,65535,65535,65535,65535,65535,65535,65535,65535,65535,65535,65535,65535,65535,65535,65535,65535,65535,65535,65535,65535,65535,65535,65535,65535,65535,65535,65535,65535,65535,65535,65535,65535,65535,65535,65535,65535,65535,65535,65535,65535,65535,65535,65535,65535,65535,65535,65535,65535,65535,65535,65535,65535,65535,65535,65535,61786,61786,61786,61786,61786,61786,61786,61786,61786,61786,61786,56169,56169,56169,51488,51488,51488,51488,51488,47527,47527,47527,41190,41190,32519,32519,22884,16259,16259,14369,14369,14369,0,0,0,0,6716,6716,6241,6241,6179,5999,5999,5999,0,0,0,0,0,0,0,0,0,0,6370,6370,6436,6436,6436,6436,6436,6436,6436,6436,6436,6436,6436,6436,6436,6504,6504,6504,6504,6504,6504,6504,6504,6504,6504,6504,6504,6504,6504,6504,6504,6504,6504,6504,6504,6504,6504,6504,6504,6504,6504,6436,6436,6436,6436,6436,6436,6436,6436,6436,6436,6436,6436,6436,6436,6436,6436,6436,6436,6436,6436,6436,6436,6436,6436,6436,6436,6436,6436,6370,6370,6370,6305,6241,6241,6179,6179,6117,5999,5999,5999,5999,5941,5829,5829,5774,5668,5668,5617,5617,5566,5517,5517,5468,5468,5468,5420,5420,5373,5326,5326,5326,0,0,5192,5192,5149,5106,5106,5064,5064,5023,5023,0,4943,4904,4904,4904,4904,4827,4790,4790,4790,0,0,0,0,0,0,0,0,0,0,0,0,0,0,0,5468,5468,5517,5517,5517,5517,5517,5517,5517,5517,5517,5468,5420,5420,5373,5373,5326,5281,5281,5236,5236,5236,5192,5192,5192,5149,5149,5149,5192,5192,5192,5192,5192,5192,0,0,0,0,0,0,0,0,0,0,0,0,0,0,0,0,0,0,0,0,0,0,0,4716,4716,4716,4790,4790,4790,4790,4790,4865,4865,4865,4904,4904,4904,4904,4904,4904,4904,4865,4865,4865,4865,4865,4827,4790,4790,4753,4753,4753,4753,4827,4827,4865,4943,4943,0,0,0,0,0,0,0,0,0,0,0,0,0,0,0,0,0,0,0,0,0,0,0,0,0,0,0,0,0,0,0,0,0,0,0,0,0,0,0,0,0,0,0,0,0,0,0,0,0,0,0,0,0,0,0,5774,5774,5774,5721,5721,5721,5721,5721,5668,5668,5668,5668,5617,5617,5617,5617,5566,5566,5566,5566,5566,5566,5517,5517,5517,5517,5517,5517,5517,5517,5468,5468,5468,5420,5420,5420,5420,5420,5420,5420,5420,5373,5373,5373,5373,5373,5373,5373,5373,5373,5420,5373,5373,5373,5373,5373,5373,5373,5373,5373,5373,5373,5373,5373,5373,5373,5373,5373,5326,5326,5326,5326,5326,5281,5281,5236,5236,5149,5106,5106,5064,5023,5023,4943,4943,4904,4904,4904,4865,4865,4865,4827,4827,4827,4790,4790,4753,4716,4716,4681,4681,4611,4543,4543,4477,4477,4382,4291,4291,4203,4203,4119,4065,4065,3986,3886,3886,3791,3791,3656,3656,3551,3452,3452,3322,3322,3136,2942,2860,2860,0,0,0,2491,2491,2404,2305,2305,2255,2255,2223,2215,2215,2215,2207,2207,2207,2223,2223,2239,2255,2255,2272,2288,2288,2297,2323,2323,2332,2332,2332,2332,2314,2314,2272,2272,0,2207,2176,2176,2153,2153,2131,2116,2116,2094,2094,2066,2046,2046,2026,2026,2013,2000,2000,1993,1980,1980,1980,1987,1980,1968,1968,1961,1961,1961,1968,1968,1968,0,0,0,3120,3120,3120,3168,3152,3152,3218,3218,3235,3304,3304,3376,3471,3471,3592,3700,3700,3838,3961,3961,4065,4175,4175,4203,4203,4232
65535,65535,65535,65535,65535,65535,65535,65535,65535,65535,65535,65535,65535,65535,65535,65535,65535,65535,65535,65535,65535,65535,65535,65535,65535,65535,65535,65535,65535,65535,65535,65535,65535,65535,65535,65535,65535,65535,65535,65535,65535,65535,65535,65535,65535,65535,65535,65535,65535,65535,65535,65535,65535,65535,65535,65535,65535,65535,65535,65535,65535,65535,65535,65535,65535,65535,65535,65535,65535,65535,65535,65535,65535,65535,61786,61786,61786,61786,61786,61786,61786,61786,61786,61786,61786,61786,56169,56169,56169,51488,51488,51488,51488,51488,47527,47527,47527,38616,38616,28084,19308,19308,14369,14369,14369,0,0,0,0,6716,6716,6241,6241,6179,5999,5999,5999,0,0,0,0,0,0,0,0,6436,6436,6370,6370,6436,6436,6436,6436,6436,6436,6436,6436,6436,6436,6436,6436,6436,6504,6504,6504,6504,6504,6504,6504,6504,6504,6504,6504,6504,6504,6504,6504,6504,6504,6504,6504,6504,6504,6504,6504,6504,6504,6436,6436,6436,6436,6436,6436,6436,6436,6436,6436,6436,6436,6436,6436,6436,6436,6436,6436,6436,6436,6436,6436,6436,6436,6436,6436,6436,6436,6436,6370,6370,6370,6305,6241,6241,6179,6179,6117,5999,5999,5941,5941,5829,5774,5774,5721,5617,5617,5566,5566,5517,5468,5468,5468,5420,5420,5373,5373,5326,5326,5326,5326,0,0,5192,5192,5149,5106,5106,5064,5064,5023,5023,0,4943,4904,4904,4865,4865,4827,4790,4790,4790,0,0,0,0,0,0,0,0,0,0,0,0,0,5420,5420,5420,5468,5517,5517,5517,5517,5517,5517,5517,5517,5517,5468,5420,5420,5373,5373,5326,5281,5281,5236,5236,5236,5192,5192,5192,5192,5192,5192,5192,5192,5192,5192,5192,5192,0,0,0,0,0,0,0,0,0,0,0,0,0,0,0,0,0,0,0,0,0,0,0,4716,4716,4716,4753,4753,4753,4790,4790,4790,4827,4827,4865,4865,4904,4904,4865,4865,4865,4827,4827,4827,4827,4827,4790,4753,4753,4753,4753,4753,4753,4827,4827,4865,4943,4943,0,0,0,0,0,0,0,0,0,0,0,0,0,0,0,0,0,0,0,0,0,0,0,0,0,0,0,0,0,0,0,0,0,0,0,0,0,0,0,0,0,0,0,0,0,0,0,0,0,0,0,0,0,0,0,5774,5774,5774,5721,5721,5721,5721,5721,5668,5668,5668,5668,5617,5617,5566,5566,5566,5566,5566,5566,5566,5566,5517,5517,5517,5517,5517,5517,5517,5517,5468,5468,5468,5420,5420,5420,5373,5373,5373,5373,5373,5373,5373,5373,5373,5373,5373,5373,5373,5373,5373,5373,5373,5373,5373,5373,5373,5373,5373,5373,5373,5373,5373,5373,5373,5373,5373,5373,5326,5326,5326,5326,5326,5281,5281,5236,5236,5149,5106,5106,5064,5023,5023,4943,4943,4904,4904,4904,4865,4865,4865,4827,4827,4790,4790,4790,4716,4681,4681,4646,4646,4577,4510,4510,4413,4413,4351,4261,4261,4175,4175,4092,4038,4038,3961,3862,3862,3745,3745,3634,3551,3551,3452,3452,3322,3322,3136,2942,2942,2942,0,0,0,0,2423,2414,2314,2314,2247,2247,2207,2199,2199,2191,2191,2191,2191,2199,2199,2207,2223,2223,2239,2288,2288,2297,2323,2323,2332,2332,2332,2332,2314,2314,2272,2272,0,2207,2176,2176,2153,2153,2131,2123,2123,2094,2094,2066,2046,2046,2026,2026,2013,2000,2000,1993,1980,1980,1974,1974,1961,1949,1949,1943,1943,1943,1913,1913,1901,1901,1901,1901,3120,3120,2999,2999,2999,3152,3218,3218,3235,3286,3286,3358,3433,3433,3531,3700,3700,3767,3886,3886,4012,4119,4119,4147,4147,4175
65535,65535,65535,65535,65535,65535,65535,65535,65535,65535,65535,65535,65535,65535,65535,65535,65535,65535,65535,65535,65535,65535,65535,65535,65535,65535,65535,65535,65535,65535,65535,65535,65535,65535,65535,65535,65535,65535,65535,65535,65535,65535,65535,65535,65535,65535,65535,65535,65535,65535,65535,65535,65535,65535,65535,65535,65535,65535,65535,65535,65535,65535,65535,65535,65535,65535,65535,65535,65535,65535,65535,65535,65535,65535,61786,61786,61786,61786,61786,61786,61786,61786,61786,61786,61786,61786,56169,56169,56169,51488,51488,51488,51488,51488,47527,47527,47527,38616,38616,28084,19308,19308,14369,14369,14369,0,10298,8827,8827,8827,0,6644,6504,6504,6305,6305,6305,6305,6305,6305,0,0,0,0,6436,6436,6436,6436,6436,6436,6436,6436,6436,6436,6436,6436,6436,6436,6436,6436,6436,6504,6504,6504,6504,6504,6504,6504,6504,6504,6504,6504,6504,6504,6504,6504,6504,6504,6504,6504,6504,6504,6504,6504,6504,6504,6504,6436,6436,6436,6436,6436,6436,6436,6436,6436,6436,6436,6436,6436,6436,6436,6436,6436,6436,6436,6436,6436,6436,6436,6436,6436,6436,6436,6370,6370,6370,6305,6305,6241,6179,6179,6117,6117,5999,5941,5941,5829,5829,5774,5721,5721,5617,5566,5566,5517,5517,5468,5420,5420,5420,5373,5373,5326,5326,5326,5326,0,0,0,5192,5192,5192,5149,5149,0,0,0,0,0,0,0,0,0,4865,4865,4865,0,0,0,0,0,0,0,0,0,0,0,0,0,0,0,0,5420,5420,5420,5468,5517,5517,5517,5517,5517,5517,5517,5517,5517,5468,5420,5420,5373,5373,5326,5281,5281,5236,5236,5236,5192,5192,5192,5192,5192,5192,5192,5192,5192,5192,5192,5192,0,0,0,0,0,0,0,0,0,0,0,0,0,0,0,0,0,0,0,0,0,0,0,4716,4716,4716,4753,4753,4753,4790,4790,4790,4827,4827,4865,4865,4904,4904,4865,4865,4865,4827,4827,4827,4827,4827,4790,4753,4753,4753,0,0,0,0,0,0,0,0,0,0,0,0,0,0,0,0,0,0,0,0,0,0,0,0,0,0,0,0,0,0,0,0,0,0,0,0,0,0,0,0,0,0,0,0,0,0,1648,1643,1643,1643,1643,1643,1643,1652,1652,1661,1665,1665,1670,1670,1674,1674,1670,1670,1674,1674,1674,1679,1679,5721,5721,5668,5668,5668,5617,5617,5617,5566,5566,5566,5566,5566,5566,5566,5566,5517,5517,5517,5517,5517,5517,5517,5517,5468,5468,5468,5420,5420,5420,5373,5373,5373,5373,5373,5373,5373,5373,5373,5373,5373,5373,5373,5373,5373,5373,5373,5373,5373,5373,5373,5373,5373,5326,5326,5326,5326,5326,5326,5326,5326,5326,5326,5326,5281,5281,5281,5236,5236,5192,5192,5149,5064,5064,5023,4983,4983,4904,4904,4865,4827,4827,4827,4865,4865,4790,4790,4753,4716,4716,4681,4646,4646,4577,4577,4510,4445,4445,4382,4382,4291,4232,4232,4147,4147,4065,3986,3986,3910,3814,3814,3745,3745,3634,3551,3551,3452,3452,3358,3358,3218,3029,3029,3029,0,0,0,0,2423,2423,2314,2314,2247,2247,2207,2199,2199,2191,2191,2191,2191,2199,2199,2207,2223,2223,2239,2255,2255,2280,2288,2288,2305,2305,2314,2314,2305,2272,2272,2272,0,2207,2168,2168,2153,2153,2131,2123,2123,2094,2094,2066,2039,2039,2026,2026,2006,1993,1993,1980,1968,1968,1955,1955,1943,1931,1931,1913,1913,1901,1884,1884,1872,1872,1867,1867,1878,1878,2999,2999,2999,3168,3218,3218,3235,3269,3269,3322,3395,3395,3531,0,3767,3767,3886,3886,4012,4119,4119,4147,4147,4175
65535,65535,65535,65535,65535,65535,65535,65535,65535,65535,65535,65535,65535,65535,65535,65535,65535,65535,65535,65535,65535,65535,65535,65535,65535,65535,65535,65535,65535,65535,65535,65535,65535,65535,65535,65535,65535,65535,65535,65535,65535,65535,65535,65535,65535,65535,65535,65535,65535,65535,65535,65535,65535,65535,65535,65535,65535,65535,65535,65535,65535,65535,65535,65535,65535,65535,65535,65535,65535,65535,65535,65535,65535,65535,65535,65535,61786,61786,61786,61786,61786,61786,61786,61786,61786,61786,61786,56169,56169,56169,51488,51488,51488,51488,51488,47527,47527,41190,41190,30893,22066,22066,16259,16259,16259,0,10298,8827,8827,8827,0,0,6716,6716,6716,0,0,6305,6305,6305,0,0,0,0,6436,6436,6436,6436,6436,6436,6436,6436,6436,6436,6436,6436,6436,6436,6436,6436,6436,6504,6504,6504,6504,6504,6504,6504,6504,6504,6504,6504,6504,6504,6504,6504,6504,6504,6504,6504,6504,6504,6504,6504,6504,6436,6436,6436,6436,6436,6436,6436,6436,6436,6436,6436,6436,6436,6436,6436,6436,6436,6436,6436,6436,6436,6436,6436,6436,6436,6436,6436,6370,6370,6370,6370,6370,6305,6305,6241,6179,6179,6117,6117,5999,5941,5941,5829,5829,5774,5721,5721,5617,5566,5566,5517,5517,5468,5420,5420,5420,5373,5373,5326,5326,5326,0,0,0,0,5192,5149,5149,5149,5149,0,0,0,0,0,0,0,4904,4904,4865,4865,4865,0,0,4865,4865,0,0,0,0,0,0,0,0,0,0,5517,5517,5420,5420,5420,5468,5517,5517,5517,5517,5517,0,0,0,0,0,0,0,0,0,0,0,0,5236,5236,5236,5192,5192,5192,5192,5192,5192,5192,5192,5192,5192,5192,0,0,0,0,0,0,0,0,0,0,0,0,0,0,0,0,0,0,0,0,0,0,0,0,0,0,4753,4753,4753,4790,4790,4790,4790,4827,4827,4865,4865,4904,4904,4865,4865,4865,4827,4827,4827,4827,4827,4790,4753,4753,4681,4681,4681,0,0,0,0,0,0,0,0,0,0,0,0,0,0,0,0,0,0,0,0,0,0,0,0,0,0,0,0,0,0,0,0,0,0,0,0,0,0,0,0,0,0,0,0,1648,1643,1643,1643,1643,1643,1643,1652,1652,1661,1665,1665,1670,1670,1674,1674,1670,1670,1674,1674,1674,1679,1679,0,0,0,5668,5668,5617,5617,5617,5566,5566,5566,5566,5566,5566,5517,5517,5517,5517,5517,5517,5517,5517,5517,5517,5468,5468,5420,5420,5420,5420,5373,5373,5373,5373,5373,5373,5373,5373,5373,5373,5373,5373,5373,5373,5373,5373,5373,5373,5373,5373,5326,5326,5326,5326,5326,5326,5326,5326,5326,5326,5326,5326,5281,5281,5281,5281,5281,5236,5236,5192,5106,5106,5064,5064,5023,4983,4983,4904,4904,4865,4827,4827,4827,4865,4865,4790,4790,4753,4716,4716,4681,4646,4646,4577,4577,4510,4445,4445,4382,4382,4291,4232,4232,4147,4147,4065,3986,3986,3910,3814,3814,3700,3700,3613,3511,3511,3433,3433,3358,3286,3218,3029,3029,2914,2914,2914,0,0,2423,2423,2314,2314,2247,2247,2199,2191,2191,2176,2168,2168,2168,2176,2176,2183,2199,2199,2215,2239,2239,2247,2247,2263,2280,2280,2297,2297,2288,2263,2263,2263,0,2199,2168,2168,2153,2153,2131,2123,2123,2094,2094,2066,2039,2039,2026,2026,2006,1993,1993,1980,1968,1968,1955,1955,1943,1931,1931,1913,1913,1901,1884,1884,1872,1872,1867,1867,1878,1878,3201,3201,3218,3218,3218,3218,3235,3269,3269,3322,3395,3395,3471,0,3767,3767,3791,3791,3910,4012,4012,4065,4065,4092
65535,65535,65535,65535,65535,65535,65535,65535,65535,65535,65535,65535,65535,65535,65535,65535,65535,65535,65535,65535,65535,65535,65535,65535,65535,65535,65535,65535,65535,65535,65535,65535,65535,65535,65535,65535,65535,65535,65535,65535,65535,65535,65535,65535,65535,65535,65535,65535,65535,65535,65535,65535,65535,65535,65535,65535,65535,65535,65535,65535,65535,65535,65535,65535,65535,65535,65535,65535,65535,65535,65535,65535,65535,65535,65535,65535,65535,65535,61786,61786,61786,61786,61786,61786,61786,61786,61786,61786,61786,56169,56169,56169,51488,51488,51488,47527,47527,41190,32519,30893,22066,22066,16259,16259,16259,11033,10298,8827,8827,8130,8130,7269,6716,6716,6716,0,6436,6305,6305,6305,6370,0,6436,6436,6436,6436,6436,6436,6436,6436,6436,6436,6436,6436,6436,6436,6436,6436,6436,6504,6504,6504,6504,6504,6504,6504,6504,6504,6504,6504,6504,6504,6504,6504,6504,6504,6504,6504,6504,6504,6504,6504,6504,6504,6504,6436,6436,6436,6436,6436,6436,6436,6436,6436,6436,6436,6436,6436,6436,6436,6436,6436,6436,6436,6436,6436,6436,6436,6436,6436,6436,6436,6370,6370,6370,6370,6305,6241,6241,6179,6117,6117,5999,5999,5941,5829,5829,5774,5774,5721,5617,5617,5566,5517,5517,5468,5468,5420,5420,5420,5373,5373,5373,5326,5326,5326,0,0,5192,5149,5149,5149,5149,5149,0,0,0,0,0,0,0,4943,4904,4904,4904,0,0,4983,4983,4865,4865,0,0,0,0,0,0,0,0,0,0,5517,5517,5517,5566,5566,5566,5566,5566,5566,5566,5566,0,0,0,0,0,0,0,0,0,0,0,0,5236,5236,5236,5236,5236,5192,5192,5192,5192,5192,5192,5192,5192,5192,0,0,0,0,0,0,0,0,0,0,0,0,0,0,0,0,0,0,0,0,0,0,0,0,0,0,4753,4753,4753,4790,4790,4790,4790,4827,4827,4865,4865,4904,4904,4865,4865,4865,4865,4865,4865,4827,4827,4790,4753,4753,4681,4681,4646,4646,0,0,0,0,0,0,0,0,0,0,0,0,0,0,0,0,0,0,0,0,0,0,0,0,0,0,0,0,0,0,0,0,0,0,0,0,0,0,0,0,1665,1661,1661,1648,1643,1643,1643,1643,1643,1643,1652,1652,1661,1665,1665,1670,1670,1674,1674,1670,1670,1674,1674,1674,1679,1679,0,1697,1697,5668,5668,5617,5617,5617,5566,5566,5566,5566,5566,5566,5517,5517,5517,5517,5517,5517,5517,5517,5517,5517,5468,5468,5420,5420,5420,5420,5373,5373,5373,5373,5373,5373,5373,5373,5373,5373,5373,5373,5373,5373,5373,5373,5373,5373,5373,5373,5326,5326,5326,5326,5326,5326,5326,5326,5326,5326,5326,5326,5281,5281,5281,5281,5281,5236,5236,5192,5106,5106,5064,5064,4983,4943,4943,4904,4904,4827,4827,4827,4827,4827,4827,4753,4753,4681,4681,4681,4611,4577,4577,4543,4543,4477,4413,4413,4321,4321,4232,4175,4175,4092,4092,4012,3935,3935,3862,3767,3767,3678,3678,3571,3491,3491,3433,3433,3376,3286,3286,3089,3089,2914,2914,2914,0,0,2452,2452,2323,2323,2247,2247,2199,2191,2191,2176,2168,2168,2168,2176,2176,2183,2199,2199,2215,2239,2239,2247,2247,2263,2280,2280,2297,2297,2288,2263,2263,2263,0,2199,2168,2168,2153,2153,2131,2123,2123,2094,2094,2066,2039,2039,2019,2019,2006,1987,1987,1974,1968,1955,1943,1943,1931,1919,1919,1901,1901,1884,1872,1872,1861,1861,1844,1833,1833,1817,1817,3201,3218,3218,3218,3218,3235,3252,3252,3286,3358,3358,3414,0,0,3791,3791,3791,3791,3791,3910,3961,3961,4012
65535,65535,65535,65535,65535,65535,65535,65535,65535,65535,65535,65535,65535,65535,65535,65535,65535,65535,65535,65535,65535,65535,65535,65535,65535,65535,65535,65535,65535,65535,65535,65535,65535,65535,65535,65535,65535,65535,65535,65535,65535,65535,65535,65535,65535,65535,65535,65535,65535,65535,65535,65535,65535,65535,65535,65535,65535,65535,65535,65535,65535,65535,65535,65535,65535,65535,65535,65535,65535,65535,65535,65535,65535,65535,65535,65535,65535,65535,61786,61786,61786,61786,61786,61786,61786,61786,61786,61786,61786,56169,56169,56169,51488,51488,51488,47527,47527,41190,30893,30893,23764,23764,17653,17653,14369,11033,11033,9361,9361,8130,8130,7269,7269,0,6790,6790,6436,6370,6370,6370,6370,0,6436,6436,6436,6436,6436,6436,6436,6436,6436,6436,6436,6436,6436,6436,6436,6504,6504,6504,6504,6504,6504,6504,6504,6504,6504,6504,6504,6504,6504,6504,6504,6504,6504,6504,6504,6504,6504,6504,6504,6504,6504,6504,6436,6436,6436,6436,6436,6436,6436,6436,6436,6436,6436,6436,6436,6436,6436,6436,6436,6436,6436,6436,6436,6436,6436,6436,6436,6436,6436,6370,6370,6370,6305,6305,6241,6179,6179,6117,5999,5999,5941,5941,5829,5774,5774,5721,5721,5668,5566,5566,5566,5468,5468,5420,5420,5373,5373,5373,5373,5373,0,0,0,0,0,0,5192,5149,5149,5149,0,0,0,0,0,0,0,0,0,4943,4943,0,0,0,0,4983,4983,4983,4983,0,0,0,0,0,0,0,0,0,5468,5468,5517,5517,5566,5566,5566,5566,5566,5566,5566,5566,0,0,0,0,0,0,0,0,0,0,0,0,5236,5236,5236,5192,5192,5192,5192,5192,5192,5192,5192,5192,0,0,0,0,0,0,0,0,0,0,0,0,0,0,0,0,0,0,0,0,0,0,0,0,0,0,0,0,0,0,0,4790,4790,4790,4790,4827,4827,4904,4904,4904,4943,4904,4865,4865,4865,4865,4865,4865,4865,4827,4790,4790,4716,4716,4646,4646,0,0,0,0,0,0,0,0,0,0,0,0,0,0,0,0,0,0,0,0,0,0,0,0,0,0,0,0,0,0,0,0,0,0,0,0,0,0,1679,1679,1665,1661,1661,1656,1656,1656,1652,1652,1652,1652,1661,1661,1665,1670,1670,1670,1674,1674,1679,1674,1674,1674,1674,1679,1679,1679,0,1697,1697,0,0,0,0,0,0,0,0,0,0,0,5517,5517,5517,0,0,0,0,0,0,0,0,0,0,0,0,0,5373,5373,5373,5373,5373,5373,5373,5326,5326,5373,5373,5373,5373,5373,5373,5326,5326,5326,5326,5326,5326,5326,5326,5281,5281,5281,5281,5281,5281,5281,5281,5281,5281,5281,5236,5236,5236,5192,5192,5149,5064,5064,5023,5023,4983,4904,4904,4865,4865,4790,4790,4790,4790,4790,4790,4716,4716,4611,4577,4577,4543,4510,4510,4477,4477,4413,4351,4351,4321,4321,4232,4175,4175,4092,4092,4012,3935,3935,3862,3767,3767,3678,3678,3571,3491,3491,3452,3452,3395,3304,3304,3152,3152,2970,2970,2970,0,0,2471,2471,2340,2340,2247,2247,2199,2176,2176,2160,2160,2160,2160,2168,2168,2168,2176,2176,2191,2207,2207,2223,2223,2239,2255,2255,2263,2272,2272,2263,2263,2263,0,2199,2168,2168,2153,2153,2131,2123,2123,2094,2094,2066,2039,2039,2019,2019,2000,1980,1980,1961,1949,1949,1931,1931,1919,1907,1907,1889,1889,1872,1855,1855,1844,1844,1828,1828,1833,1817,1817,3218,3218,3218,3218,3218,3235,3252,3252,3286,3358,3358,3414,0,0,0,0,3791,3791,3791,3910,3961,3961,4012
65535,65535,65535,65535,65535,65535,65535,65535,65535,65535,65535,65535,65535,65535,65535,65535,65535,65535,65535,65535,65535,65535,65535,65535,65535,65535,65535,65535,65535,65535,65535,65535,65535,65535,65535,65535,65535,65535,65535,65535,65535,65535,65535,65535,65535,65535,65535,65535,65535,65535,65535,65535,65535,65535,65535,65535,65535,65535,65535,65535,65535,65535,65535,65535,65535,65535,65535,65535,65535,65535,65535,65535,65535,65535,65535,65535,65535,65535,65535,61786,61786,61786,61786,61786,61786,61786,61786,61786,61786,61786,56169,56169,56169,56169,51488,47527,47527,41190,30893,30893,23764,23764,18723,18723,14369,11882,11882,9807,9807,8464,8464,7535,7535,0,6790,6790,6573,6436,6436,6370,6370,6436,6436,6436,6436,6436,6436,6436,6436,6436,6436,6436,6436,6436,6436,6436,6436,6504,6504,6504,6504,6504,6504,6504,6504,6504,6504,6504,6504,6504,6504,6504,6504,6504,6504,6504,6504,6504,6504,6504,6504,6504,6436,6436,6436,6436,6436,6436,6436,6436,6436,6436,6436,6436,6436,6436,6436,6436,6436,6436,6436,6436,6436,6436,6436,6436,6436,6436,6436,6436,6436,6370,6370,6370,6305,6305,6241,6179,6179,6117,5999,5999,5941,5941,5829,5774,5774,5721,5721,5668,5566,5566,5566,5468,5468,5420,5420,5373,5373,5373,5326,5326,0,0,0,0,5192,5192,5149,5149,5149,5149,0,0,0,0,0,0,0,0,0,4943,4943,0,0,5064,5064,4983,4983,4983,4983,0,0,0,0,0,0,5468,5468,5468,5468,5468,5517,5517,5566,0,5566,5566,5566,5566,5566,5566,0,0,0,0,0,5373,5373,5326,5326,5326,0,0,5236,5236,5236,5192,5192,5192,5192,5192,5192,5192,0,0,0,0,0,0,0,0,0,0,0,0,0,0,0,0,0,0,0,0,0,0,0,0,0,0,0,0,0,0,0,0,0,4790,4790,4790,4790,4827,4827,4865,4904,4904,4943,4904,4865,4865,4865,4865,4865,4865,4865,4827,4753,4753,4716,4716,4646,4646,0,0,0,0,0,0,0,0,0,0,0,0,0,0,0,0,0,0,0,0,0,0,0,0,0,0,0,0,0,0,0,0,0,0,0,0,0,0,1679,1679,1670,1665,1665,1665,1665,1665,1661,1661,1665,1665,1670,1670,1674,1674,1674,1674,1679,1679,1684,1684,1674,1674,1674,1679,1679,1679,1693,1693,1697,1712,1712,1721,1740,1740,1765,1801,1801,0,0,1895,1895,5517,5517,0,0,0,0,0,0,0,0,0,0,0,0,0,5373,5373,5373,5373,5373,5373,5373,5326,5326,5373,5373,5373,5373,5373,5373,5326,5326,5326,5326,5326,5326,5281,5281,5281,5236,5236,5236,5236,5236,5236,5236,5236,5236,5281,5236,5236,5236,5192,5192,5149,5064,5064,5023,5023,4983,4904,4904,4865,4865,4790,4790,4790,4790,4790,4790,4716,4716,4611,4577,4577,4543,4510,4510,4477,4477,4413,4351,4351,4291,4291,4203,4147,4147,4065,4065,3986,3910,3910,3814,3722,3722,3656,3656,3551,3471,3471,3414,3414,3376,3304,3304,3152,3152,2970,2970,2860,2860,0,2471,2471,2340,2340,2255,2255,2199,2176,2176,2160,2153,2153,2153,2153,2153,2153,2160,2160,2176,2183,2183,2199,2199,2215,2223,2223,2239,2247,2247,2272,0,0,0,2199,2168,2168,2153,2153,2131,2123,2123,2094,2094,2066,2039,2039,2019,2019,2000,1980,1980,1961,1949,1949,1931,1931,1919,1907,1907,1889,1889,1872,1855,1855,1844,1844,1828,1823,1823,1807,1796,1796,1796,3218,3218,3218,3218,3235,3235,3269,3322,3322,3376,3433,3433,3511,3511,3592,3678,3678,3791,3862,3862,3910
65535,65535,65535,65535,65535,65535,65535,65535,65535,65535,65535,65535,65535,65535,65535,65535,65535,65535,65535,65535,65535,65535,65535,65535,65535,65535,65535,65535,65535,65535,65535,65535,65535,65535,65535,65535,65535,65535,65535,65535,65535,65535,65535,65535,65535,65535,65535,65535,65535,65535,65535,65535,65535,65535,65535,65535,65535,65535,65535,65535,65535,65535,65535,65535,65535,65535,65535,65535,65535,65535,65535,65535,65535,65535,65535,65535,65535,65535,65535,65535,65535,61786,61786,61786,61786,61786,61786,61786,61786,61786,56169,56169,56169,56169,51488,47527,47527,41190,30893,30893,23764,23764,18723,18723,14369,11882,11882,9807,9807,8464,8464,7535,7269,7269,6790,6790,6573,6436,6436,6370,6370,6436,6436,6436,6436,6436,6436,6436,6436,6436,6436,6436,6436,6436,6436,6436,6504,6504,6504,6504,6504,6504,6504,6504,6504,6504,6504,6504,6504,6504,6504,6504,6504,6504,6504,6504,6504,6504,6504,6504,6504,6504,6436,6436,6436,6436,6436,6436,6436,6436,6436,6436,6436,6436,6436,6436,6436,6436,6436,6436,6436,6436,6436,6436,6436,6436,6436,6436,6436,6370,6370,6370,6305,6305,6241,6241,6179,6117,6117,5999,5941,5941,5829,5829,5774,5668,5668,5617,5617,5566,5517,5517,5468,5420,5420,5373,5373,5373,5373,5373,5326,5326,0,0,0,5149,5149,5149,5149,5149,0,0,0,0,0,0,0,0,0,0,0,0,0,0,0,5064,5064,5064,5106,5106,5106,0,0,0,0,0,0,5468,5468,5468,5468,5517,5517,5517,5566,0,5566,5566,5566,5566,5566,5566,0,0,0,0,0,5373,5373,5326,5326,5326,5236,5236,5192,5192,5192,5192,5192,5192,5192,5192,5192,5192,0,0,0,0,0,0,0,0,0,0,0,0,0,0,0,0,0,0,0,0,0,0,0,0,0,0,0,0,0,0,0,0,0,4827,4827,4790,4790,4827,4827,4865,4904,4904,4943,4904,4904,4904,4865,4865,4904,4865,4865,4827,4753,4753,4716,4716,4716,0,0,0,0,0,0,0,0,0,0,0,0,0,0,0,0,0,0,0,0,0,0,0,0,0,0,0,0,0,0,0,0,0,0,0,0,1665,1661,1661,1661,1670,1670,1665,1665,1665,1665,1665,1661,1661,1665,1665,1670,1670,1674,1674,1674,1674,1679,1679,1684,1684,1684,1684,1684,1684,1688,1688,1693,1693,1702,1712,1712,1721,1740,1740,1765,1801,1801,1833,1861,1861,1884,1901,1901,1901,1901,1889,1889,1889,0,0,0,0,0,0,0,0,0,0,0,0,0,0,0,0,0,0,0,0,0,0,0,0,0,0,0,0,0,5281,5281,5281,5236,5236,5236,5236,5236,5236,5236,5236,5236,5236,5236,5236,5192,5149,5149,5106,5023,5023,4983,4983,4904,4865,4865,4790,4790,4753,4716,4716,4716,4753,4753,4681,4681,4577,4543,4543,4510,4445,4445,4445,4445,4382,4291,4291,4232,4232,4147,4092,4092,4012,4012,3935,3862,3862,3767,3700,3700,3613,3613,3531,3452,3452,3414,3414,3358,3304,3304,3185,3185,3029,3029,2860,2860,0,0,0,2367,2367,2263,2263,2199,2176,2176,2160,2153,2153,2153,2153,2153,2153,2160,2160,2176,2183,2183,2199,2199,2215,2223,2223,2239,2247,2247,0,0,0,0,2199,2168,2168,2153,2153,2131,2123,2123,2094,2094,2066,2039,2039,2019,2019,2000,1974,1974,1955,1937,1937,1919,1919,1907,1889,1889,1872,1872,1855,1844,1844,1828,1828,1823,1812,1812,1796,1791,1791,1791,3218,3218,3218,3218,3235,3235,3252,3286,3286,3322,3376,3376,3433,3433,3511,3592,3592,3678,3745,3745,3814
65535,65535,65535,65535,65535,65535,65535,65535,65535,65535,65535,65535,65535,65535,65535,65535,65535,65535,65535,65535,65535,65535,65535,65535,65535,65535,65535,65535,65535,65535,65535,65535,65535,65535,65535,65535,65535,65535,65535,65535,65535,65535,65535,65535,65535,65535,65535,65535,65535,65535,65535,65535,65535,65535,65535,65535,65535,65535,65535,65535,65535,65535,65535,65535,65535,65535,65535,65535,65535,65535,65535,65535,65535,65535,65535,65535,65535,65535,65535,65535,65535,61786,61786,61786,61786,61786,61786,61786,61786,61786,56169,56169,56169,56169,51488,47527,47527,41190,30893,30893,22884,22884,17653,17653,14042,11658,11658,9965,9965,8702,8702,7628,7269,7269,6865,6865,6716,6573,6573,6436,6436,6436,6436,6436,6436,6436,6436,6436,6436,6436,6436,6436,6436,6436,6504,6504,6504,6504,6504,6504,6504,6504,6504,6504,6504,6504,6504,6504,6504,6504,6504,6504,6504,6504,6504,6504,6504,6504,6504,6504,6436,6436,6436,6436,6436,6436,6436,6436,6436,6436,6436,6436,6436,6436,6436,6436,6436,6436,6436,6436,6436,6436,6436,6436,6436,6436,6436,6436,6370,6370,6370,6305,6241,6241,6179,6179,6117,5999,5999,5941,5829,5829,5774,5774,5668,5617,5617,5617,5617,5566,5517,5517,5468,5420,5420,5373,5373,5373,0,0,0,0,0,0,0,5149,5149,5149,5149,0,0,0,0,0,0,0,0,0,0,0,0,0,0,0,0,5064,5064,5064,5106,5106,5106,0,0,0,0,0,5566,5468,5468,5468,5468,5517,5517,5517,5566,0,5566,5566,5566,5566,5566,5566,0,0,0,0,0,5373,5373,5326,5326,5326,5236,5236,5149,5149,5149,5149,5149,5149,5149,5149,5149,0,0,0,0,0,0,0,0,0,0,0,0,0,0,0,0,0,0,0,0,0,0,0,0,0,0,0,0,0,0,0,0,0,0,4827,4827,4790,4790,4827,4827,4865,4904,4904,4943,4904,4904,4904,4865,4865,4904,4865,4865,4827,4753,4753,4716,4716,4611,4611,0,0,0,0,0,0,0,0,0,0,0,0,0,0,0,0,0,0,0,0,0,0,0,0,0,0,0,0,0,0,0,0,0,0,0,1665,1648,1648,1648,1656,1656,1656,1661,1661,1661,1665,1665,1665,1665,1665,1674,1674,1674,1679,1679,1679,1684,1684,1684,1684,1684,1684,1684,1688,1693,1693,1697,1697,1707,1716,1716,1731,1740,1740,1770,1801,1801,1833,1861,1861,1884,1901,1901,1901,1901,1889,1889,1855,1855,1823,1823,0,0,0,0,0,0,0,0,0,0,0,0,0,0,0,0,0,0,0,0,0,0,0,0,0,0,5281,5281,5281,5236,5236,5236,5236,5236,5192,5192,5192,5192,5236,5236,5236,5149,5106,5106,5064,4983,4983,4943,4943,4865,4790,4790,4753,4753,4681,4681,4681,4681,4716,4716,4646,4646,4577,4543,4543,4510,4445,4445,4445,4445,4382,4291,4291,4232,4232,4147,4092,4092,4012,4012,3935,3862,3862,3767,3700,3700,3613,3613,3531,3452,3452,3414,3414,3358,3304,3304,3185,3185,3029,3029,2860,2860,0,0,0,2367,2367,2263,2263,2199,2168,2168,2145,2145,2145,2138,2138,2138,2138,2145,2145,2153,2160,2160,2183,2183,2191,2199,2199,2215,2223,2223,0,0,2215,2215,2199,2168,2168,2153,2153,2138,2123,2123,2102,2102,2066,2039,2039,2019,2019,2000,1974,1974,1949,1931,1931,1919,1919,1907,1889,1889,1872,1872,1855,1844,1844,1828,1828,1823,1812,1812,1796,1791,1791,1791,3235,3235,3235,3235,3235,3235,3252,3286,3286,3322,3376,3376,3433,3433,3511,3592,3592,3678,3745,3745,3814
65535,65535,65535,65535,65535,65535,65535,65535,65535,65535,65535,65535,65535,65535,65535,65535,65535,65535,65535,65535,65535,65535,65535,65535,65535,65535,65535,65535,65535,65535,65535,65535,65535,65535,65535,65535,65535,65535,65535,65535,65535,65535,65535,65535,65535,65535,65535,65535,65535,65535,65535,65535,65535,65535,65535,65535,65535,65535,65535,65535,65535,65535,65535,65535,65535,65535,65535,65535,65535,65535,65535,65535,65535,65535,65535,65535,65535,65535,65535,65535,65535,65535,61786,61786,61786,61786,61786,61786,61786,61786,61786,61786,56169,56169,56169,47527,47527,41190,30893,30893,22884,22884,17653,17653,14042,11658,11658,9965,9965,8702,8702,7628,7269,7269,6865,6790,6716,6573,6573,6436,6436,6436,6436,6436,6436,6436,6436,6436,6436,6436,6436,6436,6436,6436,6504,6504,6504,6504,6504,6504,6504,6504,6504,6504,6504,6504,6504,6504,6504,6504,6504,6504,6504,6504,6504,6504,6504,6504,6504,6436,6436,6436,6436,6436,6436,6436,6436,6436,6436,6436,6436,6436,6436,6436,6436,6436,6436,6436,6436,6436,6436,6436,6436,6436,6436,6436,6436,6436,6370,6370,6370,6305,6241,6241,6179,6179,6117,5999,5999,5941,5829,5829,5774,5774,5668,5617,5617,5566,5566,5517,5468,5468,5420,5373,5373,5326,5326,5281,5281,0,0,5192,5192,5149,5149,5149,5149,5149,5149,0,0,0,0,0,0,0,0,0,0,0,0,0,5281,5281,5281,5326,5373,5326,5326,5326,5468,5468,5468,5468,5468,5468,5517,5566,5566,5566,5566,5566,5566,5517,5517,5566,5566,5566,5566,5566,5566,5566,0,0,0,0,0,0,0,0,0,0,0,0,5149,5149,5149,5149,5149,5149,5149,5149,5149,0,0,0,0,0,0,0,0,0,0,0,0,0,0,0,0,0,0,0,0,0,0,0,0,0,0,0,0,0,0,0,0,4790,4790,4790,4790,4790,4790,4790,4790,4865,4865,4865,4904,4904,4865,4865,4865,4827,4827,4827,4865,4827,4753,4753,4716,4716,4611,4577,4577,4577,0,0,0,0,0,0,0,0,0,0,0,0,0,0,0,0,0,0,0,0,0,0,0,0,0,0,0,0,0,0,0,0,0,0,1648,1648,1648,1656,1656,1656,1661,1661,1661,1665,1665,1665,1665,1665,1670,1670,1674,1674,1674,1679,1684,1684,1684,1684,1684,1684,1684,1688,1693,1693,1697,1697,1707,1716,1716,1731,1740,1740,1770,1796,1796,1828,1850,1850,1878,1901,1889,1889,1889,1872,1872,1839,1839,1807,1770,1770,1740,1740,1693,1670,1670,1656,1656,1656,0,0,0,0,0,0,0,0,0,0,0,0,0,0,0,0,0,0,0,0,0,0,0,0,0,5192,5192,5192,5192,0,0,0,5149,5106,5106,5064,4983,4983,4943,4943,4865,4790,4790,4753,4753,4681,4681,4681,4681,4716,4716,4646,4646,4543,4510,4510,4477,4445,4445,4382,4382,4321,4261,4261,4203,4203,4147,4065,4065,3986,3986,3910,3838,3838,3745,3678,3678,3613,3613,3511,3452,3452,3395,3395,3340,3286,3286,3201,3201,3074,2928,2887,2887,0,2585,2585,2585,0,2288,2288,2199,2160,2160,2138,2131,2131,2123,2123,2123,2123,2131,2131,2138,2160,2160,2183,2183,2191,2199,2199,2215,2223,2223,0,0,2215,2215,2199,2168,2168,2160,2160,2138,2123,2123,2102,2102,2066,2046,2046,2019,2019,2000,1974,1974,1949,1931,1931,1913,1913,1895,1878,1878,1861,1861,1844,1828,1828,1823,1823,1807,1801,1801,1791,1781,1781,1775,1775,1775,3235,3235,3235,3235,3252,3286,3286,3304,3340,3340,3395,3395,3452,3511,3511,3571,3656,3656,3722
65535,65535,65535,65535,65535,65535,65535,65535,65535,65535,65535,65535,65535,65535,65535,65535,65535,65535,65535,65535,65535,65535,65535,65535,65535,65535,65535,65535,65535,65535,65535,65535,65535,65535,65535,65535,65535,65535,65535,65535,65535,65535,65535,65535,65535,65535,65535,65535,65535,65535,65535,65535,65535,65535,65535,65535,65535,65535,65535,65535,65535,65535,65535,65535,65535,65535,65535,65535,65535,65535,65535,65535,65535,65535,65535,65535,65535,65535,65535,65535,65535,65535,61786,61786,61786,61786,61786,61786,61786,61786,61786,61786,56169,56169,56169,47527,47527,41190,30893,30893,22884,22884,17163,17163,13432,11234,11234,9654,9654,8464,7723,7723,7355,7355,6942,6790,6790,6644,6644,6504,6504,6504,6504,6504,6436,6436,6436,6436,6436,6436,6436,6436,6436,6504,6504,6504,6504,6504,6504,6504,6504,6504,6504,6504,6504,6504,6504,6504,6504,6504,6504,6504,6504,6504,6504,6504,6504,6504,6504,6436,6436,6436,6436,6436,6436,6436,6436,6436,6436,6436,6436,6436,6436,6436,6436,6436,6436,6436,6436,6436,6436,6436,6436,6436,6436,6436,6370,6370,6370,6305,6305,6241,6179,6179,6117,6117,5999,5941,5941,5829,5774,5774,5668,5668,5617,5566,5566,5517,5517,5468,5420,5420,5373,5373,5373,5326,5326,5281,5281,0,0,5106,5106,5106,5149,5149,0,0,0,0,0,0,0,0,0,0,0,0,0,0,0,0,5281,5281,5281,5326,5373,5373,5420,5468,5468,5468,5468,5468,5468,5468,5517,5566,5566,5566,5566,5566,5566,5517,5517,5566,5566,5566,5566,5517,5517,5517,5468,5468,5420,5420,5420,5281,5281,5281,5281,5192,5192,5192,5149,5149,5149,5149,5149,5106,5106,5106,5106,5106,0,0,0,0,0,0,0,0,0,0,0,0,0,0,0,0,0,0,0,0,0,0,0,0,0,0,0,0,0,0,4753,4753,4790,4753,4753,4753,4753,4790,4790,4865,4865,4865,4904,4904,4865,4865,4865,4827,4827,4827,4865,4827,4753,4753,4716,4716,4611,4577,4577,4577,0,0,0,0,0,0,0,0,0,0,0,0,0,0,0,0,0,0,0,0,0,0,0,0,0,0,0,0,0,0,0,0,0,0,1648,1648,1648,1656,1648,1648,1648,1648,1652,1656,1656,1656,1661,1661,1661,1661,1665,1670,1670,1674,1684,1684,1684,1684,1684,1693,1693,1693,1702,1702,1707,1716,1716,1726,1726,1736,1745,1745,1760,1796,1796,1828,1850,1850,1878,0,1889,1889,1889,1872,1872,1839,1839,1807,1770,1770,1740,1740,1693,1670,1670,1656,1656,1656,0,0,0,0,0,0,0,0,0,0,0,0,0,0,0,0,0,0,0,0,0,0,0,0,0,5192,5192,5192,5192,0,0,0,5149,5106,5106,5064,4983,4983,4943,4943,4865,4790,4790,4753,4753,4681,4681,4681,4681,4716,4716,4646,4646,4543,4477,4477,4445,4413,4413,4351,4351,4291,4232,4232,4175,4175,4092,4038,4038,3961,3961,3886,3814,3814,3722,3656,3656,3613,3613,3511,3452,3452,3395,3395,3340,3286,3286,3201,3201,3105,2928,2928,2928,0,2585,2585,2585,0,2305,2305,2207,2160,2160,2138,2131,2131,2123,2123,2123,2123,2131,2131,2138,2145,2145,2153,2153,2168,2176,2176,2191,2199,2199,2207,2207,2207,2207,2191,2168,2168,2160,2160,2138,2123,2123,2102,2102,2066,2046,2046,2019,2000,2000,1974,1974,1943,1925,1925,1907,1907,1889,1872,1872,1855,1855,1833,1823,1823,1812,1812,1801,1791,1791,1781,1775,1775,1765,1765,1765,3269,3269,3269,3269,3269,3269,3269,3286,3340,3340,3395,3395,3452,3511,3511,3571,3656,3656,3722
65535,65535,65535,65535,65535,65535,65535,65535,65535,65535,65535,65535,65535,65535,65535,65535,65535,65535,65535,65535,65535,65535,65535,65535,65535,65535,65535,65535,65535,65535,65535,65535,65535,65535,65535,65535,65535,65535,65535,65535,65535,65535,65535,65535,65535,65535,65535,65535,65535,65535,65535,65535,65535,65535,65535,65535,65535,65535,65535,65535,65535,65535,65535,65535,65535,65535,65535,65535,65535,65535,65535,65535,65535,65535,65535,65535,65535,65535,65535,65535,65535,61786,61786,61786,61786,61786,61786,61786,61786,61786,56169,56169,56169,56169,56169,47527,47527,41190,30893,30893,23764,23764,17163,17163,13432,11234,11234,9654,9654,8464,7723,7723,7355,7355,7021,6865,6865,6716,6716,6573,6504,6504,6504,6504,6504,6504,6504,6504,6504,6504,6504,6504,6504,6504,6504,6504,6504,6504,6504,6504,6504,6504,6504,6504,6504,6504,6504,6504,6504,6504,6504,6504,6504,6504,6504,6504,6504,6436,6436,6436,6436,6436,6436,6436,6436,6436,6436,6436,6436,6436,6436,6436,6436,6436,6436,6436,6436,6436,6436,6436,6436,6436,6436,6436,6370,6370,6370,6305,6305,6241,6241,6179,6117,6117,5999,5999,5999,5941,5941,5829,5774,5774,5668,5668,5617,5566,5566,5517,5517,5468,5420,5420,5373,5373,0,0,0,0,0,0,0,5106,5106,5106,0,0,0,0,0,0,0,0,0,0,0,0,0,0,0,0,0,0,5281,5281,5281,5326,5373,5373,5420,5468,5468,5468,5468,5468,5468,5468,5517,5566,5566,5566,5566,5566,5566,5517,5517,5566,5517,5517,5517,5517,5517,5517,5468,5468,5420,5420,5420,5281,5281,5281,5281,5192,5192,5192,5149,5149,5149,5106,5106,5106,5106,5106,5106,5106,0,0,0,0,0,0,0,0,0,0,0,0,0,0,0,0,0,0,0,0,0,0,0,0,0,0,0,0,0,0,4753,4753,4790,4753,4753,4753,4753,4790,4790,4827,4827,4827,4865,4865,4865,4865,4827,4827,4827,4827,4827,4790,4753,4753,4716,4716,4611,4577,4577,4577,0,0,0,0,0,0,0,0,0,0,0,0,0,0,0,0,0,0,0,0,0,0,0,0,0,0,0,0,0,0,0,0,0,0,0,0,0,0,1648,1648,1648,1648,1652,1656,1656,1656,1661,1661,1661,1661,1665,1670,1670,1674,1684,1684,1684,1684,1684,1693,1693,1697,1702,1702,1712,1716,1716,1726,1726,1736,1745,1745,1760,1786,1786,1812,1850,1844,1844,1855,1855,1855,1850,1839,1839,1839,1839,1807,1770,1770,1740,1740,1679,1652,1652,1643,1643,1639,1635,1635,1630,1630,0,0,0,0,0,0,0,0,0,0,0,0,0,0,0,0,0,0,0,0,0,0,0,0,0,0,0,1430,1430,1430,1434,1434,0,0,0,0,0,0,0,0,0,0,0,0,0,0,0,0,0,0,4477,4477,4445,4413,4413,4351,4351,4291,4232,4232,4175,4175,4092,4038,4038,3961,3961,3886,3814,3814,3722,3656,3656,3592,3592,3511,3452,3452,3395,3395,3340,3286,3286,3201,3201,3105,2928,2928,2808,2808,2585,2585,2585,0,2305,2223,2207,2153,2153,2138,2123,2123,2109,2109,2109,2116,2116,2116,2123,2123,2123,2138,2138,2145,2153,2153,2160,2176,2176,2191,2191,2191,2191,2191,2168,2168,2160,2160,2138,2123,2123,2102,2102,2073,2046,2046,2019,2000,2000,1974,1974,1943,1925,1925,1907,1907,1889,1872,1872,1855,1855,1833,1823,1823,1812,1812,1801,1791,1791,1781,1775,1775,1765,1765,1765,0,3286,3286,3269,3269,3269,3269,3286,3322,3322,3358,3358,3395,3452,3452,3491,3531,3531,3613
