1781,1796,1796,1807,1817,1817,1833,1839,1839,1850,1867,1867,1878,1889,1889,1901,1901,1901,1901,1901,1907,1907,1907,1907,1907,1907,1907,1901,1901,1901,1901,1901,1901,1895,1895,1895,1889,1889,1884,1884,1884,1889,1889,1889,1895,1895,1895,1901,1901,1901,1901,1901,1901,1901,1901,1901,1895,1895,1895,1895,1889,1889,1889,1889,1884,1867,1867,1867,1867,1867,1839,1839,1833,1817,1817,1796,1796,1786,1775,1775,1770,1770,1755,1736,1736,1721,1716,1702,1702,1702,1665,1665,1648,1635,1635,1630,1630,1630,1630,1635,1635,1639,1648,1648,1643,1643,1643,1643,1639,1639,1639,1626,1613,1613,1597,1597,1580,1572,1572,1560,1560,1552,1549,1549,1549,1552,1560,1560,1572,1572,1576,1576,1572,1568,1568,1556,1556,1541,1514,1514,1500,1500,1482,1478,1478,1475,1475,1485,1485,1503,1503,1522,1533,1533,1537,1545,1545,1556,1568,1568,1576,1576,1556,1556,1556,1556,1556,1556,1560,1560,1560,1572,1545,1537,1537,1533,1533,1526,1522,1522,1518,1518,1518,1518,1522,1522,1518,1518,1518,1518,1518,1518,1522,1522,1526,1533,1533,1537,1549,1549,1560,1568,1568,1572,1572,1588,1597,1576,1576,1576,1576,1609,1584,1584,1597,1597,1609,1661,1639,1639,1652,1652,1693,1707,1707,0,1679,1679,1679,1679,0,0,1656,1656,1648,1648,0,1630,1630,1626,1613,1613,1605,1605,1597,1588,1588,1580,1580,0,1564,1564,1564,1549,1549,1537,1537,1526,1522,1522,1514,1500,1500,1500,1500,1500,1500,1500,1500,1503,1511,1511,1514,1514,1522,1526,1526,1529,1537,1537,1545,1549,1549,1552,1549,1545,1545,1541,1537,1537,1537,1537,1533,1533,1533,1533,1537,1541,1541,1545,1545,1552,1560,1560,1568,1572,1572,1580,1584,1584,1592,1592,1609,0,1601,1597,1597,1597,1597,1597,1592,1592,1584,1580,1580,1576,1576,1568,1568,1568,1568,1568,1564,1564,1564,1564,1564,1568,1564,1564,1564,1564,1568,1568,1572,1576,1572,1572,1560,1541,1541,1541,0,1496,1478,1478,1454,1454,1427,1414,1414,1379,1379,1376,1376,1379,1379,1382,1392,1392,1401,1401,1417,1430,1430,1440,1447,1447,1457,1457,1454,1454,1454,1450,1450,1444,1444,1471,1471,1471,1440,1440,1444,1444,1454,1461,1461,1471,1478,1478,1492,1492,1500,1514,1514,1560,0,0,0,0,0,0,1844,1844,1844,1878,1919,1919,1949,1980,1980,2000,2013,2013,2013,2013,2006,2006,2000,1993,1993,1987,1987,1968,1961,1961,1949,1937,1937,1931,1931,1919,1901,1901,1884,1884,1878,1867,1867,1855,1839,1839,1823,1823,1807,1796,1796,1781,1781,1765,1755,1755,1740,1740,1726,1716,1716,1712,1702,1702,1688,1688,1679,1661,1661,1643,1643,1626,1609,1609,1588,1588,1576,1564,1564,1560,1560,1552,1549,1549,1549,1549,1549,1549,1552,1552,1560,1572,1572,1588,1605,1605,1639,1688,1688,1731,1770,1770,1796,1812,1812,1817,1823,1812,1807,1807,1796,1796,1786,1775,1775,1760,1760,1750,1740,1740,1736,1736,1726,1721,1721,1712,1712,1712,1707,1707,1707,1697,1697,1684,1670,1670,1670,0,1643,1626,1626,1617,1617,1613,1613,1622,1622,1622,1622,1622,1622,1617,1617,1622,1622,1626,1626,1626,0,0,0,0,0,0,0,0,0,0,0,0,0,0,0,0,0,0,0,0,0,0,0,0,0,0,0,0,0,0,0,0,0,0,0,0,0,0,0,0,0,0,0,0,0,0,0,0,0,0,0,0,0,0,0,0,0,0,0,0,0,0,0,0,0,0,0,0,0,0,0,0,0,0,0,0
1786,1796,1807,1807,1823,1823,1833,1839,1839,1850,1867,1867,1884,1889,1889,1901,1901,1901,1907,1907,1907,1913,1913,1913,1913,1913,1913,1901,1901,1901,1901,1901,1901,1895,1895,1895,1889,1889,1884,1884,1884,1889,1889,1889,1895,1895,1895,1901,1901,1901,1901,1901,1901,1901,1901,1901,1895,1895,1895,1895,1889,1889,1889,1889,1889,1878,1878,1878,1867,1867,1839,1839,1833,1817,1817,1812,1812,1801,1791,1791,1786,1786,1770,1750,1750,1736,1716,1716,1702,1702,1688,1674,1674,1665,1665,1656,1656,1656,1656,1661,1665,1665,1670,1670,1670,1670,1665,1661,1661,1661,1661,1648,1630,1630,1609,1609,1588,1584,1584,1568,1568,1556,1556,0,0,1560,1560,1560,1572,1572,1576,1576,1572,1568,1568,1556,1556,1541,1514,1514,1500,1500,1482,1478,1478,1475,1475,1478,1478,1503,1503,1522,1533,1533,1537,1545,1545,1556,1568,1568,1576,1576,1572,1572,1568,1568,1572,1572,1576,1576,1572,1572,1564,1556,1556,1552,1552,1549,1545,1545,1545,1545,1545,1545,1549,1545,1545,1545,1545,1541,1541,1541,1541,1541,1545,1549,1549,1552,1564,1564,1572,1580,1580,1584,1584,1588,1597,1597,1597,1601,1601,1609,1613,1613,1626,1626,1643,1661,1661,1679,1684,1684,1693,1707,1707,0,1679,1679,1679,1679,1697,1697,1656,1656,1648,1648,0,1630,1630,1626,1613,1613,1605,1605,1597,1588,1588,1580,1580,1588,1564,1564,1564,1549,1549,1537,1537,1526,1522,1522,1514,1511,1511,1511,1511,1511,1511,1511,1511,1511,1518,1518,1522,1522,1526,1529,1529,1533,1541,1541,1549,1552,1552,1556,1556,1552,1552,1549,1549,1549,1549,1549,1545,1545,1549,1549,1549,0,1556,1556,1556,1560,1568,1568,1576,1584,1584,1588,0,1601,1601,1601,1609,0,0,0,0,0,0,0,1613,1613,1613,1601,1601,1576,1576,1568,1568,1568,1568,1568,1564,1564,1564,1564,1564,1568,1564,1564,1564,1564,1568,1568,1572,1576,1572,1572,1560,1541,1541,1541,0,1496,1478,1478,1454,1454,1427,1414,1414,1388,1388,1388,1388,1395,1395,1401,1411,1411,1427,1444,1444,1454,1464,1464,1475,1475,1482,1482,1478,1478,1482,1478,1478,1471,1471,1471,1471,1471,1471,1471,1471,1471,1482,1485,1485,1496,1507,1507,1518,1529,1529,1545,1560,1560,0,0,0,0,0,0,1844,1844,1844,1878,1919,1919,1949,1980,1980,2000,2013,2013,2013,2013,2006,2006,2000,1993,1993,1980,1980,1968,1955,1955,1943,1931,1931,1919,1919,1907,1895,1895,1884,1884,1872,1861,1861,1850,1839,1839,1823,1823,1807,1796,1796,1781,1781,1765,1750,1750,1740,1740,1726,1712,1712,1712,1702,1702,1688,1688,1679,1661,1661,1643,1643,1626,1609,1609,1592,1592,1576,1568,1568,1560,1560,1556,1552,1552,1549,1549,1552,1552,1552,1552,1560,1572,1572,1588,1605,1605,1639,1688,1688,1731,1770,1770,1796,1812,1812,1817,1823,1812,1807,1807,1796,1796,1786,1775,1775,1760,1760,1750,1740,1740,1731,1726,1726,1716,1716,1712,1712,1712,1707,1707,1702,1697,1697,1684,1670,1670,1670,0,1643,1626,1626,1617,1617,1613,1613,1622,1622,1622,1622,1622,1622,1617,1617,1622,1622,1626,1630,1630,0,0,0,0,0,0,0,0,0,0,0,0,0,0,0,0,0,0,0,0,0,0,0,0,0,0,0,0,0,0,0,0,0,0,0,0,0,0,0,0,0,0,0,0,0,0,0,0,0,0,0,0,0,0,0,0,0,0,0,0,0,0,0,0,0,0,0,0,0,0,0,0,0,0,0,0
1786,1796,1807,1807,1823,1823,1833,1839,1839,1850,1867,1867,1884,1889,1889,1901,1901,1901,1907,1907,1907,1913,1913,1913,1913,1913,1913,1907,1907,1907,1907,1907,1901,1901,1901,1895,1895,1895,1889,1889,1889,1895,1895,1895,1901,1907,1907,1907,1907,1907,1913,1913,1907,1907,1907,1907,1901,1901,1901,1895,1895,1895,1889,1889,1889,1884,1884,1884,1878,1878,1861,1861,1855,1844,1844,1833,1833,1823,1812,1812,1812,1801,1801,1786,1786,1770,1760,1760,1702,1702,1688,1674,1674,1665,1665,1656,1656,1656,1656,1661,1665,1665,1670,1670,1670,1670,1665,1661,1661,1661,1661,1648,1630,1630,1609,1609,1588,1584,1584,1568,1568,1556,1556,0,0,0,0,1588,1588,1597,1597,1605,1597,1592,1592,1580,1580,1564,1537,1537,1518,1518,1492,1485,1485,1478,1478,1478,1478,1533,1533,1533,0,0,1552,1552,1552,1564,1576,1576,1584,1584,1580,1580,1568,1568,1572,1572,1580,1580,1580,1580,1576,1572,1572,1568,1564,1564,1564,1564,1564,1564,1568,1568,1564,1564,1564,1564,1545,1541,1541,1541,1541,1541,1545,1549,1549,1552,1564,1564,1572,1580,1580,1584,1584,1588,1597,1597,1597,1601,1601,1609,1613,1613,1626,1626,1643,1661,1661,1679,1684,1684,1693,1707,1707,1721,1707,1707,1707,1707,1697,1697,1684,1684,1674,1674,1674,1648,1648,1648,1635,1635,1622,1609,1609,1605,1605,1597,1588,1588,1584,1584,1584,1568,1568,1556,1545,1545,1541,1541,1533,1529,1529,1529,1529,1526,1522,1522,1522,1522,1526,1526,1529,1529,1529,1533,1533,1537,1541,1541,1549,1556,1556,1560,1560,1560,1560,1549,1549,1549,1549,1549,1545,1545,1549,1549,1549,1568,1556,1556,1556,1560,1568,1568,1576,1584,1584,1588,1601,1601,1601,1601,1609,1626,1626,1635,1635,1635,1635,1639,1613,1613,1613,1601,1601,1592,1592,1588,1584,1584,1580,1580,1580,1580,1580,1580,1584,1588,1588,1588,1597,1597,1605,1605,1635,1648,1648,1648,1648,1639,1622,1622,1622,0,0,0,1511,1482,1482,1454,1454,1401,1401,1398,1398,1407,1407,1420,1430,1430,1444,1457,1457,1468,1478,1478,1492,1492,1492,1492,1492,1492,1496,1492,1492,1489,1471,1471,1471,1471,1471,1471,1471,1471,1482,1485,1485,1496,1507,1507,1518,1529,1529,1545,1560,1560,1617,0,1712,1712,0,1817,1817,1844,1844,1878,1919,1919,1949,1980,1980,2000,2013,2013,2013,2013,2006,2006,2000,1987,1987,1974,1974,1961,1949,1949,1937,1925,1925,1913,1913,1901,1889,1889,1872,1872,1867,1855,1855,1844,1833,1833,1823,1823,1807,1796,1796,1781,1781,1765,1750,1750,1740,1740,1726,1712,1712,1712,1702,1702,1688,1688,1679,1661,1661,1643,1643,1630,1609,1609,1597,1597,1580,1572,1572,1564,1564,1556,1552,1552,1549,1549,1552,1552,1552,1552,1560,1572,1572,1588,1605,1605,1635,1684,1684,1726,1765,1765,1791,1807,1807,1812,1817,1807,1801,1801,1791,1791,1781,1770,1770,1755,1755,1745,1740,1740,1731,1721,1721,1716,1716,1716,1712,1712,1707,1707,1702,1697,1697,1684,1670,1670,1670,0,1643,1630,1630,1622,1622,1617,1617,1626,1626,1626,1626,1622,1622,1622,1622,1626,1626,1630,1630,1630,0,0,0,0,0,0,0,0,0,0,0,0,0,0,0,0,0,0,0,0,0,0,0,0,0,0,0,0,0,0,0,0,0,0,0,0,0,0,0,0,0,0,0,0,0,0,0,0,0,0,0,0,0,0,0,0,0,0,0,0,0,0,0,0,0,0,0,0,0,0,0,0,0,0,0,0
1786,1791,1801,1801,1817,1817,1828,1839,1839,1855,1872,1872,1878,1889,1889,1895,1895,1901,1907,1907,1907,1913,1913,1913,1913,1919,1919,1913,1907,1907,1907,1907,1907,1907,1907,1901,1895,1895,1895,1895,1895,1901,1907,1907,1907,1913,1913,1913,1919,1919,1919,1919,1907,1907,1907,1907,1901,1901,1901,1895,1895,1895,1889,1889,1889,1884,1884,1884,1878,1878,1861,1861,1855,1844,1844,1833,1833,1823,1812,1812,1812,1801,1801,1786,1786,1770,1760,1760,1750,1750,1736,1726,1726,1716,1707,1707,1707,1707,1707,1707,1712,1712,1716,1716,1712,1712,1702,1702,1702,1702,1740,0,1712,1712,1693,1693,1622,1622,0,0,0,0,0,0,0,0,0,1643,1643,1656,1656,1661,1661,1661,0,0,0,0,0,0,0,0,0,0,0,0,0,0,0,0,0,0,1601,1601,1552,1552,1552,1564,1576,1576,1584,1584,1580,1580,1568,1568,1572,1572,1580,1580,1580,1580,1576,1572,1572,1568,1564,1564,1564,1564,1564,1564,1568,1568,1564,1564,1564,1564,1560,1556,1556,1556,1556,1556,1556,1556,1556,1560,1568,1568,1576,1584,1584,1588,1588,1597,1605,1605,1609,1613,1613,1622,1630,1630,1643,1643,1656,1679,1679,1693,1702,1702,1712,1721,1721,1721,1726,1726,0,1721,1712,1712,1697,1697,1684,1674,1674,1656,1656,1656,1643,1643,1630,1622,1622,1613,1613,1609,1601,1601,1584,1584,1584,1568,1568,1556,1545,1545,1541,1541,1533,1529,1529,1529,1529,1526,1522,1522,1522,1522,1526,1526,1529,1529,1529,1533,1533,1533,1541,1541,1549,1556,1556,1560,1560,1560,1560,1560,1560,1560,1560,1560,1560,1560,1564,1564,1564,1568,1568,1568,1572,1572,1584,1584,1588,1592,1592,1601,1601,1601,1609,1609,1617,1626,1626,1635,1635,1635,1635,1639,1639,1639,1635,1630,1630,1622,1617,1617,1613,1613,1609,1609,1609,1609,1609,1609,1609,1613,1613,1617,1617,1617,1626,1635,1635,1648,1648,1648,1648,1639,1622,1622,1597,1597,1580,1580,1511,1482,1482,1454,1454,1401,1401,1398,1398,1407,1407,1420,1430,1430,1444,1457,1457,1468,1478,1478,1489,1492,1492,1492,1492,1492,1496,1492,1489,1489,1489,1489,1489,1489,1489,1489,1492,1500,1500,1511,1511,1518,1533,1533,1549,1556,1556,1576,1635,1617,1617,1712,1712,1712,1855,1817,1817,1861,1861,1895,1919,1919,1949,1980,1980,2006,2019,2019,2013,2013,2006,2006,2000,1987,1987,1974,1974,1961,1949,1949,1937,1925,1925,1913,1913,1901,1889,1889,1872,1872,1867,1855,1855,1844,1833,1833,1823,1823,1807,1791,1791,1781,1781,1765,1750,1750,1736,1736,1726,1712,1712,1707,1702,1702,1688,1688,1679,1661,1661,1643,1643,1630,1609,1609,1597,1597,1580,1572,1572,1564,1564,1560,1556,1556,1556,1556,1556,1556,1560,1564,1564,1576,1576,1592,1609,1609,1635,1679,1679,1721,1765,1765,1791,1807,1807,1807,1807,1801,1801,1801,1791,1791,1781,1770,1770,1755,1755,1745,1740,1740,1731,1721,1721,1716,1716,1716,1712,1712,1707,1707,1702,1697,1697,1684,1670,1670,1670,0,1643,1630,1630,1626,1626,1617,1617,1626,1626,1626,1626,1622,1622,1622,1622,1626,1626,1630,1630,1630,0,0,0,0,0,0,0,0,0,0,0,0,0,0,0,0,0,0,0,0,0,0,0,0,0,0,0,0,0,0,0,0,0,0,0,0,0,0,0,0,0,0,0,0,0,0,0,0,0,0,0,0,0,0,0,0,0,0,0,0,0,0,0,0,0,0,0,0,0,0,0,0,0,0,0,0
1786,1791,1801,1801,1817,1817,1828,1839,1839,1855,1872,1872,1878,1895,1895,1895,1895,1901,1907,1907,1907,1907,1907,1913,1913,1907,1907,1907,1907,1907,1907,1907,1907,1901,1901,1901,1895,1895,1895,1895,1895,1901,1907,1907,1907,1913,1913,1913,1919,1919,1919,1919,1913,1913,1913,1907,1907,1901,1901,1895,1895,1895,1895,1895,1895,1889,1889,1889,1884,1884,1878,1878,1867,1861,1861,1850,1844,1844,1839,1839,1833,1828,1828,1817,1817,1807,1796,1796,1791,1781,1781,1775,1775,1765,1760,1760,1755,1755,1755,1755,1755,1755,1755,1755,1750,1750,1745,1740,1740,1740,1740,0,1712,1712,1693,1674,1622,1622,0,0,0,0,0,1670,1670,1670,0,1643,1643,1656,1656,1661,1661,1661,1716,0,0,0,0,0,0,0,0,0,0,0,0,0,0,0,0,0,1601,1601,1601,1605,1605,1609,0,0,1609,1609,1605,1605,1592,1592,1597,1597,1597,1601,1601,1601,1601,1601,1601,1597,1597,1597,1597,1597,1601,1601,1609,1609,1609,1609,1605,1601,1601,1597,1597,1597,1592,1592,1588,1588,1584,1584,1588,1588,1597,1605,1605,1609,1622,1622,1635,1635,1643,0,1665,1665,1674,1643,1643,1643,1656,1679,1679,1693,1702,1702,1712,1721,1721,1721,1726,1726,1745,1721,1712,1712,1697,1697,1684,1674,1674,1656,1656,1656,1643,1643,1630,1622,1622,1613,1613,1609,1601,1601,1597,1597,1597,1580,1580,1568,1560,1560,1556,1556,1549,1545,1545,1541,1537,1537,1529,1529,1526,1526,1529,1529,1529,1529,1529,1533,1533,1533,1541,1541,1552,1556,1556,1564,1568,1568,1568,1568,1568,1572,1572,1572,1572,1572,1576,1576,1576,1576,1576,1576,1580,1580,1592,1592,1597,1597,1597,1601,1605,1605,1613,1622,1622,1626,1626,1630,1630,1630,1635,1639,1639,1639,1635,1630,1630,1622,1617,1617,1613,1613,1609,1609,1609,1609,1609,1609,1609,1613,1613,1617,1617,1617,1626,1635,1635,1648,1648,1648,1648,1639,1622,1622,1597,1597,1580,1580,0,1518,1518,1485,1485,1454,1440,1440,1437,1437,1437,1440,1440,1440,1450,1461,1461,1475,1482,1482,1489,1500,1496,1496,1492,1492,1496,1496,1489,1489,1489,1489,1489,1492,1492,1492,1496,1507,1507,1522,1522,1537,1552,1552,1572,1588,1588,1613,1635,1635,1665,1712,1712,0,1855,1855,1855,1895,1895,1895,1919,1919,1949,1980,1980,2006,2019,2019,2013,2013,2006,2006,1993,1980,1980,1968,1968,1955,1943,1943,1931,1919,1919,1907,1907,1895,1884,1884,1872,1872,1861,1850,1850,1844,1833,1833,1817,1817,1807,1791,1791,1781,1781,1760,1750,1750,1736,1736,1721,1712,1712,1707,1697,1697,1688,1688,1674,1661,1661,1648,1648,1630,1617,1617,1601,1601,1588,1580,1580,1576,1568,1568,1568,1568,1568,1568,1568,1568,1568,1572,1572,1584,1584,1592,1609,1609,1635,1679,1679,1721,1791,1791,1791,1807,1807,1807,1807,1801,1791,1791,1786,1786,1775,1765,1765,1755,1755,1745,1736,1736,1731,1721,1721,1716,1716,1716,1712,1712,1707,1702,1702,1693,1693,1684,1670,1670,1670,0,1643,1630,1630,1626,1626,1622,1622,1626,1626,1630,1630,1626,1626,1626,1626,1626,1626,1630,1635,1635,0,0,0,0,0,0,0,0,0,0,0,0,0,0,0,0,0,0,0,0,0,0,0,0,0,0,0,0,0,0,0,0,0,0,0,0,0,0,0,0,0,0,0,0,0,0,0,0,0,0,0,0,0,0,0,0,0,0,0,0,0,0,0,0,0,0,0,0,0,0,0,0,0,0,0,0
1781,1786,1801,1801,1812,1812,1828,1833,1833,1850,1867,1867,1872,1889,1889,1895,1895,1895,1901,1901,1901,1901,1901,1907,1901,1901,1907,1907,1907,1907,1907,1907,1907,1901,1901,1901,1895,1895,1895,1895,1895,1901,1907,1907,1913,1913,1913,1913,1919,1919,1919,1919,1913,1913,1913,1907,1907,1901,1901,1895,1895,1895,1895,1895,1895,1895,1895,1889,1884,1884,1878,1878,1872,1867,1867,1861,1844,1844,1839,1839,1833,1828,1828,1817,1817,1807,1796,1796,1791,1781,1781,1775,1775,1765,1760,1760,1755,1755,1755,1755,1755,1755,1755,1755,1750,1750,1745,1740,1740,1740,1740,1755,1712,1712,1693,1674,1674,1674,0,0,0,0,0,1670,1670,1670,0,0,0,1750,1731,1731,1745,1716,1716,1736,1726,1726,1716,1716,0,0,0,0,0,0,0,0,0,0,0,0,1643,1643,1643,1648,0,0,0,0,0,0,1630,1622,1622,1622,1622,1622,1622,1626,1626,1630,1630,1630,1630,1630,1597,1597,1597,1597,1601,1601,1609,1609,1609,1609,1605,1601,1601,1597,1597,1597,1592,1592,1588,1588,1584,1584,1588,1588,1597,1605,1605,1609,1622,1622,1635,1635,1643,1688,1665,1665,1674,1674,1688,1702,1702,1716,1731,1731,1731,1731,1736,1745,1745,1745,1745,1745,1745,1745,1736,1736,1721,1712,1712,1712,1726,1684,1684,1684,1674,1674,1661,1648,1648,1643,1635,1635,1630,1630,1622,1622,1626,1613,1613,1601,1588,1588,1584,1584,1572,1572,0,1564,1556,1556,1549,1549,1541,1541,1541,1541,1541,1541,1541,1541,1533,1533,1541,1541,1552,1556,1556,1564,1568,1568,1568,1568,1568,1572,1572,1572,1572,1572,1576,1576,1576,1576,1576,1576,1580,1580,1592,1592,1597,1597,1597,1601,1605,1605,1613,1622,1622,1630,1630,1630,1630,1630,1635,1643,1643,1643,1639,1635,1635,1630,1626,1626,1622,1622,1617,1617,1617,1613,1613,1617,1617,1622,1622,1626,1630,1630,1635,1643,1643,1656,1665,1661,1661,1652,1639,1639,1609,1609,1597,1597,0,1533,1533,1533,0,0,0,0,1454,1454,1454,1454,1461,1450,1450,1464,1464,1489,1489,1489,1489,1500,1496,1496,1489,1485,1485,1482,1482,1482,1478,1478,1478,1482,1485,1485,1492,1507,1507,1522,1522,1537,1552,1552,1572,1588,1588,1613,1635,1635,1665,1712,1712,1775,1828,1855,1855,1895,1919,1919,1943,1943,1961,1987,1987,2006,2019,2019,2013,2013,2000,2000,1987,1974,1974,1961,1961,1949,1937,1937,1919,1907,1907,1907,1907,1895,1884,1884,1872,1872,1861,1850,1850,1844,1833,1833,1817,1817,1807,1791,1791,1781,1781,1760,1750,1750,1736,1736,1721,1712,1712,1707,1697,1697,1688,1688,1674,1661,1661,1648,1648,1630,1617,1617,1601,1601,1588,1580,1580,1576,1568,1568,1568,1568,1568,1568,1568,1568,1568,1572,1572,1584,1584,1592,1609,1609,1635,1679,1679,1716,1791,1791,1791,1801,1801,1801,1801,1796,1791,1791,1781,1781,1770,1765,1765,1750,1750,1740,1731,1731,1726,1721,1721,1716,1716,1712,1712,1712,1707,1702,1702,1693,1693,1684,1684,0,0,0,1643,1635,1635,1626,1626,1626,1626,1630,1630,1630,1630,1630,1630,1626,1626,1630,1630,1635,1639,1639,0,0,0,0,0,0,0,0,0,0,0,0,0,0,0,0,0,0,0,0,0,0,0,0,0,0,0,0,0,0,0,0,0,0,0,0,0,0,0,0,0,0,0,0,0,0,0,0,0,0,0,0,0,0,0,0,0,0,0,0,0,0,0,0,0,0,0,0,0,0,0,0,0,0,0,0
1775,1781,1791,1791,1807,1807,1828,1833,1833,1850,1867,1867,1872,1889,1889,1895,1895,1895,1901,1901,1901,1901,1901,1907,1901,1901,1907,1907,1907,1907,1907,1907,1907,1901,1901,1901,1895,1895,1895,1895,1901,1901,1907,1907,1913,1913,1913,1913,1913,1913,1913,1913,1913,1913,1907,1901,1901,1901,1901,1895,1895,1895,1889,1889,1889,1889,1889,1889,1884,1884,1878,1878,1867,1867,1867,1861,1855,1855,1850,1850,1844,1839,1839,1833,1823,1823,1817,1817,1817,1812,1812,1807,1807,1801,1801,1801,1796,1791,1791,1791,1791,1791,1791,1791,1786,1781,1781,1770,1770,1770,1755,1755,1745,1745,1731,1712,1712,1712,0,0,0,0,0,1697,1697,1697,0,0,0,1750,1750,1745,1745,1740,1736,1736,1726,1726,1716,1716,0,0,0,0,0,0,0,0,0,1707,1707,1716,1643,1643,1643,1648,1707,1707,0,0,0,0,1630,1622,1622,1622,1622,1622,1622,1626,1626,1630,1630,1630,1630,1630,1630,1630,1630,1630,1635,1635,1648,1679,1648,1648,1643,1639,1639,1630,1630,1626,1622,1622,1613,1605,1605,1605,1613,1613,1622,1626,1626,1639,1652,1652,1661,1674,1674,1688,1688,1702,1712,1712,1721,1736,1736,1745,1755,1755,1760,1765,1765,1775,1770,1765,1765,1765,1765,1770,1770,0,1750,1736,1736,1726,1726,1712,1684,1684,1674,1674,1661,1648,1648,1643,1635,1635,1630,1630,1622,1622,1626,1613,1613,1601,1588,1588,1584,1584,1572,1572,0,1564,1556,1556,1549,1549,1541,1541,1541,1541,1541,1541,1541,1541,1541,1541,1549,1549,1556,1564,1564,1572,1576,1576,1580,1580,1584,1588,1588,1592,1592,1592,1597,1597,1597,1597,1592,1592,1597,1597,1605,1609,1609,1609,1609,1609,1617,1617,1622,1630,1630,1643,1643,1643,1643,1643,1648,1656,1656,1661,1656,1656,1656,1652,1648,1648,1643,1643,1639,1639,1639,1630,1630,1635,1635,1639,1626,1626,1630,1630,1635,1643,1643,1656,1665,1661,1661,1652,1639,1639,1609,1609,1597,1597,1674,1533,1533,1533,0,0,0,0,1454,1454,1454,1454,1461,1450,1450,1464,1464,1489,1489,1489,1496,1500,1496,1496,1489,1485,1485,1482,1482,1482,1478,1478,1478,1482,1485,1485,1492,1511,1511,1526,0,0,1588,1588,1588,1617,1617,1639,1665,1665,1693,1736,1736,1775,1828,1867,1867,1907,1937,1937,1955,1955,1968,1987,1987,2006,2019,2019,2013,2013,2000,2000,1987,1974,1974,1961,1961,1949,1937,1937,1919,1907,1907,1895,1895,1884,1878,1878,1867,1867,1855,1850,1850,1839,1828,1828,1812,1812,1801,1786,1786,1775,1775,1760,1750,1750,1736,1736,1721,1707,1707,1707,1693,1693,1688,1688,1674,1661,1661,1648,1648,1630,1617,1617,1605,1601,1592,1588,1588,1584,1580,1580,1576,1576,1576,1580,1580,1580,1580,1584,1584,1597,1601,1601,1613,1613,1639,1679,1679,1716,0,0,1801,1801,1801,1801,1801,1796,1791,1791,1781,1781,1770,1765,1765,1750,1750,1740,1731,1731,1726,1721,1721,1716,1716,1712,1712,1712,1707,1702,1702,1693,1693,1679,1679,0,0,0,1643,1635,1635,1626,1626,1626,1626,1630,1630,1630,1630,1630,1630,1626,1626,1630,1630,1635,1639,1639,0,0,0,0,0,0,0,0,0,0,0,0,0,0,0,0,0,0,0,0,0,0,0,0,0,0,0,0,0,0,0,0,0,0,0,0,0,0,0,0,0,0,0,0,0,0,0,0,0,0,0,0,0,0,0,0,0,0,0,0,0,0,0,0,0,0,0,0,0,0,0,0,0,0,0,0
1775,1781,1791,1791,1807,1807,1823,1833,1833,1850,1867,1867,1872,1884,1884,1895,1889,1889,1895,1895,1895,1895,1895,1895,1895,1895,1901,1901,1895,1895,1895,1901,1901,1901,1901,1901,1895,1895,1895,1895,1901,1901,1907,1907,1913,1913,1913,1913,1913,1913,1913,1913,1913,1913,1907,1901,1901,1901,1901,1895,1889,1889,1889,1889,1889,1884,1884,1884,1884,1884,1878,1878,1867,1867,1867,1861,1861,1861,1855,1855,1850,1844,1844,1839,1833,1833,1833,1833,1828,1823,1823,1823,1817,1817,1817,1817,1817,1812,1812,1812,1812,1812,1791,1791,1786,1781,1781,1770,1770,1770,1755,1755,1745,1745,1731,1712,1712,1712,0,0,0,0,0,1697,1697,1697,1760,1760,1760,1750,1750,1745,1745,1740,1736,1736,1726,1726,1716,1716,0,0,0,0,1712,1712,0,0,0,1707,1707,1716,1712,1712,1712,1707,1707,1707,0,0,0,0,0,1643,1643,1643,1643,1643,1643,1648,1648,1652,1652,1652,1652,1656,1656,1656,1656,1661,1665,1665,1674,1679,1679,0,1674,1665,1665,1661,1656,1656,1648,1648,1639,1630,1630,1630,1630,1630,1639,1648,1639,1639,1652,1652,1661,1674,1674,1688,1688,1702,1712,1712,1721,1736,1736,1745,1755,1755,1760,1765,1765,1775,1770,1765,1765,1765,1765,1770,1770,0,1750,1736,1736,1726,1726,1712,1712,1712,1702,1688,1688,1688,0,1665,1665,1674,1652,1652,1648,1648,1652,1639,1630,1630,1617,1617,1613,1605,1605,1605,1617,1592,1584,1584,1572,1564,1564,1560,1560,1552,1552,0,1552,1552,1552,1552,1560,1560,1568,1576,1576,1580,1588,1588,1597,1597,1601,1605,1605,1613,1613,1613,1617,1617,1617,1617,1613,1613,1617,1605,1605,1609,1609,1609,1609,1609,1617,1617,1622,1630,1630,1643,1643,1643,1643,1643,1648,1656,1656,1661,1656,1656,1656,1652,1648,1648,1643,1643,1639,1639,1639,1630,1630,1635,1635,1639,1639,1639,1648,1648,1656,1665,1665,1679,1693,1693,1693,1693,1684,1684,1679,1679,1731,1674,1674,1665,1665,0,0,0,0,0,0,0,0,0,1529,1529,1529,1533,1537,1537,1537,1537,1541,1541,1533,1533,1511,1503,1503,1496,1492,1492,1489,1489,1489,1496,1496,1496,1507,1529,1529,1552,0,0,0,0,1617,1617,1617,1639,1665,1665,1693,1736,1736,1775,1828,1867,1867,1907,1937,1937,1955,1955,1968,1987,1987,2006,2019,2019,2006,2006,1993,1993,1980,1968,1968,1955,1955,1937,1925,1925,1913,1901,1901,1889,1889,1878,1872,1872,1861,1861,1850,1844,1844,1833,1828,1828,1812,1812,1796,1786,1786,1770,1770,1760,1745,1745,1731,1716,1716,1707,1707,1707,1693,1693,1688,1688,1674,1661,1661,1648,1648,1635,1622,1622,1609,1601,1601,1597,1597,1592,1588,1588,1584,1584,1584,1588,1588,1588,1588,1592,1592,1605,1609,1609,1613,1613,1639,1679,1679,1716,0,0,1801,1801,1801,1801,1801,1791,1786,1786,1775,1775,1770,1760,1760,1745,1745,1736,1731,1731,1726,1721,1721,1716,1716,1712,1712,1712,1707,1702,1702,1693,1693,1679,1679,0,0,0,1648,1635,1635,1630,1630,1630,1630,1630,1630,1635,1635,1630,1630,1630,1630,1635,1635,1635,0,0,0,0,0,0,0,0,0,0,0,0,0,0,0,0,0,0,0,0,0,0,0,0,0,0,0,0,0,0,0,0,0,0,0,0,0,0,0,0,0,0,0,0,0,0,0,0,0,0,0,0,0,0,0,0,0,0,0,0,0,0,0,0,0,0,0,0,0,0,0,0,0,0,0,0,0,0
1765,1765,1781,1781,1791,1791,1807,1823,1823,1833,1844,1844,1861,1867,1867,1872,1872,1872,1878,1878,1878,1878,1878,1878,1878,1878,1878,1878,1884,1889,1889,1901,1901,1901,1907,1907,1901,1901,1901,1901,1901,1901,1907,1907,1913,1913,1913,1919,1919,1919,1919,1919,1913,1913,1907,1907,1907,1901,1901,1895,1889,1889,1889,1889,1889,1884,1884,1884,1872,1872,1867,1867,1855,1850,1850,1850,1844,1844,1839,1839,1839,1833,1833,1833,1828,1828,1828,1828,1823,1817,1817,1817,1817,1817,1817,1817,1817,1812,1812,1812,1812,1812,1812,1812,1807,1801,1801,1796,1796,1791,1781,1781,1770,1755,1755,1736,1736,1736,0,0,0,0,0,1726,1726,1726,1760,1760,1760,1770,1770,1770,1770,1765,1765,1765,1755,1745,1745,1745,0,0,0,0,1712,1712,0,0,0,1760,1760,1770,1770,1791,1791,1770,1770,0,0,0,0,0,0,1643,1643,1643,1643,1643,1643,1648,1648,1652,1652,1652,1652,1656,1656,1656,1656,1661,1665,1665,1674,1679,1679,1688,1674,1665,1665,1661,1656,1656,1648,1648,1639,1630,1630,1630,1630,1630,1639,1648,1648,1656,1665,1665,1679,1693,1693,1707,1721,1721,1736,1736,1745,1750,1750,1760,1765,1765,1775,1781,1781,1781,1781,1775,1775,1775,1775,1781,1781,0,1765,1755,1755,1740,1740,1726,1726,0,1726,1726,0,0,0,1684,1674,1674,1670,1670,1665,1665,1670,1656,1648,1648,1643,1643,1639,1630,1630,1630,1617,1592,1584,1584,1572,1564,1564,1560,1560,1552,1552,0,1552,1552,1552,1552,1560,1560,1568,1576,1576,1580,1588,1588,1597,1597,1601,1605,1605,1613,1613,1613,1617,1617,1617,1617,1613,1613,1617,1617,1630,1630,1626,1626,1626,1630,1630,1630,1639,1652,1652,1661,1661,1656,1656,1656,1665,1674,1674,1679,1679,1679,1679,1674,1670,1670,1665,1661,1661,1661,1661,1652,1652,1652,1652,1656,1661,1661,1665,1665,1679,1693,1693,1707,1721,1721,1726,1736,1731,1731,1731,1731,1731,1731,1721,1721,1721,0,0,0,0,0,0,0,0,0,1529,1529,1529,1533,1537,1537,1537,1537,1541,1541,1533,1533,1511,1503,1503,1496,1492,1492,1489,1489,1489,1496,1496,1496,1507,1529,1529,1552,0,0,1679,1679,1679,1679,1679,1679,1707,1721,1721,1760,1791,1791,1839,1872,1872,1907,1937,1937,1955,1968,1968,1993,1993,2006,2006,2006,2000,2000,1987,1987,1980,1968,1968,1955,1955,1937,1925,1925,1913,1901,1901,1889,1889,1878,1872,1872,1861,1861,1850,1844,1844,1833,1828,1828,1812,1812,1796,1786,1786,1770,1770,1760,1745,1745,1731,1716,1716,1707,1707,1702,1688,1688,1684,1684,1670,1656,1656,1643,1643,1630,1622,1622,1609,1601,1601,1597,1597,1592,1588,1588,1584,1584,1584,1588,1588,1588,1588,1592,1592,1605,1609,1609,1617,1617,1688,1688,1688,0,0,0,1807,1807,1801,1801,1801,1791,1786,1786,1775,1775,1765,1755,1755,1740,1740,1736,1726,1726,1721,1721,1721,1716,1716,1712,1712,1712,1707,1702,1702,1693,1693,1693,0,0,0,0,1648,1639,1639,1635,1635,1635,1635,1635,1635,1635,1635,1635,1635,1635,1635,1635,1635,1639,0,0,0,0,0,0,0,0,0,0,0,0,0,0,0,0,0,0,0,0,0,0,0,0,0,0,0,0,0,0,0,0,0,0,0,0,0,0,0,0,0,0,0,0,0,0,0,0,0,0,0,0,0,0,0,0,0,0,0,0,0,0,0,0,0,0,0,0,0,0,0,0,0,0,0,0,0,0
1765,1765,1781,1781,1791,1791,1807,1823,1823,1833,1844,1844,1861,1867,1867,1872,1872,1872,1878,1878,1878,1878,1878,1878,1878,1878,1878,1878,1884,1889,1889,1889,1895,1895,1901,1901,1901,1901,1901,1901,1901,1901,1907,1907,1913,1913,1913,1919,1919,1907,1907,1907,1907,1907,1901,1895,1895,1889,1889,1889,1884,1884,1884,1884,1889,1884,1884,1878,1872,1872,1861,1861,1855,1850,1850,1844,1844,1844,1839,1839,1833,1828,1828,1828,1823,1823,1823,1823,1817,1817,1817,1817,1817,1817,1817,1817,1817,1817,1817,1817,1823,1828,1828,1828,1828,1823,1823,1817,1817,1817,1812,1812,1812,1791,1791,1770,1770,1770,0,0,0,0,0,1745,1745,1745,1760,1760,1760,1770,1770,1770,1770,1765,1760,1760,1755,1745,1745,1745,0,0,0,0,1712,1712,1740,1740,0,1760,1760,1770,1770,1791,1791,1770,1770,0,0,0,0,0,0,1661,1661,1656,1656,1656,1656,1661,1661,1661,1665,1665,1665,1665,1665,1670,1670,1674,1679,1679,1688,1688,1688,1688,1684,1674,1674,1674,1661,1661,1652,1652,1643,1635,1635,1635,1639,1643,1643,1656,1656,1670,1679,1679,1693,1707,1707,1726,1736,1736,1745,1755,1755,1760,1760,1765,1775,1775,1781,1791,1791,1796,1796,1801,1801,1775,1775,1781,1781,0,1765,1755,1755,1740,1740,1726,1726,0,1726,1721,1721,1712,1712,1684,1674,1674,1670,1670,1665,1665,1670,1656,1648,1648,1643,1643,1639,1630,1630,1630,1617,1617,1609,1609,1588,1580,1580,1572,1572,1564,1564,0,1556,1556,1556,1556,1564,1564,1576,1584,1584,1588,1597,1597,1605,1613,1613,1617,1617,1626,1626,1626,1630,1635,1630,1630,1630,1630,1630,1630,1635,1635,1635,0,0,1630,1630,1630,0,0,0,0,0,1656,1656,1656,1665,1674,1674,1688,1688,1688,1688,1684,1670,1670,1665,1661,1661,1661,1661,1652,1652,1652,1652,1656,1661,1661,1665,1665,1679,1693,1693,1707,1721,1721,1726,1736,1731,1731,1731,1731,1731,1731,1721,1721,1721,1736,1721,1721,0,0,0,0,0,0,1592,1592,1592,1592,1592,1592,1635,0,0,0,1601,1552,1552,1537,1537,1529,1526,1526,1522,1522,1529,1529,0,0,1584,1584,1584,1609,0,0,1679,1679,1679,1697,1726,1726,1740,1755,1755,1781,1812,1812,1844,1872,1872,1907,1937,1937,1955,1968,1968,1993,1993,2006,2006,2006,2000,2000,1987,1987,1974,1961,1961,1943,1943,1931,1919,1919,1901,1889,1889,1878,1878,1872,1867,1867,1855,1855,1850,1839,1839,1833,1823,1823,1807,1807,1796,1781,1781,1765,1765,1755,1740,1740,1726,1712,1712,1702,1702,1697,1684,1684,1674,1674,1665,1652,1652,1643,1643,1630,1617,1617,1609,1601,1601,1601,1601,1597,1597,1597,1592,1592,1597,1597,1597,1597,1597,1601,1601,1613,1617,1617,1626,1626,1688,1688,0,0,0,0,1807,1807,1807,1801,1801,1791,1786,1786,1775,1775,1765,1755,1755,1740,1740,1736,1726,1726,1721,1721,1721,1716,1716,1712,1707,1707,1707,1702,1702,1693,1693,1693,0,0,0,0,1648,1639,1639,1635,1635,1635,1635,1635,1635,1635,1635,1635,1635,1635,1635,1635,1635,1639,0,0,0,0,0,0,0,0,0,0,0,0,0,0,0,0,0,0,0,0,0,0,0,0,0,0,0,0,0,0,0,0,0,0,0,0,0,0,0,0,0,0,0,0,0,0,0,0,0,0,0,0,0,0,0,0,0,0,0,0,0,0,0,0,0,0,0,0,0,0,0,0,0,0,0,0,0,0
1740,1745,1755,1755,1770,1770,1786,1796,1796,1812,1828,1828,1844,1855,1855,1861,1861,1861,1861,1861,1861,1872,1867,1867,1867,1872,1872,1872,1872,1878,1878,1878,1889,1889,1889,1889,1895,1895,1895,1901,1907,1907,1913,1913,1913,1919,1919,1913,1913,1901,1901,1901,1901,1901,1901,1895,1895,1889,1889,1889,1884,1884,1884,1884,1889,1884,1884,1878,1872,1872,1861,1861,1855,1850,1850,1844,1844,1844,1839,1839,1833,1828,1828,1828,1823,1823,1823,1823,1817,1817,1817,1812,1812,1812,1812,1812,1812,1817,1817,1817,1823,1823,1823,1828,1828,1823,1823,1817,1817,1817,1812,1812,1801,1786,1786,1770,1770,1770,0,0,0,0,0,1736,1736,1736,1745,1745,1745,1745,1745,1740,1740,1731,1721,1721,1716,1712,1712,1712,0,1697,1697,1712,1712,1731,1740,1740,0,0,0,0,0,0,0,0,0,0,0,0,0,0,0,0,0,1656,1656,1665,1665,1670,1670,1674,1674,1674,1674,1679,1679,1679,1679,1684,1688,1688,1693,1693,1693,1688,1688,1684,1684,1674,1661,1661,1652,1652,1643,1635,1635,1635,1639,1643,1643,1656,1656,1670,1679,1679,1693,1707,1707,1726,1736,1736,1745,1755,1755,1760,1760,1765,1775,1775,1781,1791,1791,1796,1796,1801,1801,1796,1796,1796,1796,1801,1786,1775,1775,1755,1740,1740,1740,1755,1736,1721,1721,1712,1712,1697,1688,1688,1684,1679,1679,1679,1679,1670,1665,1665,1656,1656,1652,1652,0,1635,1626,1626,1613,1613,1613,1580,1580,1580,0,0,0,0,0,0,0,1564,1564,1564,1576,1584,1584,1597,1601,1601,1609,1617,1617,1617,1617,1626,1626,1626,1630,1635,1630,1630,1630,1630,1630,1630,1635,1635,1635,0,1639,1630,1630,1630,0,0,0,1665,1665,1656,1656,1656,1665,1674,1674,1688,1688,1688,1688,1684,1684,1684,1679,1674,1674,1674,1674,1665,1665,1665,1665,1670,1670,1670,1697,1684,1684,1697,1697,1712,1721,1721,1726,1736,1736,1736,1736,1745,1750,1745,1745,0,1736,1736,1721,1721,0,0,0,0,0,0,1665,1656,1656,1648,1648,1635,1635,0,0,0,1601,1584,1584,1568,1568,1560,1556,1556,1556,1529,1529,1529,0,0,1584,1584,1584,1609,1674,1693,1679,1679,1679,1697,1726,1726,1740,1755,1755,1781,1812,1812,1844,1872,1872,1907,1937,1937,1955,1968,1968,1993,1993,2000,2006,2006,1993,1993,1980,1980,1961,1949,1949,1937,1937,1919,1907,1907,1895,1878,1878,1872,1872,1861,1855,1855,1850,1844,1844,1839,1839,1828,1817,1817,1807,1807,1796,1781,1781,1765,1765,1755,1740,1740,1726,1712,1712,1702,1702,1697,1684,1684,1674,1674,1665,1652,1652,1643,1643,1630,1617,1617,1609,1605,1605,1605,1605,1601,1601,1601,1592,1592,1597,1597,1597,1597,1597,1601,1601,1613,1617,1617,1626,1626,1688,1688,0,0,0,0,1807,1807,1807,1801,1801,1791,1786,1786,1775,1775,1765,1755,1755,1740,1740,1731,1726,1726,1721,1716,1716,1712,1712,1712,1707,1707,1702,1702,1702,1688,1688,1688,0,0,0,0,1648,1639,1639,1635,1635,1635,1635,1639,1639,1639,1639,1635,1635,1639,1639,1639,1639,1639,0,0,0,0,0,0,0,0,0,0,0,0,0,0,0,0,0,0,0,0,0,0,0,0,0,0,0,0,0,0,0,0,0,0,0,0,0,0,0,0,0,0,0,0,0,0,0,0,0,0,0,0,0,0,0,0,0,0,0,0,0,0,0,0,0,0,0,0,0,0,0,0,0,0,0,0,0,2956
1721,1721,1721,1726,1745,1745,1760,1770,1770,1786,1807,1807,1817,1823,1823,1833,1828,1828,1861,1861,1861,1872,1867,1867,1867,1872,1872,1872,1872,1878,1878,1878,1889,1889,1889,1889,1895,1895,1895,1901,1907,1907,1913,1913,1913,1919,1919,1913,1913,1901,1901,1901,1901,1901,1895,1889,1889,1889,1889,1884,1884,1884,1878,1878,1889,1884,1884,1878,1867,1867,1855,1855,1850,1844,1844,1839,1839,1839,1833,1833,1828,1823,1823,1823,1823,1823,1817,1817,1817,1812,1812,1807,1807,1807,1807,1807,1807,1812,1812,1812,1817,1823,1823,1823,1823,1823,1823,1817,1817,1817,1817,0,1801,1781,1781,1770,1770,0,0,0,0,0,0,1736,1736,1736,1745,1745,1745,1745,1745,1740,1740,1731,1721,1721,1716,1712,1712,1712,0,1697,1697,1712,1712,1731,0,0,0,0,0,0,0,0,0,0,0,0,0,0,0,0,0,0,0,1656,1656,1656,1656,1670,1670,1674,1674,1674,1674,1674,1674,1674,1674,1679,1679,1679,1684,1684,1684,1684,1674,1665,1665,1665,1670,1670,1661,1661,1643,1639,1639,1639,1643,1648,1648,1665,1665,1679,1693,1693,1702,1716,1716,1736,1745,1745,1750,1760,1760,1765,1765,1775,1781,1781,1791,1801,1801,1807,1812,1812,1812,1807,1807,1807,1807,1801,1801,1791,1791,1765,1750,1750,1750,1755,1745,1736,1736,1721,1721,1707,1693,1693,1688,1684,1684,1679,1679,1670,1665,1665,1656,1656,1652,1648,1648,1635,1626,1626,1613,1613,1613,1568,1568,1568,0,0,0,0,0,0,0,1560,1560,1560,1576,1584,1584,1597,1601,1601,1609,1617,1617,1626,1626,1630,1635,1635,1639,1639,1639,1639,1639,1639,1639,1639,1643,0,0,0,1639,1639,1643,1643,0,0,0,1652,1652,1652,0,0,1688,1688,1688,1697,1697,1697,1697,1697,1697,1697,1697,0,0,0,0,1684,1684,1684,1684,1684,1684,1684,1697,1697,1697,1712,1712,1726,1736,1736,1740,1745,1745,1750,1745,1745,1750,1745,1745,1775,1736,1736,1721,1721,0,0,0,0,0,0,1665,1656,1656,1648,1648,1635,1635,0,0,1617,1601,1584,1584,1568,1568,1560,1556,1556,1556,1556,0,0,0,0,0,1652,1652,1652,1674,1693,1693,1712,1712,1726,1750,1750,1765,1770,1770,1801,1823,1823,1855,1878,1878,1919,1937,1937,1955,1974,1974,1993,1993,2000,2006,2006,1993,1993,1980,1980,1961,1949,1949,1937,1937,1919,1907,1907,1895,1878,1878,1872,1872,1861,1855,1855,1850,1844,1844,1839,1839,1828,1817,1817,1807,1807,1791,1781,1781,1765,1765,1750,1736,1736,1726,1712,1712,1697,1697,1693,1684,1684,1670,1670,1661,1648,1648,1639,1639,1626,1617,1617,1609,1605,1605,1605,1605,1601,1601,1601,1597,1597,1601,1601,1601,1601,1605,1605,1605,1617,1622,1622,1630,0,1693,1693,0,0,0,0,1817,1817,1812,1807,1807,1796,1791,1791,1781,1781,1765,1755,1755,1740,1740,1731,1726,1726,1721,1716,1716,1712,1712,1712,1707,1707,1702,1702,1702,1688,1688,1688,0,0,0,0,1648,1639,1639,1639,1639,1639,1639,1639,1639,1639,1639,1635,1635,1639,1639,1639,1639,1639,0,0,0,0,0,0,0,0,0,0,0,0,0,0,0,0,0,0,0,0,0,0,0,0,0,0,0,0,0,0,0,0,0,0,0,0,0,0,0,0,0,0,0,0,0,0,0,0,0,0,0,0,0,0,0,0,0,0,0,0,0,0,0,0,0,0,0,0,0,0,0,0,0,0,0,0,0,2956
1721,1721,1721,1726,1745,1745,1760,1770,1770,1786,1807,1807,1817,1823,1823,1833,1828,1828,1828,1828,1828,1833,1833,1839,1839,1844,1850,1850,1855,1861,1861,1872,1884,1884,1889,1889,1889,1895,1895,1901,1901,1901,1907,1907,1913,1913,1913,1907,1907,1895,1895,1884,1867,1867,1861,1861,1861,1861,1889,1855,1850,1850,1850,1850,1861,1855,1855,1855,1850,1850,1839,1839,1828,1823,1823,1770,1770,1765,1765,1817,1817,1823,1823,1823,1823,1823,1817,1817,1817,1812,1812,1807,1807,1807,1807,1807,1807,1812,1812,1812,1817,1823,1823,1823,1823,1823,1823,1817,1817,0,0,0,0,1781,1781,1770,1770,0,0,0,1736,1736,1740,1731,1731,1731,1736,1740,1736,1736,1740,1736,1736,1726,1721,1721,1716,1712,1661,1661,0,1697,1697,1601,1601,1613,1613,0,0,0,0,0,0,0,0,0,0,0,0,0,0,0,1507,1507,1507,1526,1609,1609,1639,1670,1670,1674,1674,1674,1674,1674,1674,1674,1674,1674,1679,1679,1684,1684,1684,1684,1674,1665,1665,1665,0,0,0,0,1643,1639,1639,1639,1643,1648,1648,1665,1665,1684,1697,1697,1707,1721,1721,1736,1745,1745,1750,1760,1760,1765,1765,1775,1781,1781,1791,1791,1791,1796,1801,1801,1801,1801,1807,1807,1807,1801,1781,1781,1781,1760,1740,1740,1740,1740,1740,1707,1707,1707,1721,1688,1679,1679,1670,1670,1674,1674,1679,1665,1656,1656,1643,1643,1635,1635,1648,1613,1597,1597,1597,0,0,1545,1545,1537,1537,1537,0,0,0,0,1533,1533,1560,1560,1576,1588,1588,1597,1605,1605,1613,1622,1622,1626,1626,1630,1635,1635,1639,1639,1639,1639,1639,1639,1639,1639,1643,0,0,0,0,0,0,0,0,0,0,1652,1652,1652,1652,1652,1661,1679,1679,1693,1697,1697,1697,1697,1697,1697,1697,1693,1693,1693,1688,1684,1684,1684,1684,1684,1684,1684,1697,1697,1697,1712,1712,1726,1736,1736,1740,1745,1745,1750,1760,1760,1781,1770,1770,1775,1775,1775,1781,1781,1791,1786,1786,1786,1786,0,0,1697,1697,1679,1679,1656,1656,1661,1661,1617,1617,1597,1597,1580,1568,1568,1568,1568,1568,0,0,0,0,0,0,1684,1684,1684,1726,1726,1726,1750,1770,1770,1791,1796,1796,1801,1801,1823,1850,1850,1872,1901,1901,1931,1937,1937,1955,1974,1974,1993,1993,2000,2006,2006,1987,1987,1974,1974,1955,1943,1943,1931,1931,1913,1895,1895,1884,1872,1872,1867,1867,1855,1850,1850,1844,1839,1839,1833,1833,1823,1817,1817,1801,1801,1791,1775,1775,1765,1765,1750,1731,1731,1721,1707,1707,1697,1697,1693,1679,1679,1665,1665,1656,1643,1643,1635,1635,1626,1617,1617,1609,1605,1605,1605,1605,1605,1601,1601,1601,1601,1605,1605,1605,1605,1609,1609,1609,1622,1626,1626,1635,0,1697,1697,0,0,0,0,1823,1817,1817,1807,1807,1796,1791,1791,1781,1781,1765,1755,1755,1740,1731,1731,1721,1721,1716,1716,1716,1712,1712,1707,1702,1702,1702,1697,1697,1684,1684,1684,0,0,0,0,1648,1639,1639,1639,1639,1639,1639,1643,1643,1643,1643,1643,1643,1643,1643,1643,1643,1643,0,0,0,0,0,0,0,0,0,0,0,0,0,0,0,0,0,0,0,0,0,0,0,0,0,0,0,0,0,0,0,0,0,0,0,0,0,0,0,0,0,0,0,0,0,0,0,0,0,0,0,0,0,0,0,0,0,0,0,0,0,0,0,0,0,0,0,0,0,0,2956,2956,2956,0,0,0,0,2956
1697,1702,1702,1707,1721,1721,1740,1750,1750,1770,1786,1786,1801,1812,1812,1817,1812,1812,1812,1812,1817,1817,1817,1828,1828,1833,1839,1839,1839,1850,1850,1861,1878,1878,1878,1878,1889,1889,1889,1895,1895,1895,1907,1907,1913,1913,1913,1907,1907,1895,1895,1884,1867,1867,1861,1861,1861,1861,0,1855,1850,1850,1850,1850,1861,1855,1855,1855,1850,1850,1839,1839,1828,1823,1823,1770,1770,1765,1765,1817,1817,1817,1817,1817,1812,1812,1812,1812,1807,1801,1801,1801,1796,1796,1796,1801,1801,1807,1807,1807,1812,1817,1817,1823,1823,1823,1823,1812,1812,0,0,0,0,1750,1750,1750,0,0,0,0,1736,1736,1684,1674,1674,1674,1684,1740,1736,1736,1740,1697,1697,1697,1670,1670,1630,1630,1630,1576,1576,1576,0,1601,1601,1613,1613,0,0,0,0,0,0,0,0,0,0,0,0,0,0,0,1507,1507,1507,1526,1609,1609,1639,1674,1679,1679,1679,1679,1674,1674,1674,1674,1674,1674,1679,1679,1684,1684,1679,1679,1670,1656,1656,1652,1652,0,1643,1643,1639,1635,1635,1635,1643,1648,1648,1665,1665,1684,1697,1697,1707,1721,1721,1736,1745,1745,1750,1755,1755,1760,1760,1770,1775,1775,1760,1760,1755,1755,1750,1750,1750,1750,1812,0,0,0,1712,1712,1712,1707,1707,1702,1702,1707,1702,1702,1707,1707,0,1688,1679,1679,1670,1670,1674,1674,1679,1665,1656,1656,1643,1643,1635,1635,0,1613,1597,1597,1597,0,0,1545,1545,1537,1537,1537,0,0,0,0,1533,1533,1549,1549,1560,1576,1576,1588,1597,1597,1601,1609,1609,1613,1613,1613,1617,1617,1617,1617,1617,1617,1609,1609,1609,1609,1617,0,0,0,0,1588,1588,1588,0,0,0,1652,1652,1605,1605,1605,1622,1643,1643,1661,1674,1674,1693,1693,1679,1679,1679,1684,1688,1688,1684,1684,1684,1684,1684,1684,1684,1684,1707,1707,1707,1721,1721,1731,1745,1745,1745,1750,1750,1755,1765,1765,1781,1781,1791,1791,1791,1796,1801,1791,1791,1786,1786,1786,1786,0,0,0,0,1702,1702,0,1661,1661,1661,1617,1617,1597,1597,1580,1568,1568,1568,1568,1568,0,0,0,0,0,0,1684,1684,1684,1726,1726,1726,1750,1770,1770,1791,1796,1796,1801,1801,1823,1850,1850,1872,1901,1901,1931,1949,1949,1968,1987,1987,2000,2006,2006,2013,2006,1987,1987,1974,1974,1955,1937,1937,1925,1925,1901,1889,1889,1872,1861,1861,1855,1855,1855,1850,1850,1844,1839,1839,1833,1833,1823,1817,1817,1801,1801,1791,1775,1775,1765,1765,1750,1731,1731,1721,1707,1707,1697,1697,1693,1679,1679,1665,1665,1656,1643,1643,1635,1626,1626,1617,1617,1609,1605,1605,1605,1605,1605,1601,1601,1601,1601,1605,1605,1605,1605,1609,1609,1609,1622,1626,1626,1635,1648,1648,1697,0,0,0,0,1823,1817,1817,1807,1807,1801,1796,1796,1786,1786,1765,1755,1755,1740,1726,1726,1721,1721,1716,1716,1716,1712,1712,1707,1702,1702,1697,1693,1693,1679,1679,1679,0,0,0,0,1648,1639,1639,1639,1643,1643,1643,1643,1643,1643,1643,1643,1643,1643,1643,1648,1643,1643,0,0,0,0,0,0,0,0,0,0,0,0,0,0,0,0,0,0,0,0,0,0,0,0,0,0,0,0,0,0,0,0,0,0,0,0,0,0,0,0,0,0,0,0,0,0,0,0,0,0,0,0,0,0,0,0,0,0,0,0,0,0,0,0,0,0,0,0,2970,2970,2956,2956,2956,2970,0,2956,2956,2956
1674,1679,1679,1688,1702,1702,1740,1750,1750,1770,1786,1786,1801,1812,1812,1817,1812,1812,1812,1812,1817,1817,1817,1828,1828,1833,1839,1839,1839,1850,1850,1861,1878,1878,1878,1878,1889,1889,1889,1895,1895,1895,1907,1907,1913,1913,1913,1907,1907,1895,1895,1884,1867,1867,1861,1861,1861,1861,0,1855,1850,1850,1850,1850,1850,1812,1812,1812,1833,1839,1839,1839,1796,1796,1812,1750,1750,1750,1765,1807,1807,1807,1807,1807,1807,1807,1801,1801,1801,1796,1796,1786,1786,1786,1786,1801,1801,1807,1807,1807,1812,1817,1817,0,1823,1823,0,1812,1812,0,0,0,0,1750,1750,1750,0,0,0,0,0,0,1684,1674,1674,1674,1684,0,0,0,0,1697,1697,1697,1670,1670,1630,1630,1630,1576,1576,1576,0,1601,1601,1613,1496,1496,1496,0,0,0,0,0,0,0,0,0,0,0,0,0,1507,1507,1507,1526,1609,1609,1639,1674,1679,1679,1679,1674,1670,1670,1661,1661,1661,1656,1656,1656,1652,1652,1643,1643,1630,1617,1617,1613,1613,0,1617,1617,1613,1609,1609,1609,1630,1630,1630,1665,1688,1688,1702,1702,1712,1726,1726,1736,1745,1745,1750,1755,1755,1760,1760,1770,1775,1775,1760,1760,1755,1755,1750,1750,1750,1750,0,0,0,0,1712,1712,1712,1707,1707,1702,1702,1707,1702,1702,1702,1697,1697,1688,1674,1674,1670,1670,1670,1670,1674,1665,1652,1652,1643,1643,1635,1622,1622,1609,1592,1592,1576,1576,1549,1537,1537,1529,1529,1522,1522,1522,1522,1526,1529,1529,1545,1545,1560,1576,1576,1588,1597,1597,1601,1609,1609,1609,1609,1613,1613,1613,1617,1617,1613,1613,1605,1605,1605,1605,1609,0,0,0,0,1588,1588,1588,0,0,0,0,0,1605,1605,1605,1622,1643,1643,1661,1674,1674,1693,1693,1679,1679,1679,1684,1688,1688,1684,1684,1684,1684,1684,1684,1684,1684,1707,1707,1707,1716,1716,1731,1740,1740,1745,1750,1750,1736,1736,1736,1760,1760,1781,1791,1791,1791,1801,1791,1791,1786,1786,1786,1786,0,0,0,0,1702,1702,1622,1622,1626,1626,1622,1622,1601,1601,1584,1580,1580,1580,0,0,0,0,0,0,0,1684,1684,1707,1707,1721,1736,1736,1740,1765,1765,1775,1812,1812,1817,1817,1844,1861,1861,1889,1913,1913,1949,1968,1968,1980,2000,2000,2013,2019,2013,2013,2006,1993,1993,1974,1974,1955,1937,1937,1925,1925,1901,1889,1889,1872,1861,1861,1855,1855,1850,1844,1844,1839,1833,1833,1833,1833,1823,1812,1812,1796,1796,1786,1775,1775,1760,1760,1745,1731,1731,1716,1702,1702,1697,1697,1688,1674,1674,1661,1661,1652,1639,1639,1630,1622,1622,1609,1609,1605,1601,1601,1601,1601,1601,1601,1601,1601,1601,1605,1605,1605,1605,1609,1617,1617,1626,1630,1630,1635,1648,1648,1702,0,0,0,0,1828,1823,1823,1812,1812,1801,1796,1796,1786,1786,1770,1755,1755,1740,1726,1726,1721,1721,1716,1716,1716,1712,1712,1707,1702,1702,1697,1693,1693,1679,1679,1679,0,0,0,0,1643,1639,1639,1639,1643,1643,1643,1643,1643,1643,1643,1643,1643,1643,1643,1643,1643,1643,0,0,0,0,0,0,0,0,0,0,0,0,0,0,0,0,0,0,0,0,0,0,0,0,0,0,0,0,0,0,0,0,0,0,0,0,0,0,0,0,0,0,0,0,0,0,0,0,0,0,0,0,0,0,0,0,0,0,0,0,0,0,0,0,0,0,0,0,2970,2970,2956,2956,2956,2970,0,2956,2956,2956
1674,1679,1679,1688,1702,1702,1716,1731,1731,1750,1765,1765,1786,1801,1801,1807,1801,1801,1801,1801,1807,1807,1807,1817,1817,1817,1828,1828,1828,1839,1839,1855,1867,1867,1878,1878,1878,1889,1889,1895,1895,1895,1901,1901,1901,1901,1901,0,0,0,0,0,0,0,0,0,1635,1635,1635,0,0,0,0,1850,1850,1812,1812,1812,1833,1839,1839,0,1796,1796,1812,1750,1750,1750,1791,1807,1807,1807,1807,1807,1807,1807,1801,1801,1801,1796,1796,1786,1786,1786,1786,0,0,0,0,0,0,0,0,0,1823,1823,0,1812,1812,0,0,0,0,1750,1750,1750,0,0,0,0,0,0,1684,1674,1674,1674,1684,0,0,0,0,1670,1670,1656,1648,1648,1613,1613,1613,1576,1552,1537,1537,1537,0,0,1496,1496,1496,0,0,0,0,0,0,0,0,0,0,0,1346,1346,0,0,0,0,0,0,0,0,0,1679,1679,1674,1670,1670,1661,1661,1661,1656,1656,1656,1652,1652,1643,1643,1630,1617,1617,1613,1613,0,1617,1617,1613,1609,1609,1609,1630,1630,1630,1688,1688,1688,1702,1702,1712,1726,1726,1736,1745,1731,1731,1740,1740,1740,1736,1736,1745,1745,1760,1760,1755,1755,1750,1750,1750,1750,0,0,0,0,1712,1712,1639,1639,1643,1643,1702,1707,1702,1670,1670,1670,1679,1679,1665,1665,1665,1661,1661,1661,1661,1648,1635,1635,1622,1622,1609,1609,1622,1609,1592,1560,1545,1545,1545,1537,1537,1529,1529,1522,1522,1522,1522,1526,1529,1529,1545,1545,1560,1576,1576,1588,1597,1597,1601,1609,1609,1609,1609,1613,1613,1613,1617,1617,1613,1613,1605,1605,1605,1605,1609,0,1597,1597,1584,1576,1576,1572,1572,1580,1580,1597,1597,1592,1592,1592,1609,1635,1635,1656,1670,1670,1679,1684,1679,1679,1679,1684,1688,1688,1684,1684,1684,1684,1684,1679,1679,1679,1688,1707,1707,1716,1716,1731,1740,1740,1740,1740,1731,1731,1731,1726,1726,1716,1702,1702,1679,1679,1679,1626,1626,1626,1786,0,0,0,0,0,0,0,0,1622,1622,1626,1626,1622,1622,1601,1601,1584,1584,0,0,0,0,0,0,0,0,0,1684,1684,1707,1707,1721,1736,1736,1740,1765,1765,1775,1786,1786,1791,1791,1812,1839,1839,1872,1901,1901,1949,1968,1968,1980,2000,2000,2013,2019,2013,2013,2006,1993,1993,1974,1974,1955,1937,1937,1919,1901,1901,1884,1884,1867,1855,1855,1850,1850,1844,1839,1839,1833,1833,1833,1828,1828,1817,1812,1812,1796,1796,1786,1770,1770,1755,1745,1745,1726,1726,1712,1702,1702,1697,1697,1688,1674,1674,1661,1661,1652,1639,1639,1630,1622,1622,1609,1609,1605,1601,1601,1601,1601,1601,1601,1601,1601,1601,1605,1605,1605,1609,1609,1617,1617,1630,1630,1630,1639,1648,1648,1702,0,0,0,0,1828,1823,1823,1812,1812,1801,1796,1796,1786,1786,1770,1755,1755,1736,1726,1726,1721,1721,1716,1712,1712,1707,1707,1702,1697,1697,1693,1693,1693,1679,1679,1679,0,0,0,0,1639,1635,1635,1635,1635,1643,1643,1639,1639,1639,1639,1639,1639,1643,1639,1639,1639,1639,0,0,0,0,0,0,0,0,0,0,0,0,0,0,0,0,0,0,0,0,0,0,0,0,0,0,0,0,0,0,0,0,0,0,0,0,0,0,0,0,0,0,0,0,0,0,0,0,0,0,0,0,0,0,0,0,0,0,0,0,0,0,0,0,0,0,0,0,2970,2970,2956,2956,2956,2970,0,2956,2956,2956
1635,1635,1635,1639,1639,1635,1635,1635,1643,1750,1765,1684,1684,1684,1707,1731,1731,1801,1801,1801,1807,1807,1807,1817,1817,1817,1828,1828,1823,1823,1823,1855,1867,1867,0,1878,1878,1889,1889,1895,0,1901,1901,1901,1901,1901,1901,0,0,0,0,0,0,0,0,0,1635,1635,1635,0,0,0,0,0,0,1812,1812,1812,1833,1839,1839,0,1796,1796,1812,1750,1750,1750,1791,1807,1807,1807,1807,1807,1807,1807,1791,1791,1791,1796,1796,1786,1786,1786,1786,0,0,0,0,0,0,0,0,0,0,0,0,0,0,0,0,0,0,0,0,0,0,0,0,0,0,0,0,0,0,0,0,0,0,0,0,1670,1670,1656,1648,1648,1613,1613,1613,0,1552,1537,1537,1537,0,0,0,0,0,0,0,0,0,0,0,0,0,0,0,0,1346,1346,0,0,0,0,0,0,0,0,0,1679,1679,1674,1670,1670,1648,1648,1643,1639,1639,1639,1635,1635,1626,1626,1626,1617,1617,1613,1613,0,1617,1617,1613,1609,1609,1609,1630,1630,1630,0,0,0,0,0,0,0,0,0,0,1731,1731,1740,1740,1740,1736,1736,1745,1745,0,0,0,0,0,0,0,0,0,0,0,0,0,0,1639,1639,1643,1643,0,0,0,1670,1670,1670,1679,1679,1665,1665,1665,1661,1661,1661,1661,1648,1635,1635,1622,1622,1609,1609,0,0,0,1560,1545,1545,1518,1518,1507,1503,1503,1500,1500,1500,1500,1507,1507,1511,1526,1526,1541,1556,1556,1576,1576,1576,1580,1584,1584,1609,1609,1613,1613,1584,1584,1584,1576,1576,1572,1572,1572,1572,1572,1572,1572,1597,1584,1576,1576,1541,1541,1541,1549,1597,1597,1592,1592,1572,1572,1601,1601,1656,1670,1643,1643,1643,1679,1679,1679,1688,1693,1693,1688,1688,1684,1684,1684,1679,1679,1679,1688,1707,1707,1716,1731,1731,1740,1740,1740,1740,1731,1731,1731,1726,1726,1716,1702,1702,1679,1679,1679,1626,1626,1626,0,0,0,0,0,0,0,0,0,1617,1617,1626,1626,1622,1622,1601,1601,1584,1584,1584,1584,1588,1580,1580,1592,1592,1613,1656,1656,1684,1707,1707,1721,1731,1731,1736,1755,1755,1770,1781,1781,1791,1791,1807,1828,1828,1861,1889,1889,1949,1968,1968,1980,2000,2000,2013,2019,2013,2013,2006,1993,1993,1974,1974,1955,1937,1937,1919,1901,1901,1884,1884,1867,1855,1855,1850,1850,1844,1839,1839,1833,1833,1833,1828,1828,1817,1812,1812,1796,1796,1786,1770,1770,1755,1745,1745,1726,1726,1712,1702,1702,1693,1693,1684,1670,1670,1661,1661,1648,1639,1639,1626,1617,1617,1609,1609,1601,1597,1597,1597,1597,1597,1597,1597,1597,1601,1601,1601,1605,1609,1609,1617,1617,1626,1630,1630,1639,1652,1652,1707,0,0,0,0,1833,1828,1828,1817,1817,1807,1801,1801,1791,1791,1770,1755,1755,1736,1726,1726,1721,1721,1716,1712,1712,1707,1707,1702,1697,1697,1693,1693,1693,1679,1679,1679,0,0,0,0,1639,1635,1635,1635,1635,1643,1643,1639,1639,1639,1639,1639,1639,1643,1639,1639,1639,1639,0,0,0,0,0,0,0,0,0,0,0,0,0,0,0,0,0,0,0,0,0,0,0,0,0,0,0,0,0,0,0,0,0,0,0,0,0,0,0,0,0,0,0,0,0,0,0,0,0,0,0,0,0,0,0,0,0,0,0,0,0,0,0,0,0,0,0,0,0,0,0,0,0,0,0,0,0,0
1635,1635,1635,1639,1639,1635,1635,1635,1643,0,0,1684,1684,1684,1707,1731,1731,0,0,0,0,0,0,0,0,0,0,0,1823,1823,1823,1844,1867,1867,0,1878,1878,1889,1889,1895,0,1901,1901,1901,1901,1901,1901,0,0,0,0,0,0,0,0,0,1635,1635,1635,0,0,0,0,0,0,0,0,0,0,0,0,0,0,0,0,0,0,0,0,0,0,0,0,0,0,0,1791,1791,1791,0,0,0,0,0,0,0,0,0,0,0,0,0,0,0,0,0,0,0,0,0,0,0,0,0,0,0,0,0,0,0,0,0,0,0,0,0,0,0,0,0,1643,1639,1639,1626,1626,1613,1588,1588,1564,1564,1552,1537,1537,1537,1329,1323,1323,1317,1317,1317,1306,1306,1282,1282,1277,1269,1269,1269,1269,1282,1282,1285,1285,1295,0,0,0,0,0,0,0,0,0,0,0,0,1648,1648,1605,1592,1592,1584,1584,1584,1572,1572,1564,1564,0,0,0,0,0,0,0,0,0,0,0,0,0,0,0,0,0,0,0,0,0,0,0,0,0,0,0,0,0,0,0,0,0,0,0,0,0,0,0,0,0,0,0,0,0,0,1639,1639,1643,1643,0,0,0,1652,1652,1652,1679,1679,1665,1665,1665,1661,1661,1648,1648,1635,1622,1622,1622,1622,1609,1572,1572,1556,1556,1545,1529,1529,1507,1507,1500,1496,1496,1496,1496,1500,1500,1507,1507,1511,1526,1526,1537,1552,1552,1568,1568,1568,1568,1572,1572,1572,1568,1568,0,1584,1584,1584,1576,1576,1572,1572,1572,1572,1572,1572,1572,0,0,0,0,1541,1541,1541,1549,0,0,0,0,1572,1572,1601,1601,0,0,1643,1643,1643,1679,1679,1679,1688,1693,1693,1688,1688,1684,1684,1684,1679,1679,1679,1688,1707,1707,1716,1731,1731,1740,1740,1707,1707,1697,1697,1688,1674,1674,1652,1652,1630,1630,1679,1679,1626,1626,1626,0,0,0,0,0,0,0,0,0,1617,1601,1601,1601,1613,1613,1605,1605,1592,1584,1584,1584,1588,1580,1580,1592,1592,1613,1656,1656,1693,1712,1712,1721,1731,1731,1736,1755,1755,1770,1781,1781,1796,1796,1807,1828,1828,1861,1889,1889,1949,1968,1968,1980,2000,2000,2013,2019,2013,2013,2006,1993,1993,1974,1974,1955,1937,1937,1919,1895,1895,1878,1878,1861,1850,1850,1844,1844,1839,1833,1833,1833,1828,1828,1828,1828,1817,1807,1807,1791,1791,1781,1765,1765,1755,1740,1740,1726,1726,1712,1702,1702,1693,1693,1684,1670,1670,1661,1661,1648,1639,1639,1626,1617,1617,1605,1605,1597,1597,1597,1592,1592,1592,1592,1592,1592,1592,1601,1601,1605,1609,1609,1617,1617,1626,1635,1635,1652,1652,1652,0,0,0,0,0,1839,1833,1833,1823,1823,1812,1807,1807,1796,1796,1770,1770,0,0,0,0,1721,1721,1716,1712,1712,1707,1707,1697,1697,1697,1693,1688,1688,1674,1674,1665,1665,0,0,1635,1635,1635,1635,1635,1635,1639,1639,1635,1635,1635,1635,1635,1639,1639,1639,1639,1639,1639,0,0,0,0,0,0,0,0,0,0,0,0,0,0,0,0,0,0,0,0,0,0,0,0,0,0,0,0,0,0,0,0,0,0,0,0,0,0,0,0,0,0,0,0,0,0,0,0,0,0,0,0,0,0,0,0,0,0,0,0,0,0,0,0,0,0,0,0,0,0,0,0,0,0,0,0,0,0
1622,1622,1617,1613,1613,1609,1609,1609,1643,0,0,1684,1684,1684,1665,1665,1665,1679,1679,1693,1712,1712,1712,1716,1716,1721,0,0,1823,1823,1823,1844,0,0,0,0,0,0,0,0,0,0,0,0,0,0,0,0,0,0,0,0,0,0,0,0,0,0,0,0,0,0,0,0,0,0,0,0,0,0,0,0,0,0,0,0,0,0,0,0,0,0,0,0,0,0,0,0,0,0,0,0,0,0,0,0,0,0,0,0,0,0,0,0,0,0,0,0,0,0,0,0,0,0,0,0,0,0,0,0,0,0,0,0,0,0,0,0,0,0,1643,1639,1639,1626,1626,1613,1588,1588,1564,1564,0,0,0,0,1290,1290,1323,1317,1317,1317,1306,1306,1282,1282,1277,1269,1269,1269,1269,1282,1282,1285,1285,1295,0,0,0,0,0,0,0,0,0,0,0,0,0,0,1605,1592,1592,1584,1584,1584,1572,1572,1564,1564,0,0,0,0,1564,1564,1564,1576,0,0,0,0,0,0,0,0,0,0,0,0,0,0,0,0,0,0,0,0,0,0,0,0,0,0,0,0,0,0,0,0,0,0,0,0,0,0,0,0,1507,1507,1560,1560,0,1652,1564,1564,1597,1597,0,0,0,0,0,1635,1635,1635,1622,1622,1622,0,0,1572,1572,1556,1556,1545,1529,1529,1507,1507,1500,1496,1496,1496,1496,1503,1503,1511,0,0,0,1537,1537,1552,1552,1568,1568,1568,1568,1572,1572,1572,1568,1568,0,1584,1564,1564,1564,1576,1572,1552,1552,1552,1556,1552,1549,1549,1541,1529,1529,1529,1529,1529,1537,1549,1549,1549,0,1572,1572,1601,1601,0,0,1630,1630,1630,1630,1630,1630,0,0,0,0,1648,1648,0,0,0,0,0,0,0,0,0,0,1693,1693,1693,1684,1684,1684,1697,1688,1674,1674,1652,1652,1630,1630,0,0,0,0,0,0,0,0,0,0,0,0,0,0,0,1601,1601,1601,1613,1613,1605,1605,1605,0,0,0,0,0,0,0,1613,1613,1656,1656,1693,1712,1643,1643,1731,1731,1736,1755,1716,1716,1716,1731,1740,1740,1755,1781,1781,1812,1861,1861,1925,1955,1955,1974,2000,2000,2013,2019,2013,2013,2006,1993,1993,1974,1974,1955,1937,1937,1913,1895,1895,1878,1878,1861,1844,1844,1839,1839,1833,1828,1828,1823,1823,1823,1823,1823,1812,1801,1801,1791,1791,1781,1765,1765,1755,1740,1740,1726,1726,1712,1702,1702,1693,1693,1684,1674,1674,1661,1661,1648,1639,1639,1626,1617,1617,1605,1605,1597,1597,1597,1592,1592,1592,1592,1592,1592,1592,1597,1597,1601,1605,1605,1617,1617,1626,1635,1635,1643,1652,1652,0,0,0,0,0,1839,1833,1833,1823,1823,1812,1807,1807,1796,1770,1770,1770,0,0,0,0,1716,1716,1712,1707,1707,1702,1697,1697,1693,1693,1688,1684,1684,1674,1674,1661,1661,0,0,1630,1630,1626,1626,1626,1630,1635,1635,1635,1635,1635,1635,1635,1639,1639,1639,1639,1639,1639,0,0,0,0,0,0,0,0,0,0,0,0,0,0,0,0,0,0,0,0,0,0,0,0,0,0,0,0,0,0,0,0,0,0,0,0,0,0,0,0,0,0,0,0,0,0,0,0,0,0,0,0,0,0,0,0,0,0,0,0,0,0,0,0,0,0,0,0,0,0,2970,2970,2970,0,0,0,0,0
1622,1622,1609,1605,1605,1605,1609,1609,0,0,0,0,0,0,1665,1665,1665,1679,1679,1693,1712,1712,1712,1716,1716,1721,0,0,0,0,0,0,0,0,0,0,0,0,0,0,0,0,0,0,0,0,0,0,0,0,0,0,0,0,0,0,0,0,0,1407,1404,1404,1404,0,0,0,0,0,0,0,0,0,0,1370,1370,1370,0,0,0,0,0,0,0,0,0,0,0,0,0,0,0,0,0,0,0,0,0,0,0,0,0,0,0,0,0,0,0,0,0,0,0,0,0,0,0,0,0,0,0,0,0,0,0,0,0,0,0,0,0,0,0,0,0,0,0,0,0,0,0,0,0,0,0,0,1290,1290,0,0,0,0,1306,1306,1282,1282,1277,1269,1269,1269,1269,1282,1282,1285,1285,1295,0,0,0,0,0,0,0,0,0,0,0,0,0,0,1605,1592,1592,1584,1584,1584,1572,1572,1564,1564,0,0,0,0,1564,1564,1529,1529,0,0,0,0,0,0,0,0,0,0,0,0,0,0,0,0,0,0,0,0,0,0,0,0,0,0,0,0,0,0,0,0,0,0,0,0,0,0,0,0,1507,1507,1560,1560,0,0,1564,1564,1597,1597,0,0,0,0,0,1635,1635,1617,1609,1609,1592,1592,1576,1556,1556,1545,1545,1529,1518,1518,1500,1500,1496,1496,1496,1492,1492,1500,1500,1507,1507,1507,0,1529,1529,1537,1537,1545,1545,1541,1541,1541,1537,1537,1537,1533,1533,1533,1533,1533,1537,1537,1537,1537,1541,1541,1545,1545,1541,1541,1533,1526,1526,1522,1522,1522,1522,1522,1511,1511,0,0,0,0,0,0,0,1630,1630,1630,1630,1630,1630,0,0,0,0,1648,1648,0,0,0,0,0,0,0,0,0,0,1693,1693,1693,1684,1684,1684,0,1688,1674,1674,1652,1652,1630,1630,0,0,0,0,0,0,0,0,0,0,0,0,0,0,0,1601,1601,1601,1613,1613,1605,1605,1605,0,0,0,0,0,0,0,0,0,0,0,0,0,1643,1643,1648,1648,1661,1661,1684,1697,1697,1707,1716,1716,1755,1781,1781,1812,1861,1861,1925,1955,1955,1974,2000,2000,2013,2019,2013,2013,2006,1993,1993,1974,1974,1955,1937,1937,1913,1895,1895,1878,1878,1861,1844,1844,1839,1839,1833,1828,1828,1823,1823,1823,1823,1823,1812,1801,1801,1791,1791,1775,1765,1765,1750,1740,1740,1721,1721,1712,1697,1697,1693,1693,1684,1674,1674,1661,1661,1648,1635,1635,1626,1613,1613,1601,1601,1592,1588,1588,1584,1584,1584,1584,1584,1584,1588,1588,1588,1592,1601,1601,1613,1613,1626,1630,1630,1639,1656,1656,0,0,0,0,0,1844,1839,1839,1828,1828,1823,1812,1812,1801,1770,1770,1770,0,0,0,0,1716,1716,1712,1707,1707,1702,1697,1697,1693,1693,1688,1684,1684,1674,1674,1661,1661,0,0,1630,1630,1626,1626,1626,1630,1635,1635,1635,1635,1635,1635,1635,1639,1639,1639,1639,1639,1639,0,0,0,0,0,0,0,0,0,0,0,0,0,0,0,0,0,0,0,0,0,0,0,0,0,0,0,0,0,0,0,0,0,0,0,0,0,0,0,0,0,0,0,0,0,0,0,0,0,0,0,0,0,0,0,0,0,0,0,0,0,0,0,0,0,0,0,0,0,0,2970,2970,2970,0,0,0,0,0
1622,1622,1609,1605,1605,1605,0,0,0,0,0,0,0,0,0,0,1679,1679,1679,1693,1712,1712,1712,1716,1716,1721,0,0,0,0,0,0,0,0,0,0,0,0,0,0,0,0,0,0,0,0,0,0,0,0,0,0,0,0,0,0,0,0,0,1407,1404,1404,1404,0,0,0,0,0,0,0,0,0,0,1370,1370,1370,0,0,0,0,0,0,0,0,0,0,0,0,0,0,0,0,0,0,0,0,0,0,0,0,0,0,0,0,0,0,0,0,0,0,0,0,0,0,0,0,0,0,0,0,0,1355,1355,1355,1376,1414,1414,1468,1468,1468,1485,1485,1485,1457,1457,1427,1427,1427,0,1376,1343,1343,1282,1282,1253,1253,1241,1241,1241,1233,1233,1233,1223,1223,1223,1219,1219,1219,1221,1221,1223,1226,1223,1223,1226,1226,1231,1231,0,0,0,0,0,0,0,0,0,0,0,0,0,0,0,0,0,0,0,0,0,0,0,0,0,0,1529,1529,0,0,0,0,0,0,0,0,0,0,0,0,0,0,0,0,0,0,0,0,0,0,0,0,0,0,0,0,0,0,0,0,0,0,0,0,0,0,0,0,1507,1507,1560,1560,0,0,1564,1564,1597,1597,0,0,0,0,0,1635,1635,1617,1609,1609,1592,1592,1576,1556,1556,1545,1545,1529,1518,1518,1500,1500,1496,1496,1496,1492,1492,1500,1500,1507,1507,1507,0,1529,1529,1537,1537,1545,1545,1541,1541,1541,1537,1537,1537,1533,1533,1533,1533,1533,1537,1537,1537,1537,1541,1541,1545,1545,1541,1541,1533,1526,1526,1522,1522,1522,1522,1522,1511,1511,1492,1492,1500,1500,1522,1522,1522,1533,1576,1576,1630,1630,1630,0,0,1601,1601,1588,1588,0,0,0,0,0,0,0,0,0,0,1693,1693,1665,1639,1639,1639,0,0,0,0,1511,1511,1468,1468,1437,1437,1385,1385,0,0,0,0,0,0,0,0,0,0,0,1549,1549,1549,1584,0,0,0,0,0,0,0,0,0,0,0,0,0,0,0,0,0,0,1648,1648,1648,1661,1661,1684,1697,1697,1707,1716,1716,0,0,0,0,0,0,0,0,1974,1974,2000,2000,2013,2019,2013,2013,2006,1993,1993,1968,1955,1955,1937,1937,1913,1889,1889,1872,1872,1855,1839,1839,1833,1833,1828,1823,1823,1817,1817,1817,1817,1823,1812,1801,1801,1786,1786,1775,1765,1765,1750,1740,1740,1721,1721,1712,1697,1697,1693,1693,1684,1674,1674,1661,1661,1643,1635,1635,1622,1609,1609,1601,1601,1592,1588,1588,1584,1584,1584,1584,1584,1584,1588,1588,1588,1592,1601,1601,1613,1613,1626,1630,1630,1639,1656,1656,0,0,0,0,0,1850,1844,1844,1833,1828,1828,1812,1812,1801,1770,1770,1770,0,0,0,0,1712,1712,1712,1707,1707,1697,1693,1693,1688,1688,1688,1684,1684,1670,1670,1656,1656,0,0,1626,1626,1622,1622,1622,1626,1630,1630,1630,1630,1630,1630,1630,1635,1639,1639,1639,1639,1639,0,0,0,0,0,0,0,0,0,0,0,0,0,0,0,0,0,0,0,0,0,0,0,0,0,0,0,0,0,0,0,0,0,0,0,0,0,0,0,0,0,0,0,0,0,0,0,0,0,0,0,0,0,0,0,0,0,0,0,0,0,0,0,0,0,0,0,0,0,0,2970,2970,2970,0,0,0,0,0
1609,1609,1601,1592,1592,1580,1580,1580,0,0,0,0,0,0,0,0,0,0,0,0,0,0,0,0,0,0,0,0,0,0,0,0,0,0,0,0,0,0,0,0,0,0,0,0,0,0,0,0,0,0,0,0,0,0,0,0,0,0,0,0,0,0,0,0,0,0,0,0,0,0,0,0,0,0,0,0,0,0,0,0,0,0,0,0,0,0,0,0,0,0,0,0,0,0,0,0,0,0,0,0,0,0,0,0,0,0,0,0,0,0,0,0,0,0,0,0,0,0,0,0,0,1355,1355,1355,1376,1414,1414,1468,1468,1468,1485,1485,1485,1457,1457,1427,1427,1427,0,1376,1343,1343,1282,1282,1253,1253,1241,1241,1241,1233,1233,1233,1223,1223,1223,1219,1219,1219,1221,1221,1223,1226,1223,1223,1226,1226,1231,1231,0,0,0,0,0,0,0,0,0,0,1434,1434,1434,1437,1437,1437,1437,1430,1430,1430,1427,1427,1427,1430,1434,1434,1440,1447,1447,1471,1500,1500,0,0,0,0,0,0,0,0,0,0,0,0,0,0,0,0,0,0,0,0,0,0,1376,1376,0,0,0,1343,1343,1349,1349,1349,1349,1349,0,1352,1352,1361,1361,1382,0,0,0,0,0,0,0,0,0,0,0,0,0,0,0,0,0,0,0,0,0,0,0,0,0,0,0,0,0,0,0,0,0,0,0,0,0,0,0,1529,1529,1537,1537,1545,1545,1541,1541,1541,1537,1537,1537,1533,1533,1533,1533,1533,1537,1537,1537,1537,1541,1541,1545,1545,1541,1541,1533,1526,1526,1522,1522,1522,1522,1522,1511,1511,1492,1492,1500,1500,1522,1522,1522,1533,1576,1576,0,0,0,0,0,1601,1601,1588,1588,0,0,0,0,0,0,0,0,0,0,0,0,1665,1639,1639,1639,0,0,0,0,1511,1511,1468,1468,1437,1437,1385,1385,0,0,0,0,0,0,0,0,0,0,0,1549,1549,1549,1584,0,0,0,0,1597,1597,1588,1588,0,0,0,1580,1580,0,1597,1597,0,0,1648,1648,1648,1661,1661,1661,1670,1670,1684,1693,1693,0,0,0,0,0,0,0,0,0,0,0,2013,2013,2019,2013,2013,2006,1993,1993,1968,1955,1955,1937,1937,1907,1889,1889,1867,1867,1850,1839,1839,1828,1828,1828,1823,1823,1817,1817,1817,1817,1823,1812,1801,1801,1786,1786,1775,1765,1765,1750,1740,1740,1721,1721,1712,1702,1702,1693,1693,1684,1674,1674,1661,1661,1643,1635,1635,1622,1609,1609,1597,1597,1588,1584,1584,1580,1580,1576,1576,1580,1580,1580,1584,1584,1588,1597,1597,1609,1609,1617,1626,1626,1635,1656,1656,0,0,0,0,0,1850,1844,1844,1833,1828,1828,1823,1823,1807,1775,1775,1755,1755,1736,1721,1721,1712,1712,1707,1702,1702,1697,1688,1688,1688,1688,1684,1679,1679,1665,1665,1656,1656,0,0,1626,1626,1622,1622,1622,1626,1630,1630,1630,1630,1630,1630,1630,1635,1639,1639,1639,1639,1639,0,0,0,0,0,0,0,0,0,0,0,0,0,0,0,0,0,0,0,0,0,0,0,0,0,0,0,0,0,0,0,0,0,0,0,0,0,0,0,0,0,0,0,0,0,0,0,0,0,0,0,0,0,0,0,0,0,0,0,0,0,0,0,0,0,0,0,0,0,0,2970,2970,2970,0,0,0,0,0
1605,1605,1601,1584,1584,1580,1580,1580,0,0,0,0,0,0,0,0,0,0,0,0,0,0,0,0,0,0,0,0,0,0,0,0,0,0,0,0,0,0,0,0,0,0,0,0,0,0,0,0,0,0,0,0,0,0,0,0,0,1332,1332,1332,1332,1323,1323,0,0,0,0,0,0,0,0,0,0,0,0,0,0,0,0,0,0,0,0,0,0,0,0,0,0,1193,1193,0,0,0,0,0,1221,1221,1219,1219,0,0,0,0,0,0,0,0,0,0,0,0,0,0,0,0,0,0,0,0,0,0,0,0,0,0,0,0,0,0,0,0,0,0,0,0,0,0,0,1376,1343,1343,1282,1282,1253,1253,1241,1241,1197,1197,1233,1233,1223,1223,1223,1219,1219,1219,1221,1221,1223,1226,1223,1223,1226,1226,1231,1231,0,0,0,0,0,0,0,0,0,1382,1382,1382,1385,1395,1395,1398,1398,1398,1388,1388,1388,1427,1427,1401,1401,1401,1404,1411,1411,1434,1500,1500,0,0,0,0,0,0,0,0,0,0,0,0,0,0,0,0,0,0,0,0,0,0,1376,1376,0,0,0,1343,1343,1349,1349,1349,1349,1349,0,1352,1352,1361,1361,1382,0,0,0,0,0,0,0,0,0,0,0,0,0,0,0,1489,1482,1482,1482,1482,1471,1468,1468,1461,1454,1454,1450,1450,1450,1450,1454,1454,1457,1461,1461,1464,1464,1464,1468,1468,1478,1478,1478,1482,1482,1471,1471,1471,1461,1461,1461,1464,1461,1461,1461,1461,1471,1471,1471,1471,1471,1478,1482,1482,0,0,0,0,0,0,0,0,0,0,0,0,0,0,0,0,0,0,0,0,0,0,0,0,0,0,0,0,0,0,0,0,0,0,0,0,0,0,0,0,0,0,0,1665,1639,1639,1639,0,0,0,0,1511,1511,1468,1468,1437,1437,1385,1385,0,0,0,0,0,0,0,0,0,0,0,1549,1549,1549,1584,0,0,0,0,1597,1597,1588,1588,0,0,0,1580,1580,0,1597,1597,0,0,0,0,0,0,1661,1661,1670,1670,1684,1693,1693,0,0,0,0,0,0,0,0,0,0,0,2019,2019,2019,2013,2013,2006,1993,1993,1968,1955,1955,1937,1937,1907,1889,1889,1867,1867,1850,1839,1839,1828,1828,1823,1817,1817,1817,1817,1817,1817,1817,1807,1801,1801,1786,1775,1775,1765,1765,1750,1740,1740,1721,1721,1712,1702,1702,1693,1693,1684,1674,1674,1661,1643,1643,1635,1635,1617,1605,1605,1592,1592,1584,1580,1580,1576,1576,1572,1572,1572,1572,1576,1580,1580,1588,1588,1588,1605,1605,1613,1617,1617,1635,1648,1648,0,0,0,0,0,1855,1844,1844,1833,1828,1828,1823,1823,1812,1781,1781,1755,1755,1736,1721,1721,1712,1712,1707,1702,1702,1697,1688,1688,1688,1688,1684,1679,1679,1665,1665,1656,1656,0,0,1617,1617,1617,1617,1617,1617,1622,1622,1626,1626,1626,1626,1626,1630,1635,1635,1635,1635,1635,0,0,0,0,0,0,0,0,0,0,0,0,0,0,0,0,0,0,0,0,0,0,0,0,0,0,0,0,0,0,0,0,0,0,0,0,0,0,0,0,0,0,0,0,0,0,0,0,0,0,0,0,0,0,0,0,0,0,0,0,0,0,0,0,0,0,0,0,0,0,0,0,0,0,0,0,0,0
1605,1605,1605,1584,1584,1576,1576,1564,1564,1564,1560,1560,1560,1564,0,0,0,0,0,0,0,0,0,0,0,0,0,0,0,0,0,0,0,0,0,0,0,0,0,0,0,0,0,0,0,0,0,0,0,0,0,0,0,0,0,0,0,1332,1332,1332,1332,1323,1323,0,0,0,0,0,0,0,0,0,0,0,0,0,0,0,0,0,0,0,0,0,0,0,0,0,0,1193,1193,0,0,0,0,0,1221,1221,1219,1219,0,0,0,0,0,0,0,0,0,0,0,0,0,0,0,0,0,0,0,0,0,0,0,0,0,0,0,0,0,0,1130,1130,1123,1123,1121,1115,1115,1111,1111,1111,1121,1130,1130,1140,1146,1146,0,0,1197,1197,0,1181,1181,1184,1184,1186,1186,1188,1193,1193,1200,1202,1202,1204,1204,1209,0,0,0,0,0,0,0,0,0,0,0,1382,1382,1382,1385,1395,1395,1398,1398,1398,1388,1388,1388,0,0,1401,1401,1401,1404,1411,1411,1434,0,0,0,0,0,0,0,0,0,0,0,0,0,0,0,0,0,0,0,0,0,0,0,0,1376,1376,0,0,0,1343,1343,1349,1349,1349,1349,1349,0,1352,1352,1361,1361,1382,0,0,0,0,0,0,0,0,0,0,0,0,1468,1468,0,1489,1464,1464,1464,1468,1457,1457,1468,1450,1450,1444,1444,1450,1450,1450,1454,1454,1457,1461,1461,1464,1464,1464,1468,1468,1478,1478,1478,1482,1482,1471,1471,1471,1461,1461,1461,1464,1461,1461,1461,1461,1471,1471,1471,1471,1471,1478,1482,1482,1485,1485,1482,1482,1471,1461,1461,1454,1440,1440,1424,1424,1424,0,0,1407,1407,1407,1411,1411,1411,1450,1450,1450,1464,1471,1471,1482,1482,1482,0,0,0,0,0,0,0,0,0,0,0,0,1489,1489,0,0,0,1447,1447,0,0,0,1392,1392,1361,1337,1337,1320,1320,1317,1317,0,0,0,0,0,0,0,0,0,0,0,0,0,0,0,0,0,0,0,0,0,0,0,0,0,0,0,0,0,0,0,0,0,0,0,0,1670,1670,1670,1684,1693,1693,0,0,0,0,0,0,0,0,0,0,0,2019,2019,2019,2013,2013,2006,1993,1993,1968,1955,1955,1937,1937,1907,1884,1884,1861,1861,1844,1833,1833,1823,1823,1823,1817,1817,1812,1812,1812,1812,1812,1807,1796,1796,1786,1775,1775,1760,1760,1750,1740,1740,1726,1726,1712,1702,1702,1693,1693,1684,1674,1674,1661,1643,1643,1635,1635,1617,1605,1605,1592,1592,1584,1580,1580,1576,1576,1572,1572,1572,1572,1576,1580,1580,1588,1588,1588,1605,1605,1613,1617,1617,1648,1648,1648,0,0,0,0,0,1855,1844,1844,1833,1828,1828,1823,1823,1807,1775,1775,1755,1755,1736,1721,1721,1712,1712,1702,1697,1697,1693,1688,1688,1684,1684,1684,1674,1674,1661,1661,0,0,0,0,1613,1613,1613,1613,1613,1613,1617,1617,1622,1622,1622,1626,1626,1626,1630,1630,1635,1635,1635,0,0,0,0,0,0,0,0,0,0,0,0,0,0,0,0,0,0,0,0,0,0,0,0,0,0,0,0,0,0,0,0,0,0,0,0,0,0,0,0,0,0,0,0,0,0,0,0,0,0,0,0,0,0,0,0,0,0,0,0,0,0,0,0,0,0,0,0,0,0,0,0,0,0,0,0,0,0
1605,1605,1601,1584,1584,1576,1576,1564,1564,1564,1560,1560,1560,1564,1572,1572,1580,1588,1588,1597,1605,1605,1609,1609,1609,1609,1609,0,0,0,0,0,0,0,0,0,0,0,0,0,0,0,0,0,0,0,0,0,0,0,0,0,0,0,0,0,0,0,0,0,0,0,0,0,0,0,0,0,0,0,0,0,0,0,0,0,0,0,0,0,0,0,0,0,0,0,0,0,1207,1193,1193,0,0,1214,1214,1214,1221,1221,1219,1219,0,0,0,0,0,0,0,0,1204,1204,0,0,0,0,1175,1175,1175,1181,1181,1181,0,0,0,0,0,0,0,0,0,0,1130,1130,1123,1123,1121,1115,1115,1111,1111,1111,1121,1130,1130,1140,1146,1146,0,0,0,0,0,1181,1181,1184,1184,1186,1186,1188,1193,1193,1200,1202,1202,1204,1204,1209,0,1226,1226,1231,1231,0,0,0,0,0,1340,1340,1382,1364,1364,1395,1376,1376,1379,1379,1388,1370,1370,1376,1376,1385,1385,1385,1404,1411,1411,1434,0,0,0,0,0,0,0,0,0,0,0,0,0,0,0,0,0,0,0,0,0,0,0,0,0,0,0,0,0,0,0,0,0,0,0,0,0,0,0,0,0,0,0,0,0,0,0,0,0,0,0,0,0,0,1468,1468,0,0,1464,1464,1464,1468,1457,1457,0,1450,1450,1444,1440,1440,1440,1440,1444,1444,1444,1447,1447,1454,1454,1454,1457,1457,1461,1461,1461,1482,1482,1471,1471,1471,1447,1447,1447,1447,1447,1447,1447,1447,1457,1457,1457,1457,1457,1464,1471,1471,1475,1475,1471,1471,1468,1457,1457,1450,1440,1440,1424,1424,1424,0,0,1407,1407,1407,1411,1411,1411,1427,1450,1450,1464,1471,1471,1482,1482,1482,0,0,0,0,0,0,0,0,0,0,0,0,1489,1489,0,0,0,1447,1447,0,0,0,1392,1392,1361,1337,1337,1320,1320,1317,1309,1309,1301,1301,1298,1298,1317,1317,0,0,0,0,0,0,0,0,0,0,0,0,0,0,0,0,0,0,0,1392,1392,1385,1385,1395,1395,1420,1444,1444,1464,1492,1492,1522,1545,1545,1568,1588,1588,1626,0,0,0,0,0,0,0,0,2019,2019,2026,2013,2006,2006,1987,1987,1968,1949,1949,1937,1937,1907,1884,1884,1861,1861,1844,1833,1833,1823,1823,1823,1817,1817,1812,1812,1812,1812,1812,1807,1796,1796,1786,1775,1775,1760,1760,1750,1740,1740,1726,1726,1712,1707,1707,1693,1693,1684,1674,1674,1661,1643,1643,1635,1635,1617,1605,1605,1588,1588,1580,1576,1576,1572,1572,1568,1568,1568,1568,1568,1576,1576,1580,1584,1584,1601,1601,1609,1617,1617,1648,1648,1648,0,0,0,0,0,1855,1839,1839,1833,1823,1823,1817,1817,1807,1775,1775,1755,1755,1736,1721,1721,1712,1712,1702,1697,1697,1693,1688,1688,1684,1684,1684,1674,1674,1661,1661,0,0,0,0,1613,1613,1613,1613,1613,1613,1617,1617,1622,1622,1622,1626,1626,1626,1630,1630,1635,1635,1635,0,0,0,0,0,0,0,0,0,0,0,0,0,0,0,0,0,0,0,0,0,0,0,0,0,0,0,0,0,0,0,0,0,0,0,0,0,0,0,0,0,0,0,0,0,0,0,0,0,0,0,0,0,0,0,0,0,0,0,0,0,0,0,0,0,0,0,0,0,0,0,0,0,0,0,0,0,0
1609,1609,1601,1588,1588,1576,1576,1576,1568,1568,1564,1564,1568,1568,1572,1572,1580,1588,1588,1597,1605,1605,1609,1609,1609,1609,1609,0,0,0,0,0,0,0,0,0,0,0,0,0,0,0,0,0,0,0,0,0,0,0,0,0,0,0,0,0,0,0,0,0,0,0,0,0,1306,1306,0,1285,1285,1271,1271,1253,1241,1241,1228,1228,0,0,0,1200,1193,1193,1186,1186,1186,1193,1202,1202,1204,1207,1207,0,0,1214,1214,1214,0,0,0,0,0,0,0,0,0,0,0,0,1204,1204,0,0,0,0,1175,1175,1175,1181,1181,1181,0,0,0,0,0,0,0,1204,1204,1209,1130,1130,1123,1123,1121,1115,1115,1111,1111,1111,1121,1130,1130,1134,1140,1140,1142,1151,1151,1151,1155,1155,1161,1161,1161,1170,1170,1175,1181,1181,1186,1190,1190,1195,1195,1200,1207,1207,1219,1226,1226,1238,1256,1256,1285,1309,1309,1332,1346,1346,1352,1364,1361,1361,1379,1364,1364,1364,1364,1364,1364,1370,1385,1385,0,0,0,0,0,0,0,0,0,0,0,0,0,0,0,0,0,0,0,0,0,0,0,0,0,0,0,0,0,0,0,0,0,0,0,0,0,0,0,0,0,0,0,0,0,0,0,0,0,0,0,0,0,0,0,0,0,0,1468,1468,0,0,1464,1464,1464,1468,1457,1457,0,1450,1450,1444,1440,1440,1440,1440,1444,1444,1444,1447,1447,1454,1454,1454,1457,1457,1461,1461,1461,0,0,0,0,1437,1434,1434,1434,1447,1447,1447,1447,1447,1457,1457,1457,1457,1457,1464,1471,1471,1475,1475,1471,1471,1468,1457,1457,1450,1450,0,0,0,0,0,0,1420,1420,1420,1427,0,1427,1427,0,1464,1464,1471,1471,1482,1482,1482,0,0,0,0,0,0,0,0,0,0,0,0,1489,1489,1461,1437,1437,1417,1417,1398,1398,0,1392,1392,1361,1337,1337,1320,1320,1317,1309,1309,1301,1301,1298,1298,1317,1317,0,0,0,0,0,0,0,0,0,0,0,0,0,0,0,0,0,0,0,1392,1392,1385,1385,1395,1395,1420,1444,1444,1464,1492,1492,1522,1545,1545,1568,1588,1588,1626,0,0,0,0,0,0,0,0,2026,2026,2026,2019,2006,2006,1987,1987,1968,1949,1949,1931,1931,1907,1878,1878,1855,1855,1844,1828,1828,1817,1817,1817,1812,1812,1812,1807,1807,1807,1807,1801,1791,1791,1781,1770,1770,1755,1755,1745,1736,1736,1726,1726,1712,1707,1707,1697,1688,1688,1674,1674,1661,1643,1643,1630,1630,1617,1601,1601,1588,1588,1576,1572,1572,1568,1564,1564,1564,1564,1564,1568,1572,1572,1580,1584,1584,1601,1601,1609,1617,1617,1652,1652,1652,0,0,0,0,0,0,1839,1839,1833,1823,1823,1817,1817,1807,1775,1775,1775,0,0,1721,1721,1712,1712,1702,1697,1697,1693,1688,1688,1684,1684,1679,1674,1674,1656,1656,0,0,0,0,1613,1613,1609,1609,1609,1613,1617,1617,1617,1622,1622,1622,1622,1626,1630,1630,1635,1635,1635,0,0,0,0,0,0,0,0,0,0,0,0,0,0,0,0,0,0,0,0,0,0,0,0,0,0,0,0,0,0,0,0,0,0,0,0,0,0,0,0,0,0,0,0,0,0,0,0,0,0,0,0,0,0,0,0,0,0,0,0,0,0,0,0,0,0,0,0,0,0,0,0,0,0,0,0,0,0
1609,1609,1601,1588,1588,1576,1576,1576,1568,1568,1564,1564,1568,1568,1572,1572,1580,1588,1588,1597,1605,1605,1609,1609,1609,1609,1609,0,0,0,0,0,0,0,0,0,0,0,0,0,0,0,0,0,0,0,0,0,0,0,0,0,0,0,0,0,0,0,0,0,0,0,0,0,1306,1306,0,1285,1285,1271,1271,1253,1241,1241,1228,1228,0,0,0,1200,1193,1193,1186,1186,1186,1193,1202,1202,1204,1207,1207,1214,1211,1211,1214,1214,1219,1223,1221,1221,0,0,0,0,0,0,0,0,1204,1204,0,0,0,0,1175,1175,1175,1181,1181,1181,0,0,1207,1207,1197,1190,1190,1190,1190,1190,1132,1132,1125,1125,1125,0,0,1117,1117,1119,1119,1119,1119,1123,1125,1125,1127,1134,1134,1136,1136,1138,1144,1144,1161,1170,1170,1175,1181,1181,1186,1190,1190,1195,1195,1200,1207,1207,1219,1226,1226,1238,1256,1256,1285,1309,1309,1332,1346,1346,1352,1364,1361,1361,0,1364,1364,1364,1364,1364,1364,1370,1385,1385,0,0,0,0,0,0,0,0,0,0,0,0,0,0,0,0,0,0,0,0,0,0,0,0,0,0,0,0,0,0,0,0,0,0,0,0,0,0,0,0,0,0,0,0,0,0,0,0,0,0,0,0,0,0,0,0,0,0,0,0,0,0,0,0,0,0,0,0,0,0,0,0,0,0,0,0,0,0,0,0,0,0,0,0,0,0,0,0,0,0,0,0,0,1437,1434,1434,1434,1437,1437,1437,1447,1447,1457,1457,1457,1457,1457,1464,1471,1471,1475,1475,1471,1471,1468,1457,1457,1450,1450,0,0,0,0,0,0,1420,1420,1420,1427,0,1427,1427,0,0,0,0,0,0,0,0,0,0,0,0,0,0,0,0,0,0,0,0,0,0,1461,1437,1437,1417,1417,1398,1398,0,0,0,0,0,0,0,0,0,0,0,0,0,0,0,0,0,0,0,0,0,0,0,0,0,0,0,0,0,0,0,0,0,0,0,0,1392,1392,1385,1385,1395,1395,1420,1444,1444,1457,1492,1492,1496,1545,1545,1568,1588,1588,1588,1588,1588,1731,0,0,0,2026,2026,2026,2026,2026,2019,2006,2006,1987,1987,1968,1949,1949,1925,1925,1901,1872,1872,1855,1855,1839,1828,1828,1817,1817,1812,1807,1807,1807,1807,1807,1801,1801,1796,1786,1786,1781,1770,1770,1755,1755,1745,1736,1736,1726,1726,1716,1712,1712,1702,1688,1688,1674,1674,1661,1648,1648,1630,1630,1617,1601,1601,1588,1588,1576,1572,1572,1568,1564,1564,1564,1564,1564,1568,1572,1572,1576,1580,1580,1597,1597,1601,1613,1613,1639,1639,1639,0,0,0,0,0,0,1839,1839,1833,1823,1823,1812,1812,1796,1770,1770,1770,0,0,1716,1716,1707,1707,1697,1697,1697,1693,1684,1684,1679,1679,1679,1670,1670,1656,1656,0,0,0,0,1609,1609,1609,1609,1609,1613,1617,1617,1617,1622,1622,1622,1622,1626,1630,1630,1635,0,0,0,0,0,0,0,0,0,0,0,0,0,0,0,0,0,0,0,0,0,0,0,0,0,0,0,0,0,0,0,0,0,0,0,0,0,0,0,0,0,0,0,0,0,0,0,0,0,0,0,0,0,0,0,0,0,0,0,0,0,0,0,0,0,0,0,0,0,0,0,0,0,0,0,0,0,0,0,0
1609,1609,1601,1592,1592,1584,1584,1580,1572,1572,1568,1568,1572,1572,1580,1580,1584,1588,1588,1597,1609,1609,1609,0,0,0,0,0,0,0,0,0,0,0,0,0,0,0,0,0,0,0,0,0,0,0,0,0,0,0,0,0,0,0,0,0,0,0,0,0,0,0,0,0,1306,1306,0,1285,1285,1271,1271,1253,1241,1241,1228,1228,0,0,0,1200,1193,1193,1186,1186,1186,1193,1202,1202,1204,1207,1207,1214,1200,1188,1188,1188,1190,1177,1166,1166,1166,1168,0,1136,1136,1121,1121,0,0,0,0,0,0,0,0,0,0,0,0,0,0,0,1207,1207,1197,1190,1190,1190,1190,1190,1132,1132,1125,1125,1125,0,0,1117,1117,1119,1119,1119,1119,1123,1125,1125,1127,1134,1134,1136,1136,1138,1144,1144,1146,1155,1155,1157,1164,1164,1170,1177,1177,1181,1181,1188,1195,1195,1209,1221,1221,1233,1256,1256,1285,1309,1309,1332,1346,1346,1352,1364,1361,1361,1364,1364,1364,1361,1361,1364,1364,1367,1376,1376,1385,0,0,0,0,0,0,0,0,0,0,0,0,0,0,0,0,0,0,0,0,0,0,0,0,0,0,0,0,0,0,0,0,0,0,0,0,0,0,0,0,0,0,0,0,0,0,0,0,0,0,0,0,0,0,0,0,0,0,0,0,0,0,0,1401,1401,1401,1417,1434,1434,1434,1430,1430,1430,1427,1427,1434,1434,1440,1444,1444,1450,1447,1447,1447,1444,1437,1437,1437,0,0,0,0,1427,1427,1427,1427,1430,1430,1434,1437,1437,1444,1447,1447,1450,1450,1454,1461,1461,1464,1464,1461,1461,1454,1434,1434,1424,1424,1376,1364,1364,1364,0,0,0,0,0,0,0,0,0,0,0,0,0,0,0,0,0,0,0,0,0,0,0,0,0,0,0,0,0,0,0,0,0,0,1417,1417,1398,1358,1358,1340,1340,1323,1303,1303,1303,0,0,1295,1295,1293,1293,1293,1293,0,0,0,0,0,0,0,0,0,0,0,0,0,0,0,0,0,0,0,0,0,0,0,0,0,0,0,1447,1447,1447,1457,0,1496,1496,0,0,0,0,0,1588,1588,1588,1731,0,0,0,2026,2026,2026,2026,2026,2019,2006,2006,1987,1987,1968,1949,1949,1925,1925,1901,1872,1872,1855,1855,1839,1828,1828,1817,1817,1812,1807,1807,1807,1807,1807,1801,1801,1796,1786,1786,1781,1770,1770,1755,1755,1745,1736,1736,1726,1726,1716,1712,1712,1702,1688,1688,1674,1674,1661,1648,1648,1630,1630,1613,1601,1601,1584,1584,1576,1568,1568,1564,1560,1560,1560,1564,1564,1564,1568,1568,1576,1576,1576,1592,1592,1597,1609,1609,1635,1635,1635,0,0,0,0,0,0,1828,1828,1823,1823,1823,1807,1807,1796,1770,1770,1770,0,0,1716,1716,1707,1707,1697,1697,1697,1693,1684,1684,1679,1679,1679,1670,1670,1656,1656,0,0,0,0,1609,1609,1609,1609,1609,1613,1617,1617,1617,1622,1622,1622,1622,1622,1626,1626,1630,0,0,0,0,0,0,0,0,0,0,0,0,0,0,0,0,0,0,0,0,0,0,0,0,0,0,0,0,0,0,0,0,0,0,0,0,0,0,0,0,0,0,0,0,0,0,0,0,0,0,0,0,0,0,0,0,0,0,0,0,0,0,0,0,0,0,0,0,0,0,0,0,0,0,0,0,0,0,0,0
1613,1613,1605,1597,1597,1588,1588,1588,1580,1580,1580,1580,1584,1584,1588,1588,1588,1588,1588,1597,1609,1609,1609,1613,1613,0,0,0,0,0,0,0,0,0,0,0,0,0,0,0,0,0,0,0,0,0,0,0,0,0,0,0,0,0,0,0,0,0,0,0,0,1317,1315,1315,1303,1303,0,1279,1279,1269,1253,1253,1243,1243,1236,1236,0,0,0,0,1193,1193,1190,1190,1190,1195,1204,1204,1204,1207,1207,1214,1200,1188,1188,1188,1190,1177,1166,1166,1166,1168,0,1136,1136,1121,1121,0,0,0,0,0,0,0,0,0,0,0,0,0,1065,1065,1207,1207,1082,1082,1082,1086,1086,1088,1132,1132,1092,1092,1092,1094,1095,1095,1095,1094,1094,1094,1094,1097,1099,1099,1103,1103,1107,1109,1109,1115,1119,1119,1123,1130,1130,1134,1134,1140,1144,1144,1153,1159,1159,1166,1175,1175,1190,1204,1204,1221,1246,1246,1266,1290,1290,1315,1332,1332,1352,1364,1361,1361,1364,1364,1364,1361,1361,1364,1364,1367,1376,1376,1385,0,0,0,0,0,0,0,0,0,0,0,0,0,0,0,0,0,0,0,0,0,0,0,0,0,0,0,0,0,0,0,0,0,0,0,0,0,0,0,0,0,0,0,0,0,0,0,0,0,0,0,0,0,0,0,0,0,0,0,0,0,0,0,1401,1401,1401,1417,1427,1427,1427,1424,1420,1420,1417,1417,1420,1420,1424,1434,1434,1437,1437,1437,1437,1437,1437,1437,1437,0,0,0,0,1427,1427,1427,1427,1430,1430,1434,1437,1437,1444,1447,1447,1450,1450,1454,1461,1461,1464,1464,1461,1461,1454,1434,1434,1424,1424,1376,1364,1364,1337,1337,1337,1332,1332,1332,0,0,1352,1352,1352,0,0,0,0,0,0,0,0,0,0,0,0,0,0,0,0,0,0,0,0,0,0,0,0,0,0,0,1337,1337,1326,1326,1312,1295,1295,1287,1287,1287,1287,1287,1287,1287,1293,1293,0,0,0,0,0,0,0,0,0,0,0,0,0,0,0,0,0,0,0,0,0,0,0,0,0,0,0,0,0,0,0,0,0,0,0,0,0,0,0,0,0,0,0,0,0,0,2026,2026,2026,2026,2026,2013,2000,2000,1987,1987,1961,1943,1943,1919,1919,1895,1872,1872,1850,1850,1833,1823,1823,1817,1817,1812,1807,1807,1807,1801,1801,1801,1801,1791,1786,1786,1775,1765,1765,1755,1755,1745,1736,1736,1726,1726,1716,1712,1712,1702,1688,1688,1674,1674,1661,1648,1648,1630,1630,1609,1597,1597,1584,1584,1576,1568,1568,1564,1560,1560,1560,1564,1564,1564,1568,1568,1576,1576,1576,1592,1592,1597,1609,1609,1635,1635,1635,0,0,0,0,0,0,1828,1828,1823,1823,1823,1807,1807,1791,1765,1765,1765,0,0,1716,1716,1702,1702,1697,1693,1693,1688,1679,1679,1674,1674,1674,1665,1665,1652,1652,0,0,0,1617,1609,1609,1609,1609,1609,1613,1617,1617,1617,1617,1617,1622,1622,1622,1626,1626,1626,0,0,0,0,0,0,0,0,0,0,0,0,0,0,0,0,0,0,0,0,0,0,0,0,0,0,0,0,0,0,0,0,0,0,0,0,0,0,0,0,0,0,0,0,0,0,0,0,0,0,0,0,0,0,0,0,0,0,0,0,0,0,0,0,0,0,0,0,0,0,0,0,0,0,0,0,0,0,0,0
1613,1613,1605,1597,1597,1588,1588,1588,1580,1580,1580,1580,1584,1584,1588,1588,1592,1597,1597,1601,1613,1613,1613,1613,1613,0,0,0,0,0,0,0,0,0,0,0,0,0,0,0,0,0,0,0,0,0,0,0,0,0,0,0,0,0,0,0,0,0,0,0,0,1317,1315,1315,1303,1303,0,1279,1279,1269,1253,1253,1243,1243,1236,1236,0,0,0,0,1193,1193,1190,1190,1190,1195,1204,1204,1204,1204,1204,1211,1200,1188,1188,1188,1190,1177,1166,1166,1166,1168,1209,1136,1136,1121,1121,0,0,0,0,0,0,0,0,0,0,0,0,0,1065,1065,0,0,1076,1076,1076,1080,1080,1082,1086,1086,1086,1090,1090,1092,1092,1092,1092,1090,1090,1094,1094,1097,1099,1099,1103,1103,1107,1109,1109,1115,1119,1119,1123,1130,1130,1134,1134,1140,1144,1144,1153,1159,1159,1166,1175,1175,1190,1204,1204,1221,1246,1246,1266,1290,1290,1315,1332,1332,1340,1346,1346,1346,1349,1346,1346,1346,1346,1349,1349,1352,1358,1358,1364,1367,1367,0,0,0,0,0,0,0,0,0,0,0,0,0,0,0,0,0,0,0,0,0,0,0,0,0,0,0,0,0,0,0,0,0,0,0,1274,1274,0,0,0,0,0,0,0,0,0,0,0,0,0,0,0,0,0,0,0,0,0,0,0,0,0,0,0,1427,1427,1427,1427,1424,1420,1420,1417,1417,1420,1420,1424,1434,1434,1437,1437,1437,1437,1437,1434,1434,1434,1437,1437,1437,1437,1427,1427,1427,1427,1430,1430,1434,1434,1434,1440,1440,1440,1444,1444,1447,1454,1454,1457,1457,1457,1457,1454,1434,1434,1424,1424,1376,1364,1364,1337,1337,1332,1332,1332,1332,1337,1346,1346,1352,1352,1401,1401,1401,0,0,0,0,0,0,0,0,0,0,0,0,0,0,0,0,0,0,0,0,0,0,0,0,1337,1337,1326,1326,1312,1295,1295,1287,1287,1287,1287,1287,1287,1287,0,0,0,0,0,0,0,0,0,0,0,0,0,0,0,0,0,0,0,0,0,0,0,0,0,0,0,0,0,0,0,0,0,0,0,0,0,0,0,0,0,0,0,0,0,0,0,0,0,0,2026,2019,2019,2006,1993,1993,1980,1980,1955,1937,1937,1913,1913,1889,1867,1867,1844,1844,1833,1823,1823,1817,1812,1812,1807,1807,1807,1801,1801,1801,1801,1791,1786,1786,1775,1765,1765,1755,1755,1745,1736,1736,1726,1726,1716,1712,1712,1702,1688,1688,1674,1674,1661,1648,1648,1630,1630,1609,1597,1597,1580,1580,1572,1568,1568,1560,1560,1560,1560,1560,1560,1560,1564,1564,1572,1576,1576,1588,1588,1592,1605,1605,1630,1630,1630,0,0,0,0,0,0,1823,1823,1817,1812,1812,1801,1801,1786,1765,1765,1765,0,1726,1712,1712,1702,1702,1697,1693,1693,1688,1679,1679,1674,1674,1674,1661,1661,1652,1652,0,0,0,1617,1613,1613,1613,1613,1613,1613,1617,1617,1617,1617,1617,1622,1622,1622,1626,1626,1626,0,0,0,0,0,0,0,0,0,0,0,0,0,0,0,0,0,0,0,0,0,0,0,0,0,0,0,0,0,0,0,0,0,0,0,0,0,0,0,0,0,0,0,0,0,0,0,0,0,0,0,0,0,0,0,0,0,0,0,0,0,0,0,0,0,0,0,0,0,0,0,0,0,0,0,0,0,0,0,0
1622,1622,1613,1601,1601,1592,1592,1592,1592,1592,1588,1588,1592,1592,1601,1601,1601,1605,1605,1609,1617,1617,1617,1617,1617,0,0,0,0,0,0,0,0,0,0,0,0,0,0,0,0,0,0,0,0,0,0,0,0,0,0,0,0,0,0,0,0,1323,1323,1323,1315,1315,1309,1309,1303,1303,0,1274,1274,1264,1251,1251,1243,1243,1236,1236,0,0,0,0,1204,1204,1197,1197,1197,1202,1207,1207,1204,1204,1204,1211,1211,1211,1214,1214,1216,1221,1219,1214,1214,1209,1209,1204,1204,0,0,0,0,0,0,0,0,0,0,0,0,0,0,0,0,0,0,0,1076,1076,1076,1080,1080,1082,1086,1086,1086,1090,1090,1092,1092,1092,1092,1090,1090,1090,1090,1094,1095,1095,1099,1099,1103,1107,1107,1111,1115,1115,1121,1125,1125,1132,1132,1136,1140,1140,1146,1151,1151,1153,1161,1161,1175,1188,1188,1202,1221,1221,1238,1261,1261,1287,1306,1306,1317,1320,1320,1320,1317,1317,1317,1315,1315,1317,1317,1352,1317,1317,1364,1326,1326,1334,1334,0,0,0,0,0,0,0,0,0,0,0,0,0,0,0,0,0,0,0,0,0,0,0,0,0,0,0,0,0,0,0,0,0,1274,1274,0,0,0,0,0,0,0,0,0,0,0,0,0,0,0,0,0,0,0,0,0,0,0,0,0,0,0,1427,1427,1427,1427,1424,1420,1420,1417,1417,1420,1420,1424,1434,1434,1437,1437,1437,1437,1437,1434,1434,1434,1437,1437,1437,1437,1434,1434,1434,1434,1434,1434,1434,1434,1434,1440,1440,1440,1444,1444,1447,1454,1454,1457,1457,1457,1457,1454,1434,1434,1424,1424,1376,1364,1364,1337,1337,1332,1332,1332,1332,1337,1346,1346,1355,1355,1401,1401,1401,0,0,0,0,0,0,0,0,0,0,0,0,0,0,0,0,0,0,0,1392,1392,1364,1364,1343,1332,1332,1323,1323,1306,1293,1293,1285,1285,1285,1287,1287,1287,1285,1285,1285,1293,1293,1323,0,0,0,0,0,0,0,0,0,0,0,0,0,0,0,0,0,0,0,0,0,0,0,0,0,0,0,0,0,0,0,0,0,0,0,0,0,0,0,0,0,0,0,0,0,2026,2019,2019,2006,1993,1993,1980,1980,1955,1937,1937,1913,1913,1889,1867,1867,1844,1844,1833,1823,1823,1817,1812,1812,1807,1807,1807,1801,1801,1796,1796,1791,1786,1786,1775,1765,1765,1755,1755,1745,1736,1736,1726,1726,1716,1712,1712,1702,1688,1688,1674,1674,1661,1648,1648,1626,1626,1609,1592,1592,1580,1580,1572,1564,1564,1556,1556,1556,1556,1556,1556,1560,1564,1564,1572,1576,1576,1584,1588,1592,1597,1597,1613,1626,1626,0,0,0,0,0,0,1823,1823,1817,1812,1812,1801,1801,1786,1786,0,0,0,1726,1712,1712,1702,1702,1697,1693,1693,1688,1679,1679,1674,1674,1674,1661,1661,1652,1652,0,0,0,1617,1613,1613,1613,1613,1613,1613,1617,1617,1617,1617,1617,1617,1617,1622,1626,1626,1626,0,0,0,0,0,0,0,0,0,0,0,0,0,0,0,0,0,0,0,0,0,0,0,0,0,0,0,0,0,0,0,0,0,0,0,0,0,0,0,0,0,0,0,0,0,0,0,0,0,0,0,0,0,0,0,0,0,0,0,0,0,0,0,0,0,0,0,0,0,0,0,0,0,0,0,0,0,0,0,0
1643,1643,1643,1601,1601,1592,1592,1592,1592,1592,1588,1588,1592,1592,1601,1601,1601,1605,1605,1609,1613,1613,1617,1617,1617,0,0,0,0,0,0,0,0,0,0,0,0,0,0,0,0,0,0,0,0,0,0,0,0,0,0,0,0,0,0,0,0,1323,1323,1323,1315,1315,1309,1309,1309,0,0,1274,1274,1264,1251,1251,1246,1246,1241,1241,0,0,0,0,1211,1211,1207,1207,1209,1209,1216,1216,1214,1214,1214,1221,1223,1223,0,1231,1231,0,0,0,0,1209,1209,1204,1204,0,0,0,0,0,0,0,0,0,0,0,0,0,0,0,0,0,0,0,1076,1076,1076,1080,1080,1082,1086,1086,1086,1090,1090,1092,1092,1092,1092,1090,1090,1090,1090,1094,1095,1095,1099,1099,1103,1105,1105,1109,1113,1113,1115,1121,1121,1127,1127,1130,1134,1134,1140,1144,1144,1151,1161,1161,1175,1188,1188,1202,1221,1221,1238,1261,1261,1287,1306,1306,1317,1320,1320,1320,1317,1317,1317,1315,1315,1317,1317,0,1317,1317,0,1326,1326,1334,1334,0,0,0,0,0,0,0,0,0,0,0,0,0,0,0,0,0,0,0,0,0,0,0,1248,1248,1248,1251,1261,1261,1261,1261,1261,1264,1264,1269,1274,1271,1271,0,0,0,0,0,0,0,0,0,0,0,0,0,0,0,0,0,0,0,0,0,0,0,0,0,0,0,0,0,0,0,0,0,0,0,0,0,0,0,0,0,0,0,0,0,0,0,1444,1444,0,0,0,0,0,0,0,0,0,0,0,0,0,0,0,0,0,1457,1457,1457,1457,1457,1454,1434,1434,1424,1424,1376,1364,1364,1337,1337,1332,1332,1332,1332,1337,1346,1346,1355,1355,1401,1401,1401,0,0,0,0,0,0,0,0,0,0,0,0,0,0,0,0,0,0,0,1392,1392,1364,1364,1343,1332,1332,1323,1323,1306,1293,1293,1274,1274,1274,1274,1274,1274,1285,1285,1285,1293,1293,1323,0,0,0,0,0,0,0,0,0,0,0,0,0,0,0,0,0,0,0,0,0,0,0,0,0,0,0,0,0,0,0,0,0,0,0,0,0,0,0,0,0,0,0,2019,2019,2019,2013,2013,2000,1987,1987,1968,1968,1949,1931,1931,1901,1901,1884,1861,1861,1839,1839,1828,1823,1823,1817,1812,1812,1807,1807,1807,1801,1801,1796,1791,1791,1786,1786,1775,1765,1765,1755,1755,1745,1736,1736,1731,1721,1721,1716,1716,1702,1693,1693,1679,1679,1661,1648,1648,1626,1626,1609,1592,1592,1580,1580,1572,1564,1564,1556,1556,1556,1556,1556,1556,1560,1564,1564,1572,1576,1576,1584,1592,1592,1597,1597,1613,1626,1626,0,0,0,0,0,1823,1812,1812,1812,1812,1812,1796,1796,1781,1781,0,0,0,1721,1712,1712,1697,1693,1693,1693,1693,1684,1679,1679,1674,1674,1674,1661,1661,1648,1648,0,0,0,1622,1617,1617,1613,1613,1613,1613,1617,1617,1617,1617,1617,1617,1617,1622,1622,1622,1626,0,0,1622,1622,1622,1630,1630,0,0,0,0,0,0,0,0,0,0,0,0,0,0,0,0,0,0,0,0,0,0,0,0,0,0,0,0,0,0,0,0,0,0,0,0,0,0,0,0,0,0,0,0,0,0,0,0,0,0,0,0,0,0,0,0,0,0,0,0,0,0,0,0,0,0,0,0,0,0,0,0,0
1643,1643,1643,1639,1639,1630,1630,1630,1630,1630,1630,1626,1626,1626,1622,1622,1622,1622,1613,1613,1613,1613,0,0,0,0,0,0,0,0,0,0,0,0,0,0,0,0,0,0,0,0,0,0,0,0,0,0,0,0,0,0,0,0,0,0,0,0,0,0,0,0,0,0,0,0,0,1274,1274,1264,1251,1251,1246,1246,1241,1241,0,0,0,0,1211,1211,1207,1207,1209,1209,1216,1216,1214,1214,1214,1221,1223,1223,0,1231,1231,0,0,0,0,0,0,0,0,0,0,0,0,0,0,0,0,0,0,0,0,0,0,1001,1001,1037,1049,1049,1056,1067,1067,1071,1071,0,0,0,1092,1092,1092,1094,1094,1094,1094,1092,1092,1092,1092,1094,1097,1097,1099,1099,1103,1105,1105,1109,1113,1113,1115,1121,1121,1127,1127,1130,1134,1134,1140,1144,1144,1151,1157,1157,1172,1186,1186,1202,1221,1221,1238,1261,1261,1287,1306,1306,1317,1320,1320,1320,1317,1301,1301,1301,1315,1317,1317,0,1317,1317,0,1301,1298,1298,1298,0,0,0,0,0,0,0,0,0,0,0,0,0,0,0,0,0,0,0,0,0,0,0,1248,1248,1248,1251,1261,1261,1261,1261,1261,1264,1264,1269,1274,1271,1271,0,0,0,0,0,0,0,0,0,0,0,0,0,0,0,0,0,0,0,0,0,0,0,0,0,0,0,0,0,0,0,0,0,0,0,0,0,0,0,0,1404,1404,1404,0,0,1414,1414,1414,1430,0,0,0,0,0,0,0,0,0,0,0,0,0,0,0,0,0,0,0,0,0,0,0,0,0,0,0,0,0,0,0,0,0,0,0,0,0,0,0,0,0,0,0,0,0,0,0,0,0,0,0,0,0,0,0,0,0,0,0,0,0,0,0,0,0,0,0,0,0,0,0,0,0,0,0,1274,1274,1274,1274,1274,1274,1285,1285,1285,1293,1293,1323,0,0,0,0,0,0,0,0,0,0,0,0,0,0,0,0,0,0,0,0,0,0,0,0,0,0,0,0,0,0,0,0,0,0,0,0,0,0,0,0,0,0,0,2013,2013,2013,2006,2006,1993,1974,1974,1961,1961,1937,1919,1919,1895,1895,1884,1861,1861,1839,1839,1828,1823,1823,1823,1812,1812,1812,1812,1807,1807,1807,1801,1791,1791,1786,1786,1775,1765,1765,1755,1755,1745,1740,1740,1731,1721,1721,1716,1716,1702,1693,1693,1679,1679,1661,1643,1643,1626,1626,1609,1588,1588,1576,1576,1568,1564,1564,1556,1556,1556,1556,1556,1556,1560,1564,1564,1572,1572,1572,1580,1588,1588,1597,1597,1613,1626,1626,0,0,0,0,0,1817,1812,1812,1807,1807,1807,1791,1791,1770,1770,0,0,0,1716,1707,1707,1697,1693,1693,1688,1688,1684,1679,1679,1674,1674,1674,1661,1661,1648,1648,0,0,0,1622,1617,1617,1617,1617,1617,1617,1617,1617,1617,1617,1617,1617,1622,1622,1622,1622,1626,0,0,1622,1622,1622,1630,1630,0,0,0,0,0,0,0,0,0,0,0,0,0,0,0,0,0,0,0,0,0,0,0,0,0,0,0,0,0,0,0,0,0,0,0,0,0,0,0,0,0,0,0,0,0,0,0,0,0,0,0,0,0,0,0,0,0,0,0,0,0,0,0,0,0,0,0,0,0,0,0,0,0
1648,1648,1648,1643,1643,1635,1630,1630,1630,1635,1635,1635,0,1630,1630,0,1622,1622,1622,0,0,0,0,0,0,0,0,0,0,0,0,0,0,0,0,0,0,0,0,0,0,0,0,0,0,0,0,0,0,0,0,0,0,0,0,0,0,0,0,0,0,0,0,0,0,0,0,0,0,0,0,0,0,0,0,0,0,0,1236,1236,1223,1223,1221,1221,0,0,0,0,0,0,0,0,0,0,0,0,0,0,0,0,0,0,0,0,0,0,0,0,0,0,0,0,0,0,0,0,0,0,0,1001,1001,1037,1049,1049,1056,1067,1067,1071,1071,1084,1088,1088,1090,1092,1092,1094,1094,1094,1094,1092,1092,1092,1092,1094,1097,1097,1099,1099,1103,1105,1105,1107,1109,1109,1113,1119,1119,1121,1121,1123,1127,1127,1130,1136,1136,1138,1157,1157,1172,1186,1186,1202,0,1241,1241,0,0,0,0,0,0,0,0,0,0,1301,1301,1301,0,0,0,0,0,0,0,1301,1298,1298,1298,0,0,0,0,0,0,0,0,0,0,0,0,0,0,0,0,0,0,0,0,0,0,0,0,0,0,0,0,1261,1261,1253,1253,1264,1264,1269,1274,1266,1266,1266,1266,0,0,0,0,0,0,0,0,0,0,0,0,0,0,1238,1238,1243,1243,0,0,0,0,0,1293,1293,0,0,0,0,0,0,0,0,0,0,1340,1340,1340,1355,1355,1404,0,0,1411,1411,1411,1430,0,0,0,0,0,0,0,0,0,0,0,0,0,0,0,0,0,0,0,0,0,0,0,0,0,0,0,0,0,0,0,0,0,0,0,0,0,0,0,0,0,0,0,0,0,0,0,0,0,0,0,0,0,0,0,0,0,0,0,0,0,0,0,0,0,0,0,0,0,0,1298,1298,1293,1290,1290,1274,1274,1274,1274,1274,1274,0,0,0,0,0,0,0,0,0,0,0,0,0,0,0,0,0,0,0,0,0,0,0,0,0,0,0,0,0,0,0,0,0,0,0,0,0,0,0,0,0,0,0,0,0,0,0,0,0,2013,2013,2013,2006,2006,1993,1974,1974,1961,1961,1937,1919,1919,1895,1895,1878,1855,1855,1839,1839,1828,1823,1823,1823,1812,1812,1812,1812,1807,1807,1807,1801,1791,1791,1786,1786,1775,1765,1765,1755,1755,1745,1740,1740,1731,1721,1721,1716,1716,1702,1693,1693,1674,1674,1661,1643,1643,1626,1626,1605,1588,1588,1576,1576,1568,1564,1564,1556,1556,1556,1556,1556,1556,1560,1564,1564,1572,1572,1572,1580,1588,1588,1597,1597,0,0,0,0,0,0,0,0,1817,1812,1812,1807,1807,1807,1791,1791,1770,1770,0,0,0,1716,1707,1707,1697,1693,1693,1688,1688,1684,1679,1679,1674,1674,1670,1656,1656,1648,1639,1639,1639,0,1622,1617,1617,1617,1617,1617,1617,1617,1617,1617,1617,1617,1617,1622,1622,1622,1622,1622,0,1617,1617,1617,1617,1626,1626,0,0,0,0,0,0,0,0,0,0,0,0,0,0,0,0,0,0,0,0,0,0,0,0,0,0,0,0,0,0,0,0,0,0,0,0,0,0,0,0,0,0,0,0,0,0,0,0,0,0,0,0,0,0,0,0,0,0,0,0,0,0,0,0,0,0,0,0,0,0,0,0,0
1639,1639,1635,1635,1635,1626,1626,1626,1626,1626,1626,1626,1626,1626,1622,1622,1613,1613,1613,1601,1601,1601,0,0,0,0,0,0,0,0,0,0,0,0,0,0,0,0,0,0,0,0,0,0,0,0,0,0,0,0,0,0,0,0,0,0,0,0,0,0,0,0,0,0,0,0,0,0,0,0,0,0,0,0,0,0,0,0,1236,1236,1228,1228,1223,1223,0,0,0,0,0,0,0,0,0,0,0,0,0,0,0,0,0,0,0,0,0,0,0,0,0,0,0,0,0,0,0,0,0,0,0,1001,1001,1037,1049,1049,1056,1038,1038,1054,1054,1063,1073,1073,1090,1094,1092,1092,1092,1092,1094,1090,1090,1090,1090,1092,1095,1095,1097,1097,1101,1103,1103,1105,1107,1107,1113,1119,1119,1121,1121,1123,1127,1127,1130,1136,1136,1138,0,0,0,0,0,0,0,0,0,0,0,0,0,0,0,0,0,0,0,0,0,0,0,0,0,0,0,0,0,1301,1298,1298,1298,0,0,0,0,0,0,0,0,0,0,0,0,0,0,0,0,0,0,0,0,0,0,0,0,0,0,0,0,0,0,1253,1253,0,0,0,0,1266,1266,1266,1266,0,0,0,0,0,0,0,0,0,0,0,0,0,0,1238,1238,1243,1243,0,0,0,0,0,1293,1293,0,0,0,0,0,0,0,0,0,0,1340,1340,1340,1355,1355,0,0,0,1411,1411,1411,1437,0,0,0,0,0,0,0,1424,1424,1420,1420,0,0,0,1407,1407,0,0,0,0,0,0,0,0,0,0,0,0,0,0,0,0,0,0,0,0,0,0,0,0,0,0,0,0,0,0,0,0,0,0,0,0,0,0,0,0,0,0,0,0,0,0,0,0,0,0,0,0,0,0,1298,1298,1293,1290,1290,1287,1287,1287,0,0,0,0,0,0,0,0,0,0,0,0,0,0,0,0,0,0,0,0,0,0,0,0,0,0,0,0,0,0,0,0,0,0,0,0,0,0,0,0,0,0,0,0,0,0,0,0,0,0,0,0,2006,2006,2006,1993,1993,1980,1961,1961,1949,1949,1931,1913,1913,1889,1889,1872,1850,1850,1839,1839,1828,1823,1823,1823,1817,1817,1812,1812,1807,1807,1807,1801,1791,1791,1786,1786,1775,1765,1765,1755,1755,1745,1740,1740,1731,1726,1726,1716,1716,1707,1693,1693,1674,1674,1661,1643,1643,1626,1626,1605,1588,1588,1576,1576,1568,1564,1564,1556,1556,1556,1556,1556,1556,1560,1564,1564,1572,1572,1572,1580,1588,1588,1597,1597,0,0,0,0,0,0,0,0,1807,1801,1801,1796,1796,1796,1786,1786,1765,1765,0,0,0,1716,1702,1702,1693,1693,1693,1688,1688,1684,1674,1674,1670,1670,1670,1656,1656,1648,1639,1639,1639,0,1622,1622,1622,1622,1622,1622,1622,1622,1617,1617,1617,1617,1617,1622,1622,1622,1622,1622,0,1617,1617,1617,1617,1626,1626,0,0,0,0,0,0,0,0,0,0,0,0,0,0,0,0,0,0,0,0,0,0,0,0,0,0,0,0,0,0,0,0,0,0,0,0,0,0,0,0,0,0,0,0,0,0,0,0,0,0,0,0,0,0,0,0,0,0,0,0,0,0,0,0,0,0,0,0,0,0,0,0,0
1639,1639,1635,1635,1635,1626,1626,1626,1626,1626,1626,1626,1626,1626,1622,1622,1613,1613,1613,1601,1601,1601,0,0,0,0,0,0,0,0,0,0,0,0,0,0,0,0,0,0,0,0,0,0,0,0,0,0,0,0,0,0,0,0,0,0,0,0,0,1358,1358,0,1346,1346,0,0,0,0,0,0,0,0,0,1306,1306,1298,1298,1293,1236,1236,1228,1228,1223,1223,0,0,1253,1253,1251,1251,1251,1231,1231,1214,1214,1214,1207,1207,1186,1186,1186,0,0,0,0,0,0,0,0,0,0,995,995,0,0,0,0,0,0,0,0,0,0,0,0,1038,1038,1054,1054,1063,1073,1073,0,0,1092,1092,1092,1092,1094,1090,1090,1090,1090,1092,1095,1095,1097,1097,1101,1103,1103,1105,1107,1107,1111,1113,1113,1115,1115,1117,1121,1121,1123,1123,1123,1127,0,1151,1151,1168,1168,1186,0,0,0,0,0,0,0,0,0,0,0,0,0,0,0,0,0,0,0,0,0,0,0,0,0,0,0,0,0,0,0,0,0,0,0,0,0,0,0,0,0,0,0,0,0,0,0,0,0,0,0,0,0,0,0,0,0,0,0,0,0,0,0,0,0,0,0,0,0,0,0,0,0,0,0,0,0,0,0,0,0,1238,1238,1243,1243,0,0,0,0,0,1293,1293,1236,1236,1246,1246,0,0,0,0,1277,1277,1285,1285,1298,1320,1320,1340,1358,1358,1373,1388,1388,1427,1444,1444,0,0,0,0,0,1407,1407,1407,1404,1404,1404,1404,1395,1395,0,1392,1392,1398,1398,0,0,0,0,0,0,0,0,0,0,0,0,0,0,0,0,0,0,0,0,0,0,0,0,0,0,0,0,0,0,0,0,0,0,0,0,0,0,0,0,0,0,0,0,0,0,0,0,1301,1298,1298,1293,1290,1290,1287,1287,1287,1287,1287,1287,0,0,0,0,0,0,0,0,0,0,0,0,0,0,0,0,0,0,0,0,0,0,0,0,0,0,0,0,0,0,0,0,0,0,0,0,0,0,0,0,0,0,0,0,0,0,0,0,0,1993,1993,1993,1993,1993,1980,1961,1961,1949,1949,1931,1913,1913,1889,1889,1872,1850,1850,1839,1839,1833,1828,1828,1823,1817,1817,1817,1817,1812,1807,1807,1801,1791,1791,1786,1786,1775,1765,1765,1755,1755,1745,1740,1740,1731,1726,1726,1716,1716,1707,1693,1693,1674,1674,1661,1643,1643,1626,1626,1605,1588,1588,1576,1576,1568,1564,1564,1556,1556,1556,1556,1556,1556,1560,1564,1564,1572,1572,1572,1584,1588,1588,1597,1597,0,0,0,0,0,0,0,0,1807,1796,1796,1796,1796,1796,1786,1786,1760,1760,0,0,0,1716,1702,1702,1693,1693,1693,1688,1688,1684,1674,1674,1670,1670,1670,1656,1656,1648,1648,0,0,0,1622,1622,1622,1622,1622,1622,1622,1622,1622,1622,1622,1617,1617,1622,1622,1622,1617,1617,0,1617,1617,1617,1617,1626,1626,0,0,0,0,0,0,0,0,0,0,0,0,0,0,0,0,0,0,0,0,0,0,0,0,0,0,0,0,0,0,0,0,0,0,0,0,0,0,0,0,0,0,0,0,0,0,0,0,0,0,0,0,0,0,0,0,0,0,0,0,0,0,0,0,0,0,0,0,0,0,0,0,0
