0,0,0,0,0,0,0,0,0,0,0,0,0,0,0,0,0,0,0,0,0,0,0,0,0,0,0,0,0,0,0,0,0,0,0,0,0,1791,1791,1791,1796,1796,1801,1807,1807,1812,1817,1817,1823,1823,1823,1828,1828,1833,1833,1833,1839,1844,1844,1850,1850,1850,1855,1855,1861,1861,1861,1867,1867,1867,1872,1872,1884,1889,1889,1895,1907,1907,1919,1919,1931,1949,1949,1961,1968,1968,1980,1993,1993,2013,2013,2026,2032,2032,2039,2046,2046,2046,2046,2039,2039,2032,2026,2026,2013,2013,2000,1993,1993,1987,1968,1968,1955,1955,1943,1931,1931,1925,1925,1925,1931,1943,1943,1949,1961,1961,1974,1993,1993,2019,2019,2039,2046,2039,2019,2019,2006,2006,1993,1987,1987,1980,1968,1968,1961,1961,1955,1949,1949,1949,1955,1961,1961,1961,1961,1961,1961,1961,1955,1955,1955,1955,1949,1949,1949,1943,1943,1943,1943,1943,1937,1937,1955,1955,1955,1961,1961,1961,1961,1968,1974,1974,1980,1987,1987,1993,1993,1993,1993,1993,2000,2006,2006,2006,2013,2013,2013,2013,2019,2019,2019,2019,2019,2019,2026,2026,2013,2013,2006,2006,2006,2000,2000,2000,2000,2000,2000,2000,1993,1993,1993,1993,1993,1993,1993,1993,1993,1993,1993,1993,1993,1993,1987,1987,1987,1987,1987,1987,1987,1993,1993,1993,1993,1993,1993,1993,1993,2000,2000,1993,1993,1993,1993,1987,1987,1987,1980,1980,1974,1968,1968,1968,1961,1961,1961,1961,1955,1955,1955,1949,1949,1949,1949,1949,1949,1949,1949,1949,1955,1955,1955,1955,1961,1961,1961,1961,1961,1961,1961,1961,1961,1961,1968,1968,1968,1974,1974,1980,1987,1987,1987,1987,1993,2000,2000,1987,1987,1987,2000,2000,2006,2013,2013,2013,2019,2019,2019,2006,2000,2000,2000,1993,1993,1961,1961,1937,1907,1907,1872,1872,1872,1884,0,1861,1861,1850,1850,1850,1844,1817,1817,1817,1817,1817,1817,1828,1828,1850,1884,1884,1889,1889,1889,1895,1895,1895,1919,1919,0,0,1817,1817,1817,0,0,0,1597,1592,1592,1588,1588,1584,1584,1592,1592,1601,1605,1605,1626,0,1674,1674,1726,1726,0,0,0,0,0,1817,1817,1817,1812,1812,1807,1801,1801,1801,1812,1812,1823,1823,1823,1828,0,0,0,1801,1796,1796,1791,1786,1786,1786,0,0,0,0,0,0,0,0,0,0,0,0,0,0,0,0,0,0,0,0,0,0,0,0,0,0,0,0,0,0,0,0,0,0,0,0,0,0,0,0,0,0,0,0,0,0,0,0,0,0,0,0,0,0,0,0,2046,2039,2039,2039,2039,2039,2026,2026,2006,2006,2000,1987,1987,1974,1961,1961,1955,1955,1943,1931,1931,1925,1925,1907,1889,1889,1872,1855,1855,1844,1844,1828,1812,1812,1801,1801,1791,1781,1781,1770,1770,1755,1740,1740,1726,1712,1712,1697,1697,1688,1674,1674,1656,1656,1639,1626,1626,1613,1613,1597,1584,1584,1572,1572,1560,1549,1549,1541,1529,1529,1526,1526,1518,1511,1511,1503,1503,1496,1489,1489,1485,1485,1485,1485,1489,1489,1518,1549,1549,1605,1648,1688,1688,1726,1760,1760,1786,1791,1791,1791,1786,1775,1775,1765,1750,1750,1740,1740,1726,1716,1716,1702,1702,1693,1684,1684,1674,1674,1661,1652,1652,1643,1635,1635,1626,1626,1622,1613,1613,1609,1605,1605,1601,1601,1597,1592,1592,1584,1584,1584,1580,1580,1576,1572,1572,1564,1564,1560,1556,1556,1552,1549,1549,1541,1541,1537,1533,1533,1529,1529,1529,1529,5281,5326,5326,5326,5420,5468,5468,5517
0,0,0,0,0,0,0,0,0,0,0,0,0,0,0,0,0,0,0,0,0,0,0,0,0,0,0,0,0,0,0,0,0,0,0,0,0,1791,1791,1791,1796,1796,1801,1807,1807,1812,1817,1817,1823,1823,1823,1828,1828,1833,1833,1833,1839,1844,1844,1850,1850,1850,1855,1855,1861,1861,1861,1867,1867,1867,1872,1872,1878,1884,1884,1895,1901,1901,1907,1907,1925,1937,1937,1949,1961,1961,1974,1987,1987,2006,2006,2019,2026,2026,2039,2039,2039,2039,2046,2032,2032,2026,2019,2019,2006,2006,1993,1987,1987,1974,1961,1961,1949,1949,1937,1925,1925,1919,1919,1919,1931,1931,1931,1937,1955,1955,1974,1993,1993,2019,2046,2046,2046,2039,2026,2026,2006,2006,1993,1987,1987,1980,1968,1968,1961,1961,1955,1949,1949,1949,1955,1961,1961,1961,1961,1961,1961,1961,1955,1955,1955,1955,1949,1949,1949,1943,1943,1943,1943,1943,1937,1937,1937,1937,1937,1943,1943,1949,1949,1955,1961,1961,1968,1974,1974,1980,1980,1987,1987,1987,1993,2000,2000,2006,2013,2013,2013,2013,2019,2019,2019,2019,2019,2019,2026,2026,2026,2026,2019,2019,2019,2013,2013,2013,2006,2006,2006,2000,2000,2000,2000,2000,1993,1993,1993,1993,1993,1993,1993,1993,1993,1993,1993,1993,1993,1993,2000,2000,2000,2000,2000,2006,2006,2006,2006,2006,2006,2006,2006,2000,2000,2000,2000,1993,1993,1993,1987,1987,1987,1980,1980,1974,1974,1974,1968,1968,1968,1968,1968,1949,1949,1949,1949,1949,1949,1949,1949,1949,1955,1955,1955,1955,1961,1961,1961,1961,1961,1961,1961,1961,1961,1961,1968,1968,1968,1974,1974,1980,1987,1987,1987,1987,1993,2000,2000,2013,2013,2013,2013,2013,2013,2019,2019,2019,2019,2019,2019,2019,2013,2013,2006,2000,2000,1993,1993,1974,1949,1949,1913,1913,1884,1884,1889,1861,1861,1850,1850,1850,1844,1844,1844,1839,1839,1839,1839,1861,1861,1872,1884,1884,1889,1889,1889,1895,1895,1895,1919,1919,0,0,1817,1817,1817,0,0,0,0,1592,1592,1588,1588,1584,1584,1592,1592,1601,1605,1605,1626,0,1674,1674,1726,1726,0,0,0,0,0,1817,1817,1817,1807,1807,1807,1801,1801,1801,1812,1812,1823,1823,1823,1823,1823,1807,1807,1796,1791,1791,1791,1786,1786,1775,1775,1775,1781,0,0,0,0,0,0,0,0,0,0,1884,1884,1884,0,0,0,0,0,0,0,0,0,0,0,0,0,0,0,0,0,0,0,0,0,0,0,0,0,0,0,0,0,0,0,0,0,0,0,0,0,0,0,0,2046,2039,2039,2039,2039,2039,2013,2013,2000,2000,1987,1980,1980,1974,1961,1961,1955,1955,1943,1931,1931,1919,1919,1907,1889,1889,1872,1855,1855,1839,1839,1823,1812,1812,1796,1796,1786,1775,1775,1760,1760,1745,1736,1736,1721,1707,1707,1697,1697,1684,1670,1670,1656,1656,1639,1626,1626,1609,1609,1597,1584,1584,1572,1572,1560,1549,1549,1541,1533,1533,1526,1526,1518,1514,1514,1507,1507,1500,1492,1492,1485,1485,1489,1489,1492,1492,1518,1552,1552,1609,1693,1693,1693,1726,1760,1760,1786,1791,1791,1791,1781,1775,1775,1760,1750,1750,1736,1736,1726,1712,1712,1702,1702,1688,1679,1679,1670,1670,1656,1648,1648,1639,1630,1630,1622,1622,1617,1613,1613,1609,1605,1605,1601,1601,1597,1592,1592,1588,1588,1588,1584,1584,1580,1576,1576,1572,1572,1572,1564,1564,1560,1560,1560,1552,1552,1545,1545,1545,1541,1541,1533,1533,5236,5281,5326,5326,5420,5468,5468,5517
0,0,0,0,0,0,0,0,0,0,0,0,0,0,0,0,0,0,0,0,0,0,0,0,0,0,0,0,0,0,0,0,0,0,1786,1786,1786,1786,1786,1786,1791,1791,1796,1801,1801,1807,1812,1812,1812,1812,1812,1817,1817,1823,1828,1828,1828,1833,1833,1839,1839,1839,1844,1844,1850,1855,1855,1855,1855,1861,1867,1867,1872,1878,1878,1889,1895,1895,1901,1901,1919,1925,1925,1937,1955,1955,1968,1980,1980,2000,2000,2013,2026,2026,2032,2039,2039,2039,2046,2032,2032,2026,2019,2019,2006,2006,1993,1987,1987,1974,1961,1961,1949,1949,1937,1925,1925,1919,1919,1919,1931,1931,1931,1937,1955,1955,1974,1993,1993,2019,2046,2046,2046,2039,2026,2026,2006,2006,1993,1987,1987,1980,1968,1968,1955,1955,1955,1949,1949,1949,1949,1955,1949,1949,1949,1943,1943,1943,1943,1943,1937,1937,1937,1931,1931,1925,1925,1919,1919,1919,1919,1919,1919,1919,1919,1925,1925,1931,1931,1937,1943,1943,1949,1961,1961,1968,1968,1974,1980,1980,1987,1993,1993,2006,2013,2013,2019,2019,2019,2026,2026,2026,2032,2032,2032,2032,2032,2032,2032,2026,2026,2026,2026,2026,2019,2019,2013,2013,2013,2006,2006,2006,2006,2006,2000,2000,2000,2000,2000,2000,2006,2006,1993,1993,1993,1993,2000,2000,2000,2000,2000,2006,2006,2006,2006,2006,2006,2006,2006,2000,2000,2000,2000,1993,1993,1993,1987,1987,1987,1980,1980,1974,1974,1974,1968,1968,1968,1968,1968,1968,1961,1961,1961,1961,1961,1961,1961,1961,1961,1961,1961,1961,1961,1961,1968,1968,1968,1974,1974,1974,1980,1980,1980,1980,1987,1993,1993,2000,2000,2000,2006,2006,2006,2006,2006,2013,2013,2013,2013,2013,2013,2019,2019,2019,2019,2019,2019,2019,2019,2019,2013,2000,2000,2000,2000,1987,1961,1961,1931,1931,1901,1889,1889,1861,1861,1850,1850,1850,1844,1844,1844,1839,1839,1839,1839,1861,1861,1872,1884,1884,1889,1889,1889,1895,1895,1895,1919,1919,1889,1889,1817,1817,1817,1855,0,0,0,0,0,0,0,0,0,0,0,1745,1745,0,0,0,0,0,0,0,0,0,0,0,0,1823,1817,1817,1807,1807,1807,1807,0,0,0,0,0,0,1828,1823,1823,1807,1807,1796,1791,1791,1791,1786,1786,1775,1775,1775,1781,0,0,0,0,0,0,0,0,0,0,1884,1884,1884,0,0,0,0,0,0,0,0,0,0,0,0,0,0,0,0,0,0,0,0,0,0,0,0,0,0,0,0,0,0,0,0,0,0,0,0,0,0,1993,1993,1993,2000,1993,1993,2000,2000,1993,1993,1987,1987,1980,1974,1974,1968,1961,1961,1955,1955,1943,1931,1931,1919,1919,1901,1889,1889,1872,1855,1855,1839,1839,1823,1812,1812,1796,1796,1786,1775,1775,1760,1760,1745,1736,1736,1721,1707,1707,1697,1697,1684,1670,1670,1656,1656,1639,1626,1626,1609,1609,1597,1584,1584,1572,1572,1556,1549,1549,1541,1533,1533,1526,1526,1518,1514,1514,1507,1507,1500,1492,1492,1485,1485,1489,1489,1492,1492,1518,1552,1552,1609,1693,1693,1693,1726,1760,1760,1786,1791,1786,1786,1781,1770,1770,1760,1745,1745,1736,1736,1721,1712,1712,1697,1697,1688,1679,1679,1665,1656,1656,1643,1643,1635,1626,1626,1622,1622,1617,1613,1613,1609,1605,1605,1601,1601,1597,1592,1592,1592,1592,1588,1588,1588,1588,1584,1584,1580,1580,1576,1572,1572,1572,1568,1568,1560,1560,1556,1552,1552,1545,1541,1533,1533,5236,5281,5326,5326,5373,5468,5468,5517
0,0,0,0,0,0,0,0,0,0,0,0,0,0,0,0,0,0,0,0,0,0,0,0,0,0,0,0,0,0,0,0,0,1775,1775,1786,1781,1781,1786,1786,1786,1786,1791,1791,1791,1796,1796,1796,1801,1801,1801,1807,1807,1812,1817,1817,1817,1823,1823,1839,1839,1839,1844,1844,1850,1855,1855,1855,1855,1861,1867,1867,1872,1878,1878,1889,1895,1895,1901,1901,1919,1925,1925,1937,1955,1955,1968,1980,1980,2000,2000,2013,2026,2026,2032,2039,2032,2032,2039,2026,2026,2019,2013,2013,2000,2000,1980,1980,1980,1968,1955,1955,1943,1943,1937,1919,1919,1907,1907,1907,1907,1907,1907,1925,1943,1943,1968,1993,1993,2019,2046,2046,2046,2039,2026,2026,2006,2006,2000,1987,1987,1980,1961,1961,1955,1955,1949,1943,1943,1943,1943,1943,1937,1937,1937,1937,1937,1931,1931,1943,1937,1937,1937,1931,1931,1925,1925,1919,1919,1919,1919,1919,1919,1919,1919,1925,1925,1931,1931,1937,1943,1943,1949,1961,1961,1968,1968,1974,1980,1980,1987,1993,1993,2006,2013,2013,2019,2019,2019,2026,2026,2026,2032,2032,2032,2032,2032,2032,2032,2026,2026,2026,2026,2026,2019,2019,2013,2013,2013,2006,2006,2006,2006,2006,2000,2000,2000,2000,2000,2000,2006,2006,2006,2006,2006,2006,2006,2006,2013,2013,2013,2013,2013,2013,2013,2013,2013,2013,2013,2013,2013,2006,2006,2006,2000,2000,2000,1993,1993,1987,1987,1987,1987,1987,1980,1980,1980,1974,1974,1974,1974,1974,1974,1974,1974,1974,1974,1968,1968,1974,1974,1974,1974,1974,1974,1974,1974,1980,1980,1980,1987,1987,1993,1993,1993,1993,1993,2000,2000,2000,2006,2006,2006,2006,2006,2013,2013,2013,2013,2013,2013,2019,2019,2019,2019,2019,2019,2019,2013,2013,2006,2000,2000,2000,2000,1987,1961,1961,1931,1931,1901,1889,1889,1878,1867,1867,1867,1867,1867,1861,1861,1861,1861,1861,1861,1878,1878,1884,1901,1901,1919,1919,1907,1907,1907,1907,1931,1931,1889,1889,1872,1872,1855,1855,0,0,0,0,0,0,0,0,0,0,0,1745,1745,0,0,0,0,0,0,0,0,0,0,0,0,1823,1817,1817,1812,1812,1807,1807,1807,1807,1817,1823,1823,1828,1828,1823,1823,1807,1807,1796,1791,1791,1791,1786,1786,1775,1775,1775,1781,1812,1812,0,0,0,0,0,0,0,0,1884,1884,1884,1889,1889,1889,0,0,1867,1867,1861,1861,1867,1861,1861,1861,1861,0,0,0,0,0,0,0,1919,1919,1913,1907,1907,1907,0,0,0,0,0,0,0,0,0,0,0,1993,1993,1993,2000,1993,1993,2000,2000,1993,1993,1987,1987,1980,1974,1974,1968,1961,1961,1955,1955,1943,1931,1931,1919,1919,1901,1889,1889,1872,1855,1855,1839,1839,1823,1807,1807,1796,1796,1781,1770,1770,1755,1755,1745,1731,1731,1716,1707,1707,1693,1693,1684,1670,1670,1652,1652,1639,1622,1622,1609,1609,1592,1580,1580,1568,1568,1556,1549,1549,1541,1533,1533,1529,1529,1522,1514,1514,1511,1507,1503,1500,1500,1492,1492,1492,1492,1496,1496,1522,1560,1613,1613,1697,1697,1697,1736,1765,1765,1791,1791,1786,1786,1781,1770,1770,1760,1745,1745,1736,1736,1721,1712,1712,1697,1697,1688,1679,1679,1665,1656,1656,1643,1643,1635,1626,1626,1622,1622,1613,1609,1609,1605,1605,1605,1601,1601,1597,1592,1592,1592,1588,1588,1588,1588,1588,1584,1584,1580,1580,1576,1572,1572,1572,1568,1568,1560,1560,1556,1552,1552,1545,1541,1541,1541,5192,5281,5326,5326,5373,5468,5468,5468
0,0,0,0,0,0,0,0,0,0,0,0,0,0,0,0,0,0,0,0,0,0,0,0,0,0,0,0,0,0,0,0,0,1775,1775,1786,1781,1781,1786,1786,1786,1786,1791,1791,1791,1796,1796,1796,1801,1801,1801,1807,1807,1812,1817,1817,1817,1823,1823,1828,1828,1828,1833,1833,1833,1839,1839,1844,1844,1844,1850,1850,1855,1861,1861,1872,1878,1878,1889,1889,1901,1913,1913,1931,1943,1943,1955,1974,1974,1993,1993,2006,2019,2019,2026,2026,2026,2032,2032,2019,2019,2013,2000,2000,1993,1993,1974,1974,1980,1968,1955,1955,1943,1943,1937,1907,1907,1878,1878,1878,1884,1907,1907,1925,1943,1943,1968,1993,1993,2019,2046,2046,2053,2039,2032,2032,2006,2006,2000,1987,1987,1980,1961,1961,1955,1955,1949,1943,1943,1943,1943,1943,1937,1937,1937,1937,1937,1931,1931,1931,1925,1925,1913,1913,1913,1907,1907,1907,1907,1907,1907,1907,1907,1907,1907,1913,1913,1919,1919,1931,1937,1937,1943,1949,1949,1955,1955,1968,1974,1974,1987,1993,1993,2006,2013,2013,2019,2019,2026,2026,2026,2032,2039,2039,2039,2039,2039,2039,2039,2039,2039,2039,2039,2032,2032,2032,2026,2019,2019,2019,2019,2013,2006,2006,2006,2006,2013,2006,2006,2006,2013,2013,2013,2013,2013,2013,2013,2013,2013,2013,2013,2019,2019,2019,2019,2013,2013,2013,2013,2013,2013,2013,2013,2006,2006,2006,2006,1993,1993,1987,1987,1987,1987,1987,1980,1980,1980,1974,1974,1974,1974,1974,1974,1974,1974,1974,1974,1968,1968,1974,1974,1974,1974,1974,1974,1974,1974,1980,1980,1980,1987,1987,1993,1993,2000,2006,2006,2006,2006,2006,2013,2013,2013,2013,2013,2013,2013,2013,2019,2019,2013,2013,2013,2013,2013,2013,2013,2013,2013,2013,2006,2000,2000,2000,2000,2000,1987,1987,1974,1955,1955,1955,1955,1955,1949,1949,1949,1949,1949,1943,1943,1943,1943,1943,1943,1949,1949,1949,1949,1949,1961,1961,1961,1943,1943,1943,1949,1949,1889,1889,1872,1872,1855,1855,1884,1861,1839,1839,1823,1823,1817,1812,1812,1812,1817,1745,1745,1823,1801,1801,1801,1801,1812,0,0,0,0,1812,1812,1812,1817,1817,1812,1812,1807,1807,1807,1807,1817,1823,1823,1828,1828,1823,1823,1812,1807,1807,1801,1801,1801,1801,1801,1801,1801,1801,1801,1812,1812,1850,1872,1872,0,0,0,0,0,0,0,0,1889,1889,1889,0,0,1867,1867,1861,1861,1867,1861,1861,1861,1861,0,0,0,0,0,0,0,1919,1919,1913,1907,1907,1907,0,0,1895,1895,1895,0,0,0,1919,1919,1919,1937,1943,1943,1955,1955,1961,1968,1968,1974,1974,1974,1980,1974,1968,1968,1968,1961,1961,1955,1955,1943,1931,1931,1919,1907,1901,1889,1889,1872,1855,1855,1839,1839,1823,1807,1807,1791,1791,1781,1765,1765,1755,1755,1740,1731,1731,1716,1702,1702,1693,1693,1684,1670,1670,1652,1652,1639,1622,1622,1609,1609,1592,1580,1580,1568,1568,1556,1549,1549,1541,1537,1537,1529,1529,1522,1518,1518,1514,1507,1507,1503,1503,1500,1496,1496,1496,1503,1522,1522,1560,1613,1613,1697,1697,1697,1736,1765,1765,1791,1791,1786,1786,1781,1770,1770,1755,1745,1745,1736,1736,1721,1712,1712,1697,1697,1684,1674,1674,1665,1652,1652,1643,1643,1635,1626,1626,1617,1617,1613,1609,1609,1605,1601,1601,1601,1601,1597,1592,1592,1592,1588,1588,1588,1588,1588,1588,1588,1588,1584,1584,1580,1580,1576,1576,1576,1568,1568,1568,1560,1560,1556,1556,5149,5192,5192,5281,5326,5326,5373,5468,5468,5468
0,0,0,0,0,0,0,0,0,0,0,0,0,0,0,0,0,0,0,0,0,0,0,0,0,0,0,0,0,0,0,1750,1750,1750,1765,1770,1770,1770,1775,1770,1770,1770,1775,1786,1786,1786,1786,1786,1786,1786,1786,1791,1791,1796,1807,1807,1807,1812,1812,1812,1812,1817,1823,1823,1823,1823,1823,1828,1828,1828,1833,1833,1839,1844,1844,1855,1855,1861,1872,1872,1884,1895,1895,1931,1943,1943,1955,1974,1974,1993,1993,2006,2019,2019,2026,2026,2026,2032,2032,2019,2019,2013,2000,2000,1993,1993,1974,1974,0,0,0,0,0,0,0,1907,1907,1878,1878,1878,1884,1907,1907,1913,1913,1913,1943,1980,1980,2019,2046,2046,2046,2039,2026,2026,2006,2006,1993,1987,1987,1974,1961,1961,1955,1955,1943,1931,1931,1931,1931,1931,1931,1931,1925,1919,1919,1919,1913,1913,1907,1907,1901,1901,1901,1895,1895,1895,1895,1895,1895,1895,1895,1895,1895,1901,1901,1913,1913,1919,1931,1931,1937,1943,1943,1955,1955,1968,1974,1974,1987,1993,1993,2006,2013,2013,2026,2026,2032,2039,2039,2046,2053,2053,2053,2053,2053,2053,2053,2053,2053,2046,2046,2046,2039,2039,2032,2026,2026,2019,2019,2013,2006,2006,2006,2006,2013,2006,2006,2006,2013,2013,2013,2013,2013,2013,2013,2013,2013,2013,2013,2019,2019,2019,2019,2013,2013,2013,2013,2013,2013,2013,2013,2006,2006,2006,2006,2000,2000,2000,2000,1993,1987,1987,1987,1987,1987,1980,1980,1980,1980,1980,1980,1974,1974,1974,1974,1974,1974,1974,1974,1974,1974,1974,1980,1980,1980,1987,1987,1993,1993,1993,2000,2000,2000,2006,2006,2006,2013,2013,2013,2019,2019,2019,2013,2013,2019,2019,2019,2019,2013,2013,2013,2013,2013,2013,2013,2013,2013,2013,2006,2000,2000,2000,2000,2000,1987,1987,1974,1955,1955,1955,1955,1955,1949,1949,1949,1949,1949,1943,1943,1943,1943,1943,1943,1949,1949,1949,1949,1949,1961,1961,1961,1943,1943,1943,1949,1949,1943,1943,1931,1913,1913,1884,1884,1861,1839,1839,1823,1823,1817,1812,1812,1812,1817,1817,1817,1823,1801,1801,1801,1801,1812,0,0,0,0,1812,1812,1812,1823,1823,1817,1817,1812,1807,1807,1807,1817,1828,1828,1828,1828,1828,1828,1817,1817,1817,1807,1807,1807,1812,1812,1812,1812,1817,1817,1828,1828,1850,1872,1872,1889,1925,1919,1919,1925,1925,1931,0,1889,1889,1889,1895,1895,1867,1867,1861,1861,1867,1861,1861,1861,1861,0,0,1913,1913,1913,1919,1931,1919,1919,1913,1907,1907,1901,1895,1895,1889,1889,1878,1872,1872,1872,1878,1884,1884,1895,1907,1907,1919,1919,1925,1937,1937,1949,1955,1955,1961,1955,1955,1961,1961,1961,1961,1955,1955,1943,1931,1931,1919,1907,1907,1889,1889,1872,1855,1855,1839,1839,1823,1807,1807,1791,1791,1781,1765,1765,1755,1755,1740,1731,1731,1716,1702,1702,1693,1693,1684,1670,1670,1652,1652,1635,1622,1622,1609,1609,1592,1580,1580,1568,1556,1556,1549,1549,1541,1537,1537,1529,1529,1522,1518,1518,1514,1507,1507,1503,1503,1500,1496,1496,1496,1503,1533,1533,1580,1630,1630,1707,1707,1707,1745,1781,1781,1791,1796,1791,1781,1781,1770,1770,1755,1745,1745,1736,1736,1721,1712,1712,1697,1697,1684,1674,1674,1665,1652,1652,1643,1643,1635,1626,1626,1617,1617,1613,1609,1609,1605,1601,1601,1601,1601,1597,1592,1592,1592,1592,1592,1588,1588,1588,1588,1592,1588,1584,1584,1580,1580,1576,1576,1576,1568,1568,1568,1560,1560,1556,1556,5149,5192,5192,5281,5326,5326,5373,5468,5468,5468
0,0,0,0,0,0,0,0,0,0,0,0,0,0,0,0,0,0,0,0,0,0,0,0,0,0,0,0,0,0,1731,1731,1745,1745,1755,1765,1760,1760,1765,1765,1765,1765,1770,1775,1775,1775,1775,1775,1786,1786,1786,1791,1791,1796,1807,1807,1807,1812,1812,1812,1812,1817,1823,1823,1823,1823,1823,1828,1828,1828,1833,1833,1839,1844,1844,1855,1855,1861,1872,1872,1884,1895,1895,1931,1943,1943,1955,1974,1974,1993,1993,2006,2019,2019,2026,2026,2026,2032,2032,2019,2019,2013,2000,2000,1993,1993,1974,1974,0,0,0,0,0,0,0,1907,1907,1878,1878,1878,1884,0,0,1913,1913,1913,1943,1980,1980,0,0,2046,2046,2039,2026,2026,2006,2006,1993,1987,1987,1974,1955,1955,1943,1943,1943,1931,1931,1931,1931,1931,1931,1931,1925,1919,1919,1919,1913,1913,1907,1907,1901,1901,1901,1895,1895,1895,1895,1895,1895,1895,1895,1895,1895,1901,1901,1913,1913,1919,1931,1931,1937,1943,1943,1955,1955,1961,1974,1974,1980,1993,1993,2006,2013,2013,2026,2026,2032,2039,2039,2046,2053,2053,2053,2053,2053,2053,2053,2053,2053,2046,2046,2046,2039,2039,2032,2026,2026,2019,2019,2019,2013,2013,2013,2013,2013,2013,2013,2013,2013,2019,2019,2019,2019,2019,2019,2019,2019,2019,2019,2019,2019,2019,2019,2019,2019,2019,2013,2013,2013,2013,2013,2013,2006,2006,2006,2000,2000,2000,2000,2000,1993,1993,1993,1987,1987,1987,1987,1987,1980,1980,1980,1980,1980,1980,1980,1974,1974,1974,1974,1974,1974,1974,1980,1980,1980,1987,1987,1993,1993,1993,2000,2000,2000,2006,2006,2006,2013,2013,2013,2019,2019,2019,2013,2013,2013,2013,2013,2013,2013,2013,2013,2006,2006,2006,2006,2006,2000,2000,2000,1993,1993,1993,1993,1993,1993,1993,1993,1993,1993,1987,1987,1987,1987,1993,1987,1980,1980,1980,1974,1974,1974,1974,1974,1974,1974,1974,1974,1974,1974,1974,1974,1974,1974,1968,1968,1968,1949,1949,1937,1925,1925,1913,1913,1901,1895,1895,1889,1884,1884,1884,1884,1884,1884,1884,1884,1889,1895,1895,1901,1812,1812,1895,1878,1867,1867,1812,1812,1812,1823,1823,1817,1817,1812,1807,1807,1807,1817,1828,1828,1828,1828,1828,1828,1817,1817,1817,1807,1807,1807,1812,1812,1812,1812,1817,1817,1828,1828,1850,1872,1872,1889,1925,1919,1919,1925,1925,1931,1931,1913,1913,1901,1895,1895,1889,1889,1889,1895,1901,1901,1901,1901,1901,1913,0,1913,1913,1913,1919,1931,1925,1919,1919,1913,1913,1901,1895,1895,1889,1889,1878,1872,1872,1872,1878,1884,1884,1895,1907,1907,1919,1919,1925,1937,1937,1949,1955,1955,1961,1955,1955,1961,1961,1955,1955,1949,1949,1943,1931,1931,1919,1907,1907,1889,1889,1872,1855,1855,1839,1839,1823,1807,1807,1791,1791,1775,1760,1760,1750,1736,1736,1726,1726,1712,1702,1702,1688,1688,1679,1665,1665,1648,1648,1635,1622,1622,1605,1605,1592,1580,1580,1568,1556,1556,1549,1549,1541,1537,1537,1529,1529,1526,1522,1522,1518,1514,1514,1511,1511,1507,1507,1507,1507,1507,1545,1545,1588,1643,1643,1721,1721,1721,1755,1786,1786,1796,1796,1791,1781,1781,1770,1770,1755,1745,1745,1736,1736,1721,1712,1712,1693,1693,1684,1674,1674,1661,1648,1648,1639,1639,1630,1622,1622,1613,1613,1609,1605,1605,1601,1597,1597,1597,1597,1592,1592,1592,1588,1588,1588,1584,1584,1584,1588,1588,1588,1588,1588,1584,1584,1580,1580,1580,1572,1572,1572,1568,1568,1560,1560,5192,5236,5236,5281,5326,5326,5373,5468,5468,5468
0,0,0,0,0,0,0,0,0,0,0,0,0,0,0,0,0,0,0,0,0,0,0,0,0,0,0,0,0,0,1731,1731,1745,1745,1755,1765,1760,1760,1765,1765,1765,1765,1770,1775,1775,1775,1775,1775,1775,1775,1775,1781,1781,1786,1796,1796,1796,1801,1801,1801,1801,1801,1807,1807,1812,1812,1812,1812,1812,1812,1817,1817,1823,1828,1828,1839,1839,1839,1850,1850,1861,1872,1872,1889,1907,1907,0,0,0,0,0,0,0,0,0,0,0,0,0,0,0,0,0,0,0,0,0,0,0,0,0,0,0,0,0,0,0,0,0,0,0,0,0,0,0,0,0,0,0,0,0,0,0,0,0,0,0,0,0,0,0,0,1955,1955,1943,1943,1943,1931,1931,1931,1931,1931,1931,1931,1925,1884,1884,1884,1884,1872,1867,1867,1867,1867,1872,1872,1872,1872,1872,1872,1872,1878,1878,1878,1884,1895,1895,1895,1895,1907,1919,1919,1925,1931,1931,1943,1943,1955,1961,1961,1974,1993,1993,2000,2013,2013,2026,2026,2039,2046,2046,2053,2060,2060,2066,2066,2060,2060,2060,2060,2060,2060,2046,2046,2046,2046,2039,2026,2026,2026,2026,2019,2019,2019,2019,2019,2019,2019,2019,2019,2019,2019,2019,2026,2026,2026,2026,2026,2026,2026,2026,2026,2026,2019,2019,2019,2019,2019,2013,2013,2013,2013,2013,2013,2006,2006,2006,2000,2000,2000,2000,2000,1993,1993,1993,1987,1987,1987,1987,1980,1980,1980,1980,1974,1974,1974,1974,1974,1974,1974,1974,1974,1974,1974,1980,1980,1980,1987,1987,1993,1993,1993,2000,2006,2006,2006,2006,2013,2013,2013,2013,2019,2013,2013,2013,2013,2013,2013,2013,2013,2013,2013,2013,2006,2006,2006,2006,2006,2000,2000,2000,1993,1993,1993,1993,1993,1993,1993,1993,1993,1993,1993,1993,1993,1993,1993,1993,1987,1987,1987,1980,1980,1980,1980,1974,1974,1974,1974,1974,1974,1974,1974,1974,1974,1974,1968,1968,1968,1949,1949,1937,1925,1925,1913,1913,1901,1895,1895,1889,1884,1884,1884,1884,1884,1884,1884,1884,1889,1895,1895,1901,1901,1895,1895,1878,1867,1867,1850,1850,1850,1839,1839,1828,1828,1828,1823,1823,1823,1828,1839,1839,1839,1839,1839,1839,1828,1828,1828,1823,1823,1823,1828,1828,1828,1828,1828,1828,1839,1861,1861,1878,1878,1901,1931,1925,1925,1931,1931,1931,1931,1925,1925,1919,1913,1913,1901,1901,1895,1895,1901,1901,1901,1901,1901,1913,1913,1913,1913,1913,1919,1931,1925,1919,1919,1913,1913,1901,1895,1895,1889,1889,1878,1872,1872,1872,1872,1872,1872,1878,1878,1884,1895,1895,1901,1913,1913,1931,1937,1937,1943,1943,1949,1955,1955,1949,1949,1949,1949,1943,1931,1931,1919,1907,1907,1889,1889,1872,1855,1855,1839,1839,1823,1807,1807,1791,1791,1770,1760,1760,1750,1736,1736,1726,1726,1712,1702,1702,1688,1688,1679,1665,1665,1648,1648,1635,1622,1622,1605,1605,1592,1580,1580,1568,1556,1556,1549,1549,1541,1537,1537,1529,1529,1526,1522,1522,1518,1514,1514,1511,1511,1507,1507,1507,1507,1507,1545,1545,1588,1643,1643,1721,1721,1721,1755,1786,1786,1796,1796,1791,1781,1781,1770,1770,1755,1745,1745,1736,1736,1721,1712,1712,1693,1693,1684,1670,1670,1656,1643,1643,1635,1635,1626,1617,1617,1609,1609,1605,1597,1597,1592,1592,1592,1588,1588,1588,1584,1584,1584,1588,1588,1584,1584,1584,1588,1588,1588,1588,1588,1584,1584,1584,1580,1580,1580,1576,1576,1572,1572,1568,1568,5236,5281,5326,5326,5373,5373,5420,5468,5468,5468
0,0,0,0,0,0,0,0,0,0,0,0,0,0,0,0,0,0,0,0,0,0,0,0,0,0,0,0,0,0,1726,1726,1736,1736,1750,1755,1755,1755,1760,1760,1760,1760,1765,1770,1770,1765,1765,1765,1765,1765,1765,1770,1770,1775,1786,1786,1786,1786,1786,1791,1791,1791,1796,1796,1796,1796,1796,1796,1791,1791,1796,1796,1823,1828,1828,1839,1839,1839,1850,1850,1861,1872,1872,1889,1907,1907,0,0,0,0,0,0,0,0,0,0,0,0,0,0,0,0,0,0,0,0,0,0,0,0,0,0,0,1238,1238,1238,0,0,0,0,0,1253,1253,1253,1285,1285,1285,1298,0,0,0,0,0,0,0,0,0,0,0,0,0,0,1955,1955,1943,1943,1943,0,0,0,0,0,0,0,0,1828,1828,1817,1817,1791,1781,1781,1781,1786,1786,1796,1801,1801,1801,1807,1807,1807,1878,1878,1884,1895,1895,1895,1895,1907,1919,1919,1925,1931,1931,1943,1943,1955,1961,1961,1974,1993,1993,2000,2013,2013,2026,2039,2039,2046,2046,2053,2060,2060,2066,2073,2073,2073,2060,2060,2060,2060,2046,2046,2046,2046,2039,2026,2026,2026,2026,2019,2019,2019,2019,2019,2019,2019,2019,2019,2019,2019,2019,2026,2026,2026,2026,2026,2026,2026,2026,2026,2026,2019,2019,2019,2019,2019,2019,2019,2019,2013,2013,2013,2006,2006,2006,2000,2000,2000,2000,1993,1993,1993,1993,1987,1987,1987,1987,1980,1980,1980,1980,1974,1974,1974,1974,1974,1974,1974,1974,1974,1980,1980,1980,1987,1987,1987,1987,1993,2000,2000,2000,2006,2006,2013,2013,2013,2019,2013,2013,2019,2013,2013,2013,2013,2013,2013,2013,2013,2006,2006,2006,2006,2006,2000,2000,2000,1993,1993,1993,1993,1993,1993,1993,1993,1993,1993,1993,1993,1993,1993,1993,1993,1993,1993,1993,1987,1987,1987,1980,1980,1980,1980,1980,1980,1980,1980,1980,1980,1974,1974,1974,1974,1974,1974,1968,1968,1968,1968,1968,1968,1968,1961,1961,1968,1968,1968,1968,1968,1968,1968,1968,1968,1961,1961,1961,1955,1955,1949,1943,1943,1937,1937,1931,1919,1919,1895,1895,1889,1889,1889,1884,1878,1878,1878,1884,1884,1878,1878,1878,1884,1889,1878,1878,1872,1828,1828,1823,1823,1823,1828,1828,1828,1828,1828,1828,1839,1861,1861,1878,1878,1901,1931,1925,1925,1931,1931,1931,1931,1925,1925,1919,1913,1913,1901,1901,1895,1895,1901,1901,1901,1901,1901,1913,1913,1913,1925,1925,1925,1931,1931,1925,1925,1913,1913,1907,1895,1895,1889,1889,1878,1872,1872,1872,1872,1872,1872,1878,1878,1884,1895,1895,1901,1913,1913,1931,1937,1937,1943,1943,1949,1955,1955,1949,1949,1949,1949,1943,1931,1931,1919,1907,1907,1889,1889,1872,1855,1855,1839,1839,1823,1807,1807,1791,1791,1770,1760,1760,1745,1736,1736,1721,1721,1707,1697,1697,1688,1688,1679,1665,1665,1648,1648,1635,1617,1617,1605,1605,1592,1576,1576,1564,1556,1556,1549,1549,1541,1537,1537,1529,1529,1526,1522,1522,1518,1514,1514,1514,1514,1511,1511,1511,1511,1511,1556,1556,1601,1656,1656,1736,1736,1736,1770,1796,1796,1801,1801,1796,1781,1781,1770,1770,1755,1745,1745,1736,1736,1721,1712,1712,1693,1693,1684,1670,1670,1656,1643,1643,1635,1635,1626,1617,1617,1609,1609,1605,1597,1597,1592,1592,1592,1588,1588,1588,1584,1584,1580,1580,1580,1580,1580,1580,1580,1580,1580,1584,1584,1584,1584,1580,1580,1580,1580,1576,1576,1572,1572,1568,1568,5236,5281,5326,5326,5373,5373,5420,5468,5468,5468
0,0,0,0,0,0,0,0,0,0,0,0,0,0,0,0,0,0,0,0,0,0,0,0,0,0,0,0,0,1726,1726,1726,1736,1736,1750,1755,1755,1755,1760,1760,1760,1760,1765,1770,1770,1765,1765,1765,1765,1765,1765,1770,1770,1775,1786,1786,1786,1786,1786,1791,1791,1791,1796,1796,1796,1796,1796,1796,1791,1791,1796,1796,1801,1807,1807,1817,1817,1823,1828,1828,1839,1850,1850,1867,1867,1867,0,0,0,0,0,0,0,0,0,0,0,0,0,0,0,0,0,0,0,0,0,0,0,0,0,0,0,1238,1238,1238,1266,1266,1266,0,0,1253,1253,1253,1266,1266,1261,1261,0,0,0,0,0,0,0,0,0,0,0,0,0,0,0,0,0,0,0,0,0,0,0,0,0,0,0,1828,1828,1817,1817,1791,1781,1781,1781,1786,1786,1796,1801,1801,1801,1807,1807,1807,1823,1823,1839,1839,1855,1878,1878,1895,1907,1907,1913,1925,1925,1937,1937,1943,1955,1955,1961,1980,1980,1993,2006,2006,2019,2026,2026,2039,2039,2046,2060,2060,2060,2066,2066,2066,2066,2060,2060,2053,2053,2053,2046,2046,2039,2032,2032,2026,2026,2026,2019,2019,2019,2019,2019,2019,2019,2019,2019,2026,2026,2026,2026,2026,2026,2026,2026,2026,2026,2026,2026,2026,2019,2019,2019,2019,2019,2019,2019,2013,2013,2013,2006,2006,2006,2000,2000,2000,2000,1993,1993,1993,1993,1987,1987,1987,1987,1980,1980,1980,1974,1974,1974,1974,1974,1974,1974,1974,1974,1974,1974,1974,1980,1987,1987,1987,1987,1993,2000,2000,2000,2006,2006,2013,2013,2013,2013,2013,2013,2013,2013,2013,2013,2013,2013,2013,2006,2006,2006,2006,2006,2000,2000,2000,1993,1993,1993,1993,1987,1987,1987,1987,1993,1993,1993,1993,1993,2000,2000,2000,2000,2000,2000,2000,2000,1993,1993,1993,1987,1987,1987,1987,1987,1987,1987,1987,1987,1987,1987,1987,1987,1980,1980,1980,1980,1980,1974,1974,1974,1974,1974,1974,1974,1974,1974,1974,1974,1968,1968,1968,1968,1968,1961,1961,1961,1955,1955,1949,1943,1943,1937,1937,1931,1919,1919,1895,1895,1889,1889,1889,1884,1878,1878,1878,1884,1884,1878,1878,1878,1884,1889,1878,1878,1872,1861,1861,1850,1850,1850,1850,1850,1850,1855,1855,1855,1861,1872,1872,1889,1889,1907,1937,1937,1937,1937,1937,1937,1937,1931,1931,1925,1925,1925,1919,1907,1907,1907,1913,1913,1913,1913,1913,1925,1925,1925,1931,1931,1937,1943,1937,1931,1931,1919,1919,1913,1901,1901,1889,1889,1884,1872,1872,1872,1872,1872,1872,1878,1884,1884,1889,1889,1895,1913,1913,1925,1931,1931,1943,1943,1943,1949,1949,1949,1949,1943,1943,1943,1931,1931,1919,1907,1907,1889,1889,1872,1855,1855,1839,1839,1823,1807,1807,1786,1786,1770,1755,1755,1745,1731,1731,1721,1721,1707,1697,1697,1688,1688,1674,1661,1661,1648,1648,1630,1617,1617,1605,1605,1588,1576,1576,1564,1556,1556,1549,1549,1541,1537,1537,1533,1533,1526,1526,1526,1522,1518,1518,1518,1518,1514,1514,1514,1514,1518,1564,1564,1622,0,0,1750,1750,1750,1786,1812,1812,1807,1807,1796,1781,1781,1770,1770,1755,1745,1745,1736,1736,1721,1712,1712,1693,1693,1684,1670,1670,1656,1643,1643,1630,1630,1622,1609,1609,1601,1601,1597,1592,1592,1584,1584,1584,1584,1584,1580,1576,1576,1572,1572,1572,1572,1572,1572,1572,1576,1576,1576,1576,1576,1576,1576,1576,1580,1580,1576,1576,1572,1572,1568,1568,5281,5326,5373,5373,5373,5373,5420,5468,5468,5468
0,0,0,0,0,0,0,0,0,0,0,0,0,0,0,0,0,0,0,0,0,0,0,0,0,0,0,0,0,1726,1726,1726,1736,1736,1750,1755,1755,1755,1760,1760,1760,1760,1765,1770,1770,1765,1765,1760,1760,1760,1760,1765,1765,1770,1775,1775,1775,1781,1775,1775,1775,1781,1781,1781,1781,1781,1781,1781,1781,1781,1786,1786,1791,1796,1796,1796,1791,1791,1828,1770,1770,1755,1755,1867,1867,1867,0,0,0,0,0,0,0,0,0,0,0,0,0,0,0,0,0,0,0,0,0,0,0,0,0,0,0,0,0,0,1266,1266,1266,0,0,1269,1269,1269,1266,1266,1261,1261,0,0,0,0,1256,1256,1256,1256,0,0,0,1258,1258,1264,1264,1266,1269,1269,0,0,0,0,0,0,0,0,0,1828,1828,1817,1817,1791,1781,1781,1781,1786,1786,1716,1716,1716,1726,1740,1740,1755,1755,1775,1796,1796,1828,1850,1850,1872,1889,1889,1901,1913,1913,1925,1925,1931,1943,1943,1955,1968,1968,1980,1993,1993,2006,2026,2026,2039,2039,2046,2060,2060,2060,2066,2066,2066,2066,2060,2060,2053,2053,2053,2046,2046,2039,2032,2032,2026,2026,2026,2019,2019,2019,2019,2019,2019,2019,2019,2019,2026,2026,2026,2026,2026,2026,2026,2026,2026,2026,2026,2026,2019,2019,2019,2019,2019,2013,2013,2013,2013,2006,2006,2006,2006,2000,2000,2000,1993,1993,1993,1987,1987,1987,1987,1987,1980,1980,1980,1980,1980,1974,1974,1974,1974,1974,1968,1968,1968,1968,1974,1974,1974,1974,1980,1980,1987,1987,1993,1993,1993,2000,2000,2000,2006,2006,2013,2013,2013,2013,2013,2013,2013,2013,2013,2013,2013,2006,2006,2006,2006,2006,2000,2000,2000,1993,1993,1993,1993,1987,1987,1987,1987,1993,1993,1993,2000,2000,2000,2000,2000,2000,2000,2000,2000,2000,1993,1993,1993,1987,1987,1987,1987,1987,1987,1987,1987,1987,1987,1987,1987,1987,1980,1980,1980,1980,1980,1974,1974,1974,1974,1974,1974,1974,1974,1974,1974,1974,1974,1974,1974,1974,1974,1968,1968,1961,1955,1955,1955,1943,1943,1943,1943,1937,1925,1925,1913,1913,1907,1901,1901,1895,1895,1895,1895,1901,1895,1895,1895,1895,1895,1895,1895,1895,1889,1884,1884,1878,1878,1878,1878,1878,1878,1878,1884,1884,1889,1901,1901,1907,1925,1925,1943,1943,1943,1943,1943,1943,1943,1943,1943,1925,1925,1925,1919,1907,1907,1907,1913,1913,1913,1913,1913,1925,1925,1925,1931,1931,1937,1943,1937,1931,1931,1919,1919,1913,1901,1901,1889,1884,1884,1872,1872,1872,1872,1872,1872,1878,1878,1878,1889,1889,1895,1907,1907,1919,1931,1931,1937,1943,1943,1949,1949,1949,1949,1943,1943,1943,1931,1931,1919,1907,1907,1889,1889,1872,1855,1855,1839,1839,1823,1807,1807,1786,1786,1770,1755,1755,1745,1731,1731,1721,1721,1707,1697,1697,1688,1688,1674,1661,1661,1648,1648,1630,1617,1617,1605,1605,1588,1576,1576,1564,1556,1556,1549,1549,1541,1537,1537,1529,1529,1526,1526,1526,1522,1518,1518,1518,1518,1514,1514,1514,1514,1518,1564,1564,1622,0,0,1750,1750,1750,1786,1812,1812,1807,1807,1796,1786,1786,1770,1770,1760,1745,1745,1736,1736,1721,1712,1712,1697,1679,1679,1665,1665,1652,1643,1643,1626,1626,1613,1605,1605,1601,1601,1597,1592,1592,1584,1584,1584,1584,1584,1580,1576,1576,1572,1572,1572,1572,1572,1572,1572,1576,1576,1576,1576,1576,1576,1576,1576,1580,1580,1580,1580,1576,1576,1576,5281,5281,5373,5420,5373,5373,5373,5420,5468,5468,5468
0,0,0,0,0,0,0,0,0,0,0,0,0,0,0,0,0,0,0,0,0,0,0,0,0,0,0,0,1726,1726,1726,1726,1736,1736,1750,1755,1755,1755,1760,1760,1760,1760,1765,1765,1765,1765,1765,1760,1760,1760,1760,1760,1760,1765,1770,1770,1770,1770,1765,1765,1765,1781,1781,1781,1781,1781,1781,1781,1781,1781,1786,1786,1791,1796,1796,1796,1791,1791,0,1770,1770,1755,1755,0,0,0,0,0,0,0,0,0,0,0,0,0,0,0,0,0,0,0,0,0,0,1271,1271,0,0,0,1271,1271,1271,1271,1271,1274,1266,1266,1266,1282,1282,1269,1269,1269,1266,1266,1261,1261,1277,1277,1274,1274,1256,1256,1256,1256,1274,1271,1271,1258,1258,1264,1264,1266,1269,1269,1282,1287,1287,1293,1293,1301,1312,1312,0,0,0,0,0,0,0,0,0,0,0,1716,1716,1716,1726,1740,1740,1755,1755,1775,1796,1796,1828,1850,1850,1872,1889,1889,1901,1913,1913,1925,1925,1931,1943,1943,1955,1968,1968,1980,1993,1993,2006,2019,2019,2026,2026,2039,2046,2046,2053,2053,2053,2060,2060,2053,2053,2046,2046,2046,2039,2039,2032,2026,2026,2019,2019,2019,2019,2019,2019,2019,2019,2019,2019,2019,2019,2019,2019,2019,2019,2019,2019,2019,2019,2019,2019,2019,2019,2019,2013,2013,2013,2013,2013,2013,2013,2006,2006,2006,2006,2006,2000,1993,1993,1993,1993,1993,1987,1987,1987,1987,1987,1980,1980,1980,1980,1980,1974,1974,1974,1974,1974,1968,1968,1968,1968,1974,1974,1974,1974,1980,1980,1987,1987,1993,1993,1993,2000,2000,2000,2006,2006,2006,2013,2013,2013,2013,2013,2013,2013,2013,2013,2006,2006,2006,2000,2000,2000,1993,1993,1993,1993,1993,1987,1987,1987,1987,1987,1987,1993,1993,1993,1993,1993,1993,2000,2000,2000,2000,2000,2000,2000,1993,1993,1993,1993,1993,1993,1993,1993,1987,1987,1987,1987,1987,1987,1987,1987,1987,1987,1980,1980,1980,1980,1980,1980,1980,1980,1980,1980,1980,1980,1980,1980,1974,1974,1974,1974,1974,1968,1968,1968,1961,1961,1955,1949,1949,1949,1949,1943,1937,1937,1931,1919,1919,1913,1913,1907,1907,1907,1901,1901,1895,1895,1895,1895,1895,1895,1895,1895,1889,1884,1884,1878,1878,1878,1878,1878,1878,1878,1884,1884,1889,1901,1901,1907,1925,1925,1943,1943,1943,1943,1943,1943,1943,1943,1943,1937,1937,1937,1925,1919,1919,1919,1925,1925,1919,1919,1919,1931,1937,1937,1937,1937,1943,1943,1937,1937,1937,1931,1931,1919,1907,1907,1895,1884,1884,1884,1884,1878,1872,1872,1872,1878,1878,1878,1889,1889,1901,1907,1907,1919,1931,1931,1937,1943,1943,1949,1949,1949,1949,1943,1943,1943,1931,1931,1919,1907,1907,1889,1889,1872,1855,1855,1839,1839,1823,1807,1807,1786,1786,1770,1755,1755,1740,1731,1731,1721,1721,1707,1697,1697,1688,1688,1674,1661,1661,1643,1643,1630,1617,1617,1601,1588,1588,1576,1576,1564,1552,1552,1545,1545,1541,1533,1533,1529,1526,1526,1526,1526,1522,1522,1522,1518,1518,1518,1518,1518,1518,1522,1576,1576,1635,0,0,1765,1765,1801,1801,1817,1823,1812,1812,1796,1786,1786,1770,1770,1760,1745,1745,1736,1736,1726,1712,1712,1697,1679,1679,1665,1665,1652,1643,1643,1626,1626,1613,1605,1605,1597,1597,1588,1584,1584,1580,1576,1576,1576,1576,1572,1568,1568,1568,1564,1564,1564,1564,1564,1564,1568,1568,1572,1572,1572,1572,1572,1572,1572,1572,1572,1572,1572,1572,1572,5281,5281,5373,5420,5373,5373,5373,5468,5468,5420,5420
0,0,0,0,0,0,0,0,0,0,0,0,0,0,0,0,0,0,0,0,0,0,0,0,0,0,0,0,1726,1726,1726,1726,1736,1736,1750,1755,1755,1760,1760,1760,1760,1760,1765,1765,1765,1765,1765,1760,1760,1760,1760,1760,1760,1765,1770,1770,1770,1770,1765,1765,1765,1765,1770,1765,1765,1765,1765,1765,1760,1760,1760,1755,1755,1750,1740,1740,1721,1697,1697,1665,1665,1630,1630,0,0,0,0,0,0,0,0,0,0,0,0,0,0,0,0,0,0,0,0,1287,1287,1271,1271,1279,1279,1279,1271,1271,1271,1271,1271,1274,1274,1277,1277,1282,1282,1282,1279,1279,1279,1279,1277,1277,1277,1277,1274,1274,1271,1271,1271,1271,1274,1271,1271,1274,1274,1277,1277,1277,1279,1279,1282,1287,1287,1293,1293,1301,1312,1312,0,0,0,0,0,0,0,0,0,0,0,1716,1716,1716,1726,1740,1697,1697,1697,1726,1796,1791,1791,1817,1817,1850,1884,1884,1895,1901,1901,1913,1913,1919,1931,1931,1949,1961,1961,1968,1980,1980,1993,2006,2006,2019,2019,2026,2032,2032,2032,2039,2039,2039,2039,2039,2039,2039,2032,2032,2032,2032,2026,2013,2013,2013,2013,2013,2013,2019,2019,2019,2019,2019,2019,2019,2019,2019,2019,2019,2019,2019,2019,2019,2019,2019,2019,2019,2019,2019,2013,2013,2013,2013,2013,2013,2013,2006,2006,2006,2006,2006,2000,1993,1993,1993,1987,1987,1987,1987,1980,1980,1980,1980,1974,1974,1974,1974,1974,1974,1974,1968,1968,1968,1968,1968,1968,1968,1974,1974,1974,1980,1980,1987,1987,1987,1993,1993,1993,2000,2000,2006,2006,2006,2006,2006,2006,2006,2006,2006,2006,2006,2006,2000,2000,2000,1993,1993,1993,1987,1987,1987,1987,1987,1987,1987,1980,1980,1987,1987,1993,1993,1993,1993,1993,1993,2000,2000,2000,2000,2000,2000,2000,2000,2000,2000,1993,1993,1993,1993,1993,1993,1993,1987,1987,1987,1987,1987,1987,1987,1987,1987,1980,1980,1980,1980,1980,1980,1980,1980,1980,1980,1980,1980,1980,1974,1974,1974,1974,1974,1968,1968,1968,1961,1961,1955,1949,1949,1949,1949,1943,1937,1937,1931,1919,1919,1913,1913,1907,1907,1907,1907,1907,1907,1901,1901,1901,1907,1907,1907,1907,1907,1901,1901,1901,1901,1901,1901,1901,1907,1907,1907,1907,1907,1913,1913,1919,1931,1931,1949,1949,1949,1955,1955,1961,1961,1961,1968,1968,1968,1974,1968,1968,1968,1961,1961,1961,1961,1961,1961,1961,1961,1955,1955,1955,1949,1949,1943,1943,1943,1937,1937,1925,1907,1907,1895,1884,1884,1884,1884,1878,1872,1872,1872,1878,1878,1878,1889,1889,1901,1907,1907,1919,1931,1931,1937,1943,1943,1949,1949,1943,1943,1943,1943,1943,1931,1931,1919,1907,1907,1889,1889,1872,1855,1855,1839,1839,1823,1807,1807,1786,1770,1770,1755,1755,1740,1731,1731,1721,1721,1707,1697,1697,1688,1688,1674,1661,1661,1643,1643,1630,1617,1617,1601,1588,1588,1576,1576,1564,1552,1552,1545,1545,1541,1533,1533,1529,1526,1526,1526,1526,1522,1522,1522,1518,1518,1522,1522,1522,1522,1522,1584,1584,1635,0,0,1765,1765,1801,1801,1817,1823,1812,1812,1796,1786,1786,1770,1770,1760,1745,1745,1736,1736,1726,1712,1712,1697,1679,1679,1665,1665,1652,1635,1635,1622,1622,1609,1597,1597,1588,1588,1584,1576,1576,1572,1572,1572,1568,1568,1564,1564,1564,1560,1556,1556,1556,1556,1556,1556,1560,1560,1560,1564,1564,1564,1564,1572,1572,1572,1572,1572,1572,1572,1572,5326,5326,5373,5420,5420,5420,5420,5468,5468,5420,5420
0,0,0,0,0,0,0,0,0,0,0,0,0,0,0,0,0,0,0,0,0,0,0,0,0,0,1721,1721,1721,1721,1726,1726,1736,1736,1750,1755,1755,1755,1755,1755,1760,1760,1765,1765,1765,1765,1765,1760,1760,1760,1755,1755,1755,1765,1765,1765,1765,1765,1760,1760,1760,1755,1755,1755,1760,1755,1750,1750,1740,1721,1721,1712,1712,1697,1674,1674,1648,1648,1622,1584,1584,1584,1630,0,0,0,0,0,0,0,0,0,0,0,0,0,0,0,0,0,0,0,0,1287,1287,1282,1279,1279,1279,1279,1279,1277,1277,1277,1279,1282,1282,1287,1282,1282,1282,1282,1279,1279,1279,1279,1277,1277,1277,1277,1274,1274,1271,1271,1271,1271,1274,1271,1271,1274,1274,1277,1277,1277,1279,1279,1282,1287,1287,1293,1293,1301,1312,1312,0,0,1346,1346,1407,1437,1437,0,0,0,0,0,1552,1552,0,0,1622,1622,1622,1652,1679,1679,1707,1817,1817,1850,1884,1884,1895,1839,1839,1913,1913,1919,1931,1931,1949,1961,1961,1968,1980,1980,1993,2006,2006,2019,2019,2026,2032,2032,2032,2039,2039,2039,2039,2039,2039,2039,2032,2032,2032,2032,2026,2013,2013,2013,2013,2013,2006,2006,2006,2006,2006,2006,2006,2006,2006,2006,2006,2013,2013,2013,2013,2013,2013,2013,2013,2013,2013,2013,2013,2013,2006,2006,2006,2006,2006,2000,2000,2000,1993,1993,1993,1993,1993,1987,1980,1980,1980,1980,1980,1980,1980,1974,1974,1974,1974,1974,1968,1968,1968,1968,1968,1968,1968,1968,1968,1968,1968,1968,1974,1980,1980,1987,1987,1987,1993,1993,1993,2000,2000,2006,2006,2006,2006,2006,2006,2006,2006,2006,2006,2006,2006,2000,2000,2000,1993,1993,1993,1987,1987,1987,1987,1987,1987,1987,1980,1980,1980,1980,1987,1987,1987,1993,1993,1993,1993,1993,1993,2000,2000,2000,2000,2000,2000,2000,1993,1993,1993,1993,1993,1993,1993,1987,1987,1987,1987,1987,1987,1987,1987,1987,1987,1987,1987,1987,1987,1987,1987,1987,1987,1987,1987,1987,1987,1980,1980,1980,1980,1980,1974,1974,1974,1968,1968,1961,1955,1955,1955,1955,1955,1943,1943,1937,1931,1931,1925,1925,1919,1919,1925,1925,1925,1925,1919,1919,1919,1925,1925,1919,1919,1925,1919,1919,1919,1919,1919,1919,1919,1919,1919,1919,1919,1925,1925,1919,1919,1931,1931,1949,1949,1949,1955,1955,1961,1961,1961,1968,1968,1968,1974,1968,1968,1968,1961,1961,1961,1961,1961,1961,1961,1961,1955,1955,1955,1949,1949,1943,1943,1943,1937,1937,1925,1913,1913,1901,1895,1895,1884,1884,1884,1884,1884,1884,1884,1889,1889,1895,1895,1901,1907,1907,1925,1931,1931,1943,1943,1943,1949,1949,1943,1943,1943,1943,1943,1931,1931,1919,1907,1907,1889,1889,1872,1855,1855,1839,1839,1823,1807,1807,1786,1770,1770,1755,1755,1740,1731,1731,1721,1721,1707,1697,1697,1688,1688,1674,1656,1656,1643,1643,1626,1613,1613,1597,1584,1584,1572,1572,1560,1552,1552,1545,1545,1537,1533,1533,1529,1526,1526,1526,1526,1522,1518,1518,1518,1518,1518,1518,1518,1518,1518,1584,1584,0,0,0,1786,1786,1817,1817,1823,1823,1817,1817,1801,1786,1786,1770,1770,1760,1750,1750,1736,1731,1726,1712,1712,1697,1679,1679,1665,1665,1652,1635,1635,1622,1622,1609,1597,1597,1588,1588,1584,1576,1576,1572,1572,1572,1568,1568,1564,1564,1564,1560,1556,1556,1556,1556,1556,1556,1560,1560,1560,1564,1564,1564,1564,1564,1564,1564,1568,1568,1568,1568,1568,5326,5326,5373,5420,5420,5420,5420,5468,5468,5420,5420
0,0,0,0,0,0,0,0,0,0,0,0,0,0,0,0,0,0,0,0,0,0,0,0,0,0,1721,1721,1721,1721,1731,1731,1740,1740,1750,1750,1750,1755,1755,1755,1755,1760,1760,1765,1765,1760,1760,1760,1760,1760,1755,1755,1755,1765,1765,1765,1765,1765,1760,1760,1760,1755,1755,1755,1760,1755,1750,1750,1740,1721,1721,1712,1712,1697,1674,1674,1648,1648,1622,1584,1584,1584,0,0,0,0,0,0,0,0,0,0,0,0,0,1346,1346,1334,1323,1323,1312,1312,1301,1287,1287,1282,1279,1279,1279,1279,1279,1277,1277,1277,1279,1282,1282,1287,1287,1290,1293,1293,1293,1293,1293,1293,1290,1287,1287,1287,1285,1285,1285,1285,1282,1282,1282,1282,1285,1285,1285,1287,1287,1287,1290,1290,1290,1295,1295,1303,1312,1312,1317,1317,0,0,1346,1346,1407,1437,1437,0,0,0,0,0,1552,1552,0,0,1622,1622,1622,1652,1679,1679,1707,0,0,0,0,0,1901,1839,1839,1850,1850,1867,1878,1878,1889,1907,1907,1919,1937,1937,1949,1949,1955,1974,1974,1987,2000,2000,2013,2019,2019,2019,2019,2019,2019,2019,2013,2013,2006,2006,2006,2006,2006,2000,2000,2000,1993,1993,1993,1993,1993,1993,1993,2000,2000,2000,2000,2000,2000,2000,2000,2000,2000,2000,2000,2000,2000,2000,2000,2000,1993,1993,1993,2006,2006,2000,2000,2000,1993,1993,1993,1993,1993,1987,1980,1980,1980,1980,1980,1980,1980,1974,1974,1974,1974,1974,1968,1968,1968,1968,1968,1968,1968,1968,1968,1968,1968,1968,1974,1980,1980,1980,1980,1987,1993,1993,1993,1993,1993,2000,2000,2000,2000,2000,2000,2000,2000,2000,2000,2000,2000,1993,1993,1993,1987,1987,1987,1987,1987,1987,1987,1987,1987,1987,1980,1980,1980,1980,1987,1987,1987,1993,1993,1993,1993,1993,1993,2000,2000,2000,2000,2000,2000,2000,1993,1993,1993,1993,1993,1987,1987,1987,1987,1993,1993,1993,1993,1993,1993,1993,1993,1993,1993,1993,1987,1987,1987,1987,1987,1987,1987,1987,1987,1987,1987,1987,1980,1980,1980,1980,1974,1974,1974,1968,1961,1961,1955,1955,1955,1943,1943,1937,1931,1931,1925,1925,1919,1919,1925,1925,1925,1925,1919,1919,1919,1925,1925,1919,1919,1925,1919,1919,1919,1919,1919,1919,1919,1919,1919,1919,1919,1925,1925,1925,1931,1943,1943,1955,1961,1961,1961,1961,1974,1980,1980,1980,1987,1987,1987,1980,1974,1974,1974,1968,1968,1968,1968,1968,1968,1968,1968,1961,1961,1961,1961,1955,1955,1955,1949,1937,1937,1925,1925,1919,1907,1907,1901,1901,1895,1895,1895,1895,1895,1901,1901,1901,1901,1907,1913,1913,1925,1937,1937,1943,1949,1949,1949,1949,1943,1943,1943,1937,1937,1925,1925,1919,1907,1907,1889,1889,1872,1855,1855,1839,1839,1817,1801,1801,1786,1770,1770,1755,1755,1740,1731,1731,1721,1721,1707,1697,1697,1688,1688,1674,1656,1656,1639,1626,1626,1609,1609,1597,1584,1584,1568,1568,1560,1549,1549,1545,1545,1537,1533,1533,1526,1526,1526,1522,1522,1522,1518,1518,1518,1518,1518,1518,1518,1518,1518,1584,1584,0,0,0,1796,1796,1833,1833,1828,1828,1817,1817,1807,1786,1786,1775,1775,1760,1750,1750,1740,1731,1731,1716,1716,1697,1679,1679,1665,1665,1648,1630,1630,1617,1617,1605,1592,1592,1584,1584,1576,1572,1572,1564,1564,1564,1560,1560,1560,1556,1556,1552,1549,1549,1549,1549,1549,1552,1552,1552,1556,1556,1556,1556,1556,1556,1560,1560,1564,1564,1564,1564,1564,5373,5373,5420,5468,5420,5420,5420,5468,5468,5420,5420
0,0,0,0,0,0,0,0,0,0,0,0,0,0,0,0,0,0,0,0,0,0,0,0,0,0,1721,1721,1721,1726,1731,1731,1740,1740,1750,1750,1750,1755,1755,1755,1755,1760,1760,1765,1765,1760,1760,1755,1755,1755,1755,1755,1755,1765,1765,1765,1760,1760,1760,1760,1750,1750,1750,1745,1745,1745,1736,1736,1716,1688,1688,1665,1665,1643,1643,1613,1588,1588,1588,1584,1584,1584,0,0,0,0,0,0,0,0,0,0,1349,1340,1340,1337,1337,1332,1320,1320,1309,1301,1301,1287,1287,1285,1282,1282,1282,1282,1282,1282,1285,1285,1285,1287,1287,1293,1293,1298,1298,1298,1298,1298,1298,1298,1295,1295,1295,1295,1293,1293,1290,1290,1290,1290,1290,1290,1290,1290,1290,1293,1295,1290,1290,1290,1290,1295,1295,1303,1312,1312,1317,1317,1329,1337,1337,1346,1379,1379,1437,0,0,0,0,1478,1478,1503,1503,1526,1541,1541,1560,1584,1584,1609,1707,0,0,0,1740,1740,1760,1760,1781,1801,1801,1812,1823,1823,1833,1844,1844,1861,1861,1878,1895,1895,1907,1925,1925,1937,1955,1955,1968,1980,1980,1980,1980,1980,2019,2019,2013,2013,2006,2006,2006,2006,2006,2000,2000,2000,1993,1993,1993,1993,1993,1993,1993,2000,2000,2000,2000,2000,2000,2000,2000,2000,2000,2000,2000,2000,2000,2000,2000,2000,1993,1993,1993,1993,1993,1987,1987,1987,1987,1987,1987,1980,1980,1980,1974,1974,1974,1974,1974,1968,1968,1968,1968,1968,1968,1968,1968,1968,1968,1968,1968,1968,1968,1968,1968,1968,1968,1968,1974,1974,1974,1980,1980,1987,1987,1987,1987,1987,1987,1993,1993,1993,1993,1993,1993,1993,1993,1993,1993,1993,1993,1987,1987,1987,1987,1987,1987,1987,1987,1987,1987,1987,1987,1987,1987,1987,1987,1987,1987,1987,1987,1993,1993,1993,2000,2000,2000,2000,2000,2000,2000,2000,2000,2000,1993,1993,1993,1993,1993,1987,1987,1987,1987,1987,1987,1987,1993,1993,1993,1993,1993,1993,1993,1993,1987,1987,1987,1987,1987,1987,1987,1987,1987,1987,1987,1987,1980,1980,1980,1974,1974,1974,1974,1968,1961,1961,1961,1961,1955,1949,1949,1943,1937,1937,1937,1937,1931,1931,1931,1931,1931,1931,1931,1931,1931,1931,1931,1931,1925,1925,1925,1931,1925,1925,1925,1925,1925,1925,1925,1925,1925,1925,1931,1931,1937,1949,1949,1955,1961,1961,1968,1968,1974,1980,1980,1987,1987,1987,1993,1987,1980,1980,1980,1980,1980,1980,1980,1974,1968,1968,1968,1961,1961,1961,1961,1955,1955,1955,1949,1937,1937,1925,1925,1919,1907,1907,1901,1901,1895,1895,1895,1895,1895,1901,1901,1901,1901,1907,1913,1913,1925,1937,1937,1943,1949,1949,1949,1943,1943,1943,1937,1937,1937,1925,1925,1913,1901,1901,1889,1889,1872,1855,1855,1839,1839,1817,1801,1801,1786,1770,1770,1755,1755,1740,1731,1731,1721,1721,1707,1697,1697,1688,1688,1674,1656,1656,1639,1626,1626,1609,1609,1597,1584,1584,1568,1568,1560,1549,1549,1545,1545,1537,1533,1533,1526,1526,1526,1522,1522,1518,1518,1518,1518,1514,1514,1514,1518,1518,1518,1584,1584,0,0,0,1796,1796,1833,1833,1828,1828,1817,1817,1807,1786,1786,1775,1775,1760,1750,1750,1740,1731,1731,1716,1716,1697,1679,1679,1661,1661,1643,1626,1626,1613,1613,1601,1588,1588,1576,1576,1572,1564,1564,1560,1556,1556,1556,1556,1552,1549,1549,1549,1549,1549,1549,1549,1549,1552,1552,1552,1556,1556,1556,1556,1556,1556,1560,1560,1564,1564,1564,1564,1564,5420,5420,5468,5517,5468,5468,5468,5468,5468,5420,5420
0,0,0,0,0,0,0,0,0,0,0,0,0,0,0,0,0,0,0,0,0,0,0,1721,1721,1721,1721,1721,1721,1726,1731,1731,1736,1736,1745,1750,1750,1750,1755,1755,1755,1760,1760,1765,1765,1760,1760,1755,1755,1755,1755,1760,1760,1765,1770,1765,1760,1760,1760,1760,1750,1745,1745,1740,1740,1731,1726,1726,1688,1688,1665,1665,1665,1643,1643,1613,1588,1588,1588,0,0,0,0,0,0,0,0,0,0,0,0,0,1349,1340,1340,1337,1337,1332,1320,1320,1309,1301,1301,1290,1290,1287,1282,1282,1282,1282,1282,1282,1285,1285,1285,1287,1287,1293,1293,1298,1298,1298,1298,1298,1298,1298,1295,1295,1295,1295,1293,1293,1290,1290,1290,1290,1290,1290,1290,1290,1290,1293,1295,1295,1298,1298,1298,1301,1301,1309,1315,1315,1323,1329,1329,1337,1337,1343,1352,1352,1364,1376,1376,1385,1398,1398,1420,1503,1464,1464,1482,1482,1560,1584,1584,1609,0,0,0,0,1740,1740,1760,1760,1781,1801,1801,1812,1823,1823,1833,1844,1844,1861,1861,1878,1895,1895,1907,1925,1925,1937,1955,1955,1968,1980,1980,1980,1980,1980,1987,1987,1993,1993,1987,1987,1987,1987,1987,1980,1980,1980,1980,1980,1980,1980,1980,1980,1980,1980,1980,1980,1980,1980,1980,1980,1987,1987,1987,1987,1987,1980,1980,1980,1987,1987,1980,1980,1980,1980,1980,1980,1980,1980,1974,1974,1968,1968,1968,1968,1968,1968,1968,1968,1968,1968,1968,1968,1968,1968,1968,1968,1968,1968,1968,1968,1968,1968,1968,1968,1968,1968,1974,1974,1974,1974,1974,1980,1980,1987,1987,1987,1987,1987,1987,1993,1993,1993,1993,1993,1993,1993,1993,1993,1993,1993,1993,1987,1987,1987,1987,1987,1987,1987,1987,1987,1987,1987,1980,1980,1980,1980,1980,1980,1980,1987,1987,1987,1993,1993,1993,1993,1993,1993,1993,2000,2000,1993,1993,1993,1993,1993,1987,1987,1987,1987,1987,1987,1987,1987,1987,1987,1987,1987,1987,1987,1987,1987,1987,1987,1987,1987,1987,1987,1987,1987,1987,1987,1987,1987,1987,1987,1980,1980,1980,1974,1974,1974,1974,1968,1961,1961,1961,1961,1961,1949,1949,1943,1943,1943,1937,1937,1937,1937,1937,1937,1931,1931,1931,1931,1931,1931,1931,1931,1931,1931,1931,1931,1925,1925,1925,1925,1925,1925,1925,1925,1925,1925,1931,1931,1937,1949,1949,1955,1961,1961,1968,1968,1974,1980,1980,1987,1987,1987,1993,1987,1980,1980,1980,1980,1980,1980,1980,1974,1974,1974,1974,1968,1968,1968,1968,1961,1955,1955,1949,1943,1943,1937,1937,1925,1919,1919,1913,1913,1907,1907,1907,1907,1907,1907,1907,1913,1919,1919,1925,1925,1937,1943,1943,1949,1949,1949,1949,1943,1943,1943,1937,1937,1937,1925,1925,1913,1901,1901,1889,1889,1872,1855,1855,1839,1839,1817,1801,1801,1786,1770,1770,1755,1755,1740,1731,1731,1721,1721,1707,1697,1697,1688,1688,1670,1652,1652,1639,1622,1622,1609,1609,1592,1580,1580,1568,1568,1556,1549,1549,1541,1541,1533,1529,1529,1526,1522,1522,1522,1522,1518,1514,1514,1514,1514,1514,1514,1522,1522,1526,1597,1597,0,0,0,1817,1817,1844,1844,1833,1833,1823,1823,1807,1791,1791,1775,1775,1765,1755,1755,1745,1731,1731,1716,1716,1697,1679,1679,1661,1661,1643,1626,1626,1613,1613,1601,1588,1588,1576,1576,1572,1564,1564,1560,1556,1556,1556,1556,1552,1549,1549,1549,1545,1545,1545,1545,1545,1545,1545,1545,1545,1549,1549,1549,1549,1552,1552,1552,1556,1556,1556,1556,1556,5420,5420,5468,5517,5468,5468,5468,5468,5468,5420,5420
0,0,0,0,0,0,0,0,0,0,0,0,0,0,0,0,0,0,0,0,0,1712,1712,1712,1716,1716,1716,1716,1716,1721,1721,1721,1731,1731,1740,1750,1750,1750,1755,1755,1755,1760,1760,1765,1765,1765,1765,1760,1760,1760,1760,1765,1765,1770,1770,1770,1760,1760,1760,1760,1755,1745,1745,1740,1740,1731,1726,1726,1688,1688,1665,1665,1665,1643,1643,1613,1588,1588,1588,0,0,0,1440,1417,1417,1392,1392,1379,1364,1364,1349,1349,1337,1332,1332,1329,1329,1320,1312,1312,1303,1295,1295,1287,1287,1287,1285,1285,1285,1285,1285,1285,1285,1285,1285,1290,1290,1293,1295,1295,1295,1295,1298,1298,1298,1298,1298,1298,1298,1298,1298,1298,1298,1295,1295,1295,1295,1295,1295,1295,1295,1298,1298,1298,1301,1301,1301,1306,1306,1312,1317,1317,1326,1332,1332,1337,1337,1343,1352,1352,1364,1376,1376,1385,1398,1398,1420,0,1464,1464,1482,1482,1514,1514,1514,1545,0,1613,1613,0,1679,1679,1707,1707,1736,1765,1765,1786,1801,1801,1807,1807,1823,1839,1839,1850,1867,1867,1884,1901,1901,1913,1925,1925,1943,1943,1949,1949,1949,1961,1968,1968,1974,1974,1974,1974,1974,1974,1974,1974,1974,1974,1974,1974,1974,1974,1974,1968,1968,1968,1968,1968,1968,1968,1968,1968,1987,1987,1987,1987,1987,1980,1980,1980,1987,1987,1980,1980,1980,1980,1980,1980,1980,1980,1974,1974,1968,1968,1968,1968,1968,1968,1968,1968,1968,1968,1968,1968,1968,1968,1968,1968,1961,1961,1961,1961,1961,1968,1968,1968,1968,1968,1974,1974,1974,1974,1974,1980,1980,1980,1980,1980,1980,1980,1980,1987,1987,1987,1987,1987,1980,1980,1980,1987,1987,1987,1987,1987,1987,1987,1987,1987,1987,1987,1987,1987,1987,1987,1980,1980,1980,1980,1980,1980,1980,1987,1987,1987,1987,1987,1987,1987,1987,1993,1993,2000,2000,1993,1993,1993,1993,1993,1987,1987,1987,1987,1987,1987,1987,1987,1987,1987,1987,1987,1987,1987,1987,1987,1987,1987,1987,1987,1987,1987,1987,1987,1987,1987,1987,1987,1987,1987,1980,1980,1980,1974,1974,1974,1974,1968,1961,1961,1961,1955,1955,1949,1949,1943,1943,1943,1937,1937,1937,1937,1937,1937,1931,1931,1931,1931,1931,1931,1931,1931,1931,1931,1931,1931,1925,1925,1931,1931,1931,1931,1925,1925,1925,1931,1931,1931,1937,1949,1949,1955,1961,1961,1968,1968,1974,1980,1980,1987,1987,1987,1993,1987,1987,1987,1987,1987,1987,1987,1987,1987,1987,1987,1980,1980,1980,1974,1974,1974,1968,1968,1961,1949,1949,1943,1943,1931,1925,1925,1919,1913,1913,1913,1913,1907,1907,1913,1913,1913,1919,1919,1925,1925,1937,1943,1943,1943,1949,1949,1949,1943,1943,1943,1937,1931,1931,1919,1919,1913,1901,1901,1884,1884,1872,1855,1855,1839,1817,1817,1801,1801,1781,1765,1765,1750,1750,1740,1731,1731,1721,1721,1707,1693,1693,1684,1684,1670,1652,1652,1635,1617,1617,1605,1605,1588,1576,1576,1564,1564,1556,1549,1549,1541,1541,1533,1529,1529,1526,1522,1522,1522,1522,1518,1514,1514,1514,1514,1514,1514,1526,1526,1537,1601,0,0,0,0,1833,1833,1855,1850,1833,1833,1823,1823,1807,1791,1791,1775,1775,1765,1755,1755,1745,1731,1731,1716,1716,1697,1679,1679,1661,1661,1643,1622,1622,1605,1605,1597,1584,1584,1576,1576,1568,1560,1560,1552,1552,1552,1549,1549,1549,1545,1545,1541,1541,1541,1541,1541,1541,1541,1541,1541,1541,1545,1545,1545,1545,1549,1549,1549,1552,1552,1552,1552,1552,5420,5420,5468,5517,5468,5468,5468,5468,5517,5420,5420
0,0,0,0,0,0,0,0,0,0,0,0,0,0,0,0,0,0,0,0,0,1712,1712,1712,1716,1716,1716,1716,1716,1721,1721,1721,1731,1731,1740,1740,1740,1745,1750,1750,1750,1755,1755,1765,1765,1765,1765,1760,1760,1760,1760,1765,1765,1770,1770,1770,1760,1760,1760,1760,1750,1745,1745,1736,1736,1726,1721,1721,1679,1679,1665,1665,0,0,0,0,1514,1514,1475,1475,1444,1444,1414,1392,1392,1373,1373,1367,1355,1355,1343,1343,1334,1329,1329,1329,1329,1320,1312,1312,1303,1295,1295,1287,1287,1287,1285,1285,1285,1285,1285,1285,1285,1285,1285,1290,1290,1293,1295,1295,1295,1295,1298,1298,1298,1298,1298,1298,1301,1301,1301,1301,1298,1295,1295,1295,1295,1295,1295,1295,1295,1298,1298,1298,1301,1301,1301,1306,1306,1312,1317,1317,1326,1332,1332,1334,1334,1340,1349,1349,1361,1367,1367,1373,1379,1379,1398,1417,1417,1464,1482,1454,1454,1454,1464,1545,0,1613,1613,0,1679,1679,1622,1622,1736,1765,1765,1786,1801,1801,1807,1781,1781,1801,1801,1812,1833,1833,1884,1901,1901,1913,1925,1925,1943,1943,1949,1949,1949,1961,1968,1968,1974,1974,1974,1974,1974,1974,1974,1974,1974,1974,1974,1974,1974,1974,1974,1968,1968,1968,1968,1968,1968,1968,1968,1968,1968,1968,1968,1968,1968,1968,1968,1968,1968,1968,1968,1968,1968,1968,1968,1968,1961,1961,1961,1961,1961,1961,1961,1961,1961,1961,1961,1961,1955,1955,1955,1955,1961,1961,1961,1961,1961,1961,1961,1961,1961,1961,1961,1968,1968,1968,1968,1968,1974,1974,1974,1974,1974,1974,1980,1974,1974,1974,1974,1974,1974,1974,1987,1987,1980,1980,1980,1987,1987,1987,1987,1987,1987,1987,1987,1987,1987,1987,1987,1987,1987,1987,1987,1987,1987,1980,1980,1980,1987,1987,1987,1987,1987,1987,1987,1987,1987,1993,1993,1993,1993,1993,1993,1993,1987,1987,1987,1980,1980,1980,1980,1980,1980,1980,1980,1980,1980,1980,1980,1980,1980,1980,1980,1980,1980,1980,1987,1987,1987,1987,1987,1987,1987,1987,1987,1980,1980,1980,1980,1980,1980,1974,1974,1968,1961,1961,1955,1955,1955,1949,1949,1949,1943,1943,1943,1937,1937,1937,1943,1943,1937,1937,1937,1937,1937,1937,1937,1937,1937,1937,1931,1931,1931,1931,1931,1931,1931,1931,1931,1931,1931,1931,1937,1937,1943,1949,1949,1955,1961,1961,1968,1968,1974,1980,1980,1987,1987,1987,1993,1987,1987,1987,1987,1987,1987,1987,1987,1987,1987,1987,1980,1980,1980,1974,1974,1974,1968,1968,1961,1949,1949,1943,1943,1931,1925,1925,1919,1913,1913,1913,1913,1907,1907,1913,1913,1919,1925,1925,1931,1931,1937,1943,1943,1943,1949,1949,1949,1943,1943,1943,1937,1931,1931,1919,1919,1907,1895,1895,1884,1884,1872,1855,1855,1839,1817,1817,1801,1801,1781,1765,1765,1750,1750,1740,1731,1731,1721,1721,1707,1693,1693,1684,1684,1670,1652,1652,1635,1617,1617,1605,1605,1588,1576,1576,1564,1564,1556,1549,1549,1541,1541,1533,1529,1529,1522,1522,1522,1518,1518,1514,1511,1511,1511,1511,1511,1511,1526,1526,1537,1601,0,0,0,0,1833,1833,1855,1850,1833,1833,1823,1823,1807,1791,1791,1775,1775,1765,1755,1755,1745,1731,1731,1716,1716,1697,1679,1679,1661,1661,1639,1617,1617,1605,1605,1592,1580,1580,1572,1572,1568,1560,1560,1552,1552,1552,1549,1549,1549,1545,1545,1541,1541,1541,1541,1541,1541,1541,1541,1541,1541,1545,1545,1545,1545,1549,1549,1549,1552,1552,1552,1552,1552,5420,5420,5468,5517,5468,5468,5468,5468,5517,5420,5420
0,0,0,0,0,0,0,0,0,0,0,0,0,0,0,0,0,0,0,0,1707,1707,1712,1712,1712,1712,1712,1712,1712,1716,1721,1721,1731,1731,1740,1740,1740,1745,1750,1750,1750,1755,1755,1765,1765,1765,1765,1765,1765,1765,1765,1770,1770,1775,1775,1775,1770,1770,1760,1760,1750,1745,1745,1736,1736,1726,1721,1721,1679,1679,0,0,0,0,0,0,1514,1514,1475,1475,1444,1444,1414,1392,1392,1373,1373,1367,1355,1355,1343,1343,1334,1329,1329,1326,1326,1317,1312,1312,1303,1295,1295,1287,1287,1287,1285,1285,1285,1285,1285,1285,1285,1285,1285,1290,1290,1293,1295,1295,1295,1295,1298,1298,1298,1298,1298,1298,1301,1301,1301,1301,1301,1301,1301,1301,1303,1303,1303,1303,1303,1306,1306,1306,1309,1309,1309,1312,1312,1315,1323,1323,1326,1332,1332,1334,1334,1340,1346,1346,1361,1367,1367,1373,1379,1379,1398,1417,1417,0,0,1454,1454,1454,1464,0,0,0,0,0,0,0,1622,1622,0,0,0,0,0,0,0,1781,1781,1801,1801,1812,1833,1833,1850,1867,1867,1878,1895,1895,1913,1913,1919,1925,1925,1937,1943,1943,1949,1955,1955,1955,1955,1961,1961,1961,1968,1968,1968,1968,1961,1961,1961,1961,1961,1961,1961,1961,1961,1961,1961,1961,1955,1955,1955,1955,1955,1961,1961,1961,1961,1961,1955,1955,1955,1955,1961,1955,1949,1949,1943,1943,1937,1931,1931,1919,1919,1961,1961,1961,1955,1955,1955,1955,1961,1961,1961,1961,1961,1961,1961,1961,1961,1961,1961,1968,1968,1968,1968,1968,1974,1974,1974,1974,1974,1974,1980,1974,1974,1974,1974,1974,1974,1974,1974,1974,1974,1974,1974,1974,1974,1974,1974,1974,1980,1980,1980,1980,1980,1980,1987,1987,1987,1987,1987,1980,1980,1980,1980,1980,1980,1987,1987,1987,1987,1980,1980,1980,1980,1980,1980,1987,1987,1987,1987,1980,1980,1980,1980,1974,1974,1974,1974,1974,1974,1974,1974,1974,1974,1974,1974,1974,1974,1974,1974,1974,1980,1980,1987,1987,1987,1987,1987,1987,1987,1987,1987,1980,1980,1980,1980,1980,1980,1974,1974,1968,1961,1961,1955,1955,1955,1949,1949,1949,1943,1943,1943,1937,1937,1937,1943,1943,1937,1937,1937,1937,1937,1937,1937,1937,1937,1937,1931,1931,1931,1931,1931,1931,1931,1931,1931,1931,1931,1931,1937,1937,1943,1949,1949,1955,1961,1961,1968,1968,1968,1980,1980,1980,1987,1987,1993,1987,1987,1987,1987,1987,1987,1987,1987,1987,1987,1987,1987,1980,1980,1980,1980,1980,1974,1974,1968,1961,1961,1955,1955,1943,1937,1937,1937,1931,1931,1925,1925,1925,1925,1931,1931,1931,1937,1937,1943,1943,1949,1949,1949,1955,1955,1949,1949,1949,1943,1943,1937,1931,1931,1919,1919,1907,1895,1895,1884,1884,1867,1855,1855,1833,1817,1817,1801,1801,1781,1765,1765,1750,1750,1740,1731,1731,1716,1716,1707,1693,1693,1679,1665,1665,1648,1648,1630,1617,1617,1601,1601,1588,1576,1576,1564,1564,1552,1545,1545,1537,1537,1533,1526,1526,1522,1518,1518,1514,1514,1511,1507,1507,1507,1503,1503,1503,1526,1526,1545,1609,0,0,0,0,1844,1844,1861,1850,1833,1833,1823,1823,1807,1791,1791,1775,1775,1765,1760,1760,1750,1736,1736,1716,1716,1702,1679,1679,1661,1661,1639,1617,1617,1605,1605,1592,1580,1580,1572,1572,1564,1556,1556,1552,1549,1549,1549,1549,1545,1541,1541,1541,1537,1537,1537,1537,1537,1537,1537,1537,1537,1541,1541,1541,1541,1545,1545,1545,1549,1549,1549,1549,1549,1549,5420,5468,5517,5468,5468,5517,5517,5517,5468,5468
0,0,0,0,0,0,0,0,0,0,0,0,0,0,0,0,0,0,1697,1697,1697,1702,1702,1702,1712,1712,1712,1712,1712,1716,1721,1721,1731,1740,1740,1745,1745,1745,1750,1750,1750,1755,1755,1765,1765,1770,1770,1770,1770,1770,1770,1775,1775,1781,1786,1781,1775,1775,1760,1760,1750,1740,1740,1731,1731,1721,1707,1707,1679,1679,0,0,0,0,0,1526,1514,1482,1440,1440,1411,1411,1388,1373,1373,1358,1358,1355,1349,1349,1343,1343,1334,1329,1329,1326,1326,1317,1312,1312,1303,1295,1295,1293,1293,1290,1287,1287,1287,1290,1287,1287,1290,1290,1293,1295,1295,1301,1301,1301,1301,1301,1301,1301,1301,1303,1303,1303,1306,1306,1306,1306,1306,1306,1309,1309,1312,1312,1312,1312,1312,1312,1315,1315,1317,1317,1317,1320,1320,1320,1326,1326,1332,1332,1332,1337,1337,1340,1346,1346,1355,1358,1358,1367,1373,1373,1385,1401,1401,1414,1414,1420,1427,1427,1434,1447,1447,1464,1485,1485,1507,1529,1529,1549,1580,1580,1617,1648,1648,1670,1697,1697,1721,1745,1745,1760,1786,1786,1801,1867,1867,1878,1850,1850,1872,1872,1889,1889,1889,1901,1907,1907,1925,1925,1931,1937,1937,1937,1943,1943,1949,1949,1949,1968,1961,1961,1961,1961,1961,1961,1961,1961,1961,1961,1961,1961,1955,1955,1955,1955,1955,1961,1961,1961,1961,1961,1955,1955,1955,1955,1961,1955,1949,1949,1943,1943,1937,1931,1931,1919,1919,1937,1937,1943,1937,1937,1943,1943,1943,1955,1955,1955,1955,1961,1961,1961,1961,1961,1961,1961,1961,1968,1968,1968,1974,1974,1974,1974,1974,1974,1974,1974,1974,1974,1968,1968,1968,1968,1968,1968,1968,1968,1968,1968,1968,1968,1974,1974,1974,1974,1974,1974,1974,1974,1980,1980,1980,1987,1980,1980,1980,1980,1980,1980,1980,1987,1987,1987,1987,1980,1980,1980,1980,1980,1980,1987,1987,1987,1987,1980,1980,1980,1980,1974,1974,1974,1974,1974,1974,1974,1974,1974,1974,1974,1974,1974,1974,1974,1974,1974,1974,1974,1974,1974,1974,1974,1974,1974,1974,1974,1980,1980,1980,1980,1980,1980,1980,1974,1974,1968,1961,1961,1955,1949,1949,1949,1949,1943,1943,1943,1943,1937,1937,1937,1943,1943,1943,1943,1937,1937,1943,1937,1937,1937,1937,1937,1937,1937,1937,1937,1937,1937,1931,1931,1931,1931,1931,1931,1937,1937,1943,1949,1949,1955,1961,1961,1968,1968,1968,1980,1980,1980,1987,1987,1993,1987,1987,1987,1987,1993,1993,1993,1993,1993,1993,1993,1987,1987,1987,1987,1980,1980,1980,1980,1974,1968,1968,1955,1955,1943,1937,1937,1937,1931,1931,1925,1925,1925,1925,1931,1931,1931,1937,1937,1943,1943,1949,1949,1949,1955,1955,1949,1949,1949,1943,1943,1937,1925,1925,1913,1913,1907,1895,1895,1884,1884,1867,1850,1850,1833,1817,1817,1801,1801,1786,1770,1770,1750,1750,1740,1726,1726,1716,1716,1702,1688,1688,1674,1661,1661,1648,1648,1630,1617,1617,1601,1601,1588,1576,1576,1564,1564,1552,1545,1545,1537,1537,1533,1526,1526,1522,1518,1518,1514,1514,1511,1507,1507,1507,1503,1503,1503,1529,1529,1552,1613,0,0,0,1844,1844,1844,1861,1850,1833,1833,1823,1823,1807,1791,1791,1775,1765,1765,1760,1760,1750,1736,1736,1716,1716,1702,1679,1679,1661,1661,1635,1617,1617,1605,1605,1592,1580,1580,1568,1568,1564,1552,1552,1549,1545,1545,1545,1545,1541,1537,1537,1537,1533,1533,1533,1533,1533,1533,1533,1533,1537,1541,1541,1541,1541,1545,1545,1545,1549,1549,1549,1549,1549,1549,5420,5517,5517,5468,5468,5517,5517,5566,5517,5517
0,0,0,0,0,0,0,0,0,0,0,0,0,0,0,0,0,0,1697,1697,1697,1702,1702,1702,1707,1707,1707,1712,1712,1716,1721,1721,1726,1736,1736,1740,1740,1745,1750,1750,1750,1755,1755,1765,1765,1770,1770,1770,1770,1770,1770,1775,1775,1781,1786,1781,1775,1775,1765,1765,1755,1740,1740,1731,1721,1721,1702,1702,1661,1661,0,0,0,0,0,1518,1518,1475,1434,1434,1407,1407,1385,1373,1373,1358,1358,1355,1349,1349,1343,1343,1334,1329,1329,1326,1326,1320,1315,1315,1309,1306,1306,1301,1301,1301,1301,1301,1301,1301,1301,1301,1303,1301,1301,1301,1301,1303,1309,1301,1301,1301,1301,1301,1301,1303,1303,1303,1306,1306,1306,1306,1306,1306,1309,1309,1312,1312,1312,1312,1312,1312,1315,1315,1317,1317,1317,1320,1320,1320,1326,1326,1332,1332,1332,1337,1337,1340,1346,1346,1355,1358,1358,1367,1370,1370,1379,1388,1388,1401,1401,1404,1404,1404,1411,1424,1424,1440,1457,1457,1471,1489,1489,1503,1580,1580,1617,1648,1648,1670,1697,1697,1721,1745,1745,1760,1786,1786,1801,0,0,0,1850,1850,1872,1872,1889,1889,1889,1901,1907,1907,1925,1925,1931,1937,1937,1937,1943,1943,1949,1949,1943,1943,1943,1943,1943,1943,1943,1943,1943,1943,1943,1943,1943,1943,1943,1943,1943,1943,1943,1949,1949,1949,1949,1949,1943,1943,1943,1943,1949,1943,1943,1943,1931,1931,1925,1889,1889,1889,1895,1895,1895,1901,1901,1919,1925,1925,1943,1943,1943,1949,1949,1949,1949,1949,1955,1955,1955,1955,1955,1955,1961,1961,1968,1974,1974,1974,1974,1974,1974,1974,1974,1974,1968,1968,1968,1968,1968,1968,1968,1968,1968,1968,1968,1968,1974,1974,1974,1974,1974,1974,1974,1974,1980,1980,1980,1987,1980,1980,1980,1980,1980,1974,1974,1974,1974,1974,1974,1974,1974,1974,1974,1974,1974,1974,1974,1974,1974,1974,1974,1974,1974,1968,1968,1968,1968,1968,1961,1961,1961,1961,1961,1961,1961,1961,1968,1968,1968,1968,1968,1968,1968,1968,1968,1968,1968,1974,1974,1974,1974,1974,1974,1974,1974,1974,1974,1974,1974,1961,1955,1955,1955,1949,1949,1949,1949,1943,1943,1943,1943,1937,1937,1937,1943,1943,1943,1943,1943,1943,1943,1943,1943,1937,1937,1937,1937,1937,1937,1937,1937,1937,1937,1937,1937,1937,1937,1937,1937,1937,1943,1949,1949,1955,1955,1955,1968,1968,1968,1980,1980,1980,1987,1987,1987,1987,1987,1987,1987,1987,1987,1987,1987,1987,1987,1987,1987,1987,1987,1987,1980,1980,1980,1980,1974,1968,1968,1961,1961,1961,1955,1955,1949,1949,1949,1943,1943,1943,1949,1949,1949,1949,1955,1955,1955,1961,1961,1961,1961,1961,1961,1955,1949,1949,1943,1943,1937,1925,1925,1913,1913,1907,1895,1895,1884,1884,1867,1850,1850,1833,1817,1817,1801,1801,1786,1770,1770,1750,1750,1740,1726,1726,1716,1716,1702,1688,1688,1674,1661,1661,1643,1643,1630,1613,1613,1601,1601,1584,1572,1572,1560,1560,1552,1545,1545,1537,1537,1529,1526,1526,1522,1518,1518,1514,1514,1507,1507,1507,1503,1503,1503,1503,1529,1529,1552,1613,0,1736,1736,1844,1844,1844,1861,1850,1833,1833,1823,1823,1801,1791,1791,1775,1765,1765,1755,1755,1750,1736,1736,1716,1716,1697,1679,1679,1661,1661,1635,1617,1617,1605,1605,1592,1580,1580,1568,1568,1564,1552,1552,1549,1545,1545,1545,1545,1541,1537,1537,1537,1533,1533,1533,1533,1533,1533,1533,1533,1537,1541,1541,1541,1541,1541,1545,1545,1549,1549,1549,1549,1549,1549,5373,5468,5468,5468,5468,5517,5517,5566,5517,5517
0,0,0,0,0,0,0,0,0,0,0,0,0,0,0,0,0,1693,1693,1693,1693,1697,1702,1702,1702,1702,1707,1712,1712,1712,1721,1721,1726,1736,1736,1740,1740,1740,1745,1745,1750,1755,1755,1760,1760,1770,1770,1770,1775,1775,1775,1781,1786,1786,1791,1786,1781,1781,1770,1770,1760,1745,1745,1731,1721,1721,1702,1702,1661,1661,0,0,0,0,0,1518,1518,1475,1434,1434,1407,1407,1385,1370,1370,1358,1358,1355,1346,1346,1340,1340,1334,1329,1329,1326,1320,1320,1315,1315,1309,1306,1306,1301,1301,1301,1301,1301,1301,1301,1301,1301,1303,1301,1301,1301,1301,1303,1309,1309,1309,1309,1309,1309,1309,1312,1312,1312,1317,1317,1317,1317,1317,1317,1320,1320,1320,1320,1320,1323,1323,1323,1323,1323,1326,1326,1326,1326,1326,1329,1332,1332,1334,1337,1337,1340,1343,1343,1346,1346,1355,1361,1361,1367,1370,1370,1379,1388,1388,1401,1401,1404,1404,1404,1411,1424,1424,1440,1457,1457,1471,1489,1489,1503,1529,1529,1564,1592,1592,1609,1630,1630,1648,1648,1670,1693,1693,1707,1716,1707,1707,1726,1726,1755,1781,1781,1801,1889,1823,1823,1823,1844,1895,1895,1907,1907,1907,1937,1943,1919,1919,1925,1925,1925,1925,1925,1925,1925,1925,1925,1919,1919,1919,1925,1925,1925,1925,1931,1931,1931,1931,1931,1931,1931,1931,1931,1931,1931,1931,1943,1949,1943,1943,1943,1931,1931,1925,1889,1889,1889,1895,1895,1895,1901,1901,1919,1925,1925,1943,1943,1943,1949,1949,1949,1949,1949,1955,1955,1955,1955,1955,1955,1961,1961,1968,1974,1974,1974,1974,1968,1968,1968,1968,1968,1968,1968,1961,1961,1961,1961,1961,1961,1961,1961,1961,1961,1968,1968,1968,1968,1968,1974,1974,1974,1980,1980,1980,1980,1980,1974,1974,1974,1974,1968,1968,1968,1961,1961,1961,1961,1961,1961,1961,1961,1961,1961,1968,1968,1968,1961,1961,1961,1961,1961,1961,1955,1955,1955,1961,1961,1961,1961,1961,1961,1961,1961,1968,1968,1968,1968,1968,1968,1968,1968,1968,1968,1968,1974,1974,1974,1974,1974,1974,1974,1974,1974,1974,1974,1974,1961,1955,1955,1955,1949,1949,1943,1943,1943,1937,1937,1937,1937,1937,1937,1943,1943,1943,1943,1943,1937,1937,1937,1937,1937,1937,1937,1937,1937,1937,1937,1937,1937,1937,1937,1937,1937,1937,1937,1937,1937,1943,1949,1949,1955,1955,1955,1968,1968,1968,1974,1974,1980,1980,1980,1980,1980,1980,1987,1987,1987,1987,1987,1987,1987,1987,1987,1987,1987,1987,1987,1987,1987,1987,1987,1980,1974,1974,1974,1968,1968,1968,1968,1968,1961,1961,1961,1961,1961,1961,1961,1961,1968,1968,1968,1974,1974,1974,1974,1968,1968,1968,1955,1949,1949,1943,1943,1931,1925,1925,1907,1907,1907,1895,1895,1884,1861,1861,1850,1850,1833,1817,1817,1801,1801,1781,1765,1765,1750,1750,1736,1721,1721,1712,1712,1697,1684,1684,1670,1656,1656,1639,1639,1626,1609,1609,1597,1597,1584,1572,1572,1560,1560,1552,1545,1545,1537,1537,1529,1526,1526,1518,1514,1514,1511,1511,1507,1507,1507,1503,1503,1503,1503,1529,1560,1560,0,0,1736,1736,1855,1855,1855,1861,1855,1833,1833,1823,1823,1801,1791,1791,1775,1770,1770,1755,1755,1750,1736,1736,1716,1716,1697,1679,1679,1656,1656,1635,1613,1613,1601,1601,1588,1580,1580,1568,1564,1564,1552,1552,1549,1545,1545,1541,1541,1541,1537,1537,1533,1533,1533,1533,1533,1533,1533,1533,1533,1533,1537,1537,1537,1537,1541,1541,1541,1545,1545,1545,1545,5373,5373,5373,5468,5468,5468,5468,5517,5517,5566,5566,5566
0,0,0,0,0,0,0,0,0,0,0,0,0,0,0,0,0,1693,1693,1693,1693,1697,1702,1702,1702,1702,1707,1712,1712,1712,1721,1721,1726,1736,1736,1740,1740,1740,1745,1745,1750,1755,1755,1760,1760,1770,1770,1770,1775,1775,1775,1781,1786,1786,1791,1786,1781,1781,1770,1770,1760,1745,1745,1731,1721,1721,1702,1702,1656,1656,1613,1613,0,0,0,1518,1518,1475,1434,1434,1407,1407,1385,1370,1370,1361,1361,1355,1346,1346,1337,1337,1334,1329,1329,1323,1320,1320,1317,1317,1312,1306,1306,1306,1306,1306,1303,1303,1303,1303,1303,1303,1306,1303,1303,1306,1306,1309,1309,1309,1312,1315,1315,1317,1317,1320,1323,1323,1326,1329,1329,1332,1332,1332,1332,1332,1332,1332,1332,1334,1334,1332,1332,1332,1326,1326,1326,1326,1326,1329,1332,1332,1334,1337,1337,1340,1343,1343,1346,1346,1355,1361,1361,1364,1367,1367,1376,1382,1382,1388,1388,1392,1398,1398,1404,1407,1407,1424,1430,1430,1440,1440,1489,1503,1482,1482,1564,1592,1592,1609,1630,1630,1648,1648,1670,1693,1693,1707,1716,1707,1707,1626,1626,1755,1781,1781,1786,1786,1786,1807,1807,1844,1895,1895,1907,1907,1907,0,0,1919,1919,1925,1925,1925,1925,1925,1925,1925,1925,1925,1919,1919,1919,1925,1925,1925,1925,1931,1931,1931,1931,1931,1931,1931,1931,1931,1931,1931,1931,1931,1937,1931,1931,1931,1919,1919,1907,1872,1872,1872,1878,1878,1884,1884,1884,1884,1895,1889,1889,1889,1889,1901,1901,1901,1901,1901,1907,1907,1907,1913,1913,1913,1919,1919,1931,1931,1931,1955,1974,1968,1968,1968,1961,1961,1961,1961,1955,1955,1955,1955,1955,1955,1955,1955,1961,1961,1961,1961,1961,1968,1968,1974,1974,1974,1980,1980,1980,1980,1980,1974,1974,1974,1974,1968,1968,1968,1961,1961,1961,1961,1961,1961,1961,1961,1961,1961,1968,1968,1968,1961,1961,1961,1961,1961,1961,1955,1955,1955,1955,1955,1955,1955,1955,1955,1955,1955,1955,1955,1955,1955,1955,1955,1961,1961,1961,1961,1961,1961,1961,1961,1968,1968,1974,1974,1974,1974,1974,1974,1974,1961,1955,1955,1949,1949,1949,1943,1943,1943,1937,1937,1937,1937,1937,1937,1943,1943,1943,1943,1943,1937,1937,1937,1937,1937,1937,1937,1937,1937,1937,1937,1937,1937,1937,1937,1937,1937,1937,1937,1943,1943,1943,1955,1955,1955,1955,1955,1968,1968,1968,1974,1974,1980,1980,1980,1980,1980,1980,1987,1987,1987,1987,1987,1987,1987,1987,1987,1987,1987,1987,1987,1987,1987,1987,1987,1980,1974,1974,1974,1968,1968,1968,1968,1968,1961,1961,1961,1961,1961,1961,1961,1961,1968,1968,1968,1974,1974,1974,1974,1968,1968,1968,1955,1949,1949,1943,1943,1931,1919,1919,1907,1907,1901,1889,1889,1878,1861,1861,1844,1844,1828,1812,1812,1796,1796,1781,1760,1760,1745,1745,1736,1721,1721,1712,1712,1697,1684,1684,1670,1656,1656,1639,1639,1626,1609,1609,1597,1597,1584,1572,1572,1560,1560,1552,1545,1545,1537,1537,1529,1526,1526,1518,1514,1514,1511,1511,1507,1503,1503,1500,1500,1500,1500,1529,1560,1560,0,0,1736,1736,1796,1796,1855,1861,1850,1833,1833,1817,1817,1801,1786,1786,1775,1765,1765,1755,1755,1745,1731,1731,1712,1712,1697,1679,1679,1656,1656,1635,1613,1613,1601,1601,1588,1580,1580,1568,1564,1564,1556,1556,1549,1545,1545,1541,1541,1541,1537,1537,1533,1533,1533,1533,1533,1533,1533,1533,1533,1533,1537,1537,1537,1537,1541,1541,1541,1545,1545,1545,1545,5373,5373,5373,5468,5468,5468,5468,5517,5517,5566,5566,5566
0,0,0,0,0,0,0,0,0,0,0,0,0,0,0,1688,1688,1688,1688,1693,1693,1697,1697,1697,1702,1702,1707,1707,1707,1712,1721,1721,1721,1731,1731,1736,1736,1736,1740,1740,1745,1750,1750,1755,1755,1760,1765,1765,1770,1775,1775,1786,1791,1791,1796,1791,1786,1786,1775,1775,1765,1750,1750,1731,1721,1721,1702,1702,1656,1656,1613,1613,0,0,0,1518,1518,0,0,0,0,0,1395,1382,1382,1373,1373,1358,1346,1346,1337,1337,1334,1329,1329,1323,1320,1320,1317,1317,1315,1309,1309,1306,1306,1306,1303,1303,1303,1303,1303,1303,1306,1303,1303,1306,1306,1309,1309,1309,1312,1315,1315,1317,1317,1320,1323,1323,1326,1329,1329,1332,1332,1332,1332,1332,1332,1332,1332,1334,1334,1332,1332,1332,1334,1334,1332,1332,1332,1334,1337,1337,1340,1340,1340,1346,1346,1346,1349,1349,1352,1358,1358,1361,1361,1361,1370,1376,1376,1382,1382,1388,1398,1398,1404,1407,1407,1424,1430,1430,1440,1440,0,0,1482,1482,0,0,0,0,0,0,0,0,0,0,0,0,0,0,0,1626,1626,0,0,0,1786,1786,1786,1807,1807,1844,1884,1884,1907,1907,1907,0,0,1919,1919,1925,1925,1925,1925,1925,1925,1925,1925,1925,1919,1919,1919,1925,1925,1925,1925,1895,1895,1901,1901,1901,1907,1907,1913,1931,1931,1931,1913,1913,1937,1878,1878,1878,1919,1919,1907,1872,1872,1807,1807,1807,1884,1884,1833,1833,1895,1889,1889,1889,1889,1901,1901,1901,1901,1901,1907,1907,1907,1913,1913,1913,1919,1919,1931,1931,1931,1955,1974,1968,1968,1968,1961,1961,1961,1961,1955,1955,1955,1955,1955,1955,1955,1955,1961,1961,1961,1961,1961,1968,1968,1968,1974,1974,1980,1980,1980,1980,1974,1974,1974,1968,1968,1968,1961,1961,1961,1955,1955,1955,1955,1955,1955,1955,1955,1955,1955,1955,1955,1949,1949,1949,1949,1949,1949,1943,1943,1937,1937,1937,1937,1937,1937,1937,1937,1937,1937,1937,1937,1943,1943,1943,1949,1949,1949,1949,1949,1955,1955,1955,1961,1961,1968,1974,1974,1974,1974,1974,1974,1961,1955,1955,1949,1949,1949,1943,1943,1943,1937,1937,1937,1937,1937,1937,1943,1943,1943,1943,1943,1937,1937,1937,1937,1937,1937,1937,1937,1937,1937,1937,1937,1937,1937,1937,1937,1937,1937,1937,1943,1943,1943,1955,1955,1955,1955,1955,1961,1968,1968,1974,1974,1980,1980,1980,1974,1974,1974,1980,1980,1980,1980,1980,1980,1980,1980,1980,1980,1980,1980,1980,1987,1987,1987,1987,1987,1980,1980,1980,1974,1974,1974,1974,1974,1974,1974,1974,1974,1974,1974,1974,1974,1974,1980,1980,1980,1980,1980,1980,1974,1968,1968,1961,1949,1949,1943,1943,1931,1919,1919,1907,1907,1901,1889,1889,1878,1861,1861,1844,1844,1828,1812,1812,1796,1796,1781,1760,1760,1745,1745,1731,1716,1716,1707,1707,1693,1679,1679,1665,1652,1652,1639,1639,1622,1609,1609,1592,1592,1580,1572,1572,1560,1560,1549,1541,1541,1537,1529,1529,1526,1526,1518,1514,1514,1511,1511,1503,1503,1503,1500,1500,1500,1500,1533,1564,1564,0,0,1736,1736,1796,1796,1861,1861,1850,1833,1833,1817,1817,1801,1786,1786,1775,1765,1765,1755,1755,1745,1731,1731,1712,1712,1697,1679,1679,1656,1656,1635,1613,1613,1601,1601,1588,1580,1580,1572,1568,1568,1556,1556,1549,1549,1549,1545,1545,1541,1537,1537,1533,1533,1533,1533,1533,1533,1533,1533,1533,1533,1533,1533,1537,1537,1541,1541,1541,1545,1545,1545,1545,5326,5326,5326,5420,5420,5420,5468,5517,5517,5566,5566,5566
0,0,0,0,0,0,0,0,0,0,0,0,0,0,0,1684,1684,1684,1688,1688,1688,1693,1697,1697,1697,1697,1702,1707,1707,1707,1712,1712,1716,1721,1721,1726,1726,1736,1740,1740,1745,1750,1750,1755,1755,1760,1765,1765,1770,1775,1775,1786,1791,1791,1796,1796,1786,1786,1781,1781,1765,1750,1750,1736,1721,1721,1702,1702,1656,1656,1622,1622,0,0,0,1518,1518,0,0,0,0,0,1395,1382,1382,1373,1373,1358,1340,1340,1329,1329,1326,1323,1323,1317,1315,1315,1312,1312,1312,1309,1309,1306,1306,1306,1306,1306,1306,1306,1306,1306,1306,1306,1306,1306,1306,1309,1312,1312,1315,1317,1317,1317,1317,1320,1326,1326,1329,1334,1334,1334,1334,1337,1337,1337,1337,1340,1340,1340,1340,1340,1340,1340,1340,1340,1337,1337,1337,1337,1340,1340,1343,1343,1343,1346,1346,1346,1349,1349,1352,1358,1358,1361,1361,1361,1370,1376,1376,1382,1382,1388,1392,1392,1395,1398,1398,1407,1414,1414,1414,1414,1420,1424,1424,1434,1454,1454,0,0,0,0,0,0,0,0,0,0,0,0,0,1626,1626,0,0,0,1786,1786,1786,1807,1807,1855,1884,1884,0,0,0,0,0,0,0,0,0,0,0,0,0,0,0,0,0,0,0,0,0,0,0,1895,1895,1901,1901,1901,1907,1907,1913,0,0,0,1913,1913,0,1878,1878,1878,0,0,0,0,0,1807,1807,1807,0,0,1833,1833,0,0,0,0,0,0,1919,1901,1901,1867,1867,1867,1867,1913,1913,1913,1919,1919,1931,1931,1931,1955,1974,1968,1968,1961,1961,1961,1955,1955,1955,1955,1955,1949,1949,1949,1949,1955,1955,1955,1961,1961,1961,1968,1968,1968,1974,1974,1974,1974,1974,1974,1974,1974,1974,1968,1968,1968,1961,1961,1955,1949,1949,1949,1949,1949,1943,1943,1943,1949,1955,1955,1955,1949,1949,1949,1949,1949,1949,1943,1943,1937,1937,1937,1937,1937,1937,1937,1937,1937,1937,1937,1937,1943,1943,1943,1949,1949,1949,1949,1949,1955,1955,1955,1961,1961,1968,1968,1968,1974,1974,1968,1968,1961,1949,1949,1949,1943,1943,1943,1943,1937,1937,1937,1937,1931,1931,1931,1937,1937,1943,1943,1937,1937,1937,1937,1937,1937,1937,1937,1937,1937,1937,1937,1937,1937,1937,1937,1937,1937,1937,1937,1943,1943,1949,1955,1955,1955,1955,1955,1961,1968,1968,1968,1968,1974,1974,1974,1974,1974,1974,1980,1980,1980,1980,1980,1980,1980,1980,1980,1980,1980,1980,1980,1987,1987,1987,1987,1987,1980,1980,1980,1980,1980,1980,1980,1980,1980,1980,1980,1980,1980,1980,1987,1987,1980,1980,1980,1980,1980,1980,1980,1974,1968,1968,1961,1949,1949,1937,1937,1931,1913,1913,1907,1907,1901,1889,1889,1878,1861,1861,1844,1844,1828,1807,1807,1791,1791,1775,1755,1755,1736,1736,1721,1712,1712,1702,1702,1688,1674,1674,1661,1648,1648,1635,1635,1617,1605,1605,1592,1592,1580,1568,1568,1560,1560,1549,1541,1541,1537,1529,1529,1526,1526,1518,1514,1514,1511,1511,1503,1503,1503,1500,1500,1503,1503,1541,1576,1576,0,0,1740,1740,1801,1867,1861,1861,1850,1833,1833,1817,1817,1801,1786,1786,1770,1765,1765,1755,1755,1745,1731,1731,1712,1712,1697,1679,1679,1652,1652,1630,1613,1613,1601,1601,1588,1580,1580,1572,1568,1568,1556,1556,1549,1549,1549,1545,1545,1541,1537,1537,1533,1533,1533,1533,1533,1529,1529,1529,1529,1533,1533,1533,1537,1541,1537,1537,1537,1541,1541,1541,1541,5326,5326,5326,5373,5420,5420,5420,5517,5517,5517,5566,5566
0,0,0,0,0,0,0,0,0,0,0,0,0,0,0,1684,1684,1684,1688,1688,1688,1693,1697,1697,1697,1697,1702,1707,1707,1707,1712,1712,1716,1721,1721,1726,1726,1731,1736,1736,1740,1745,1745,1755,1755,1760,1765,1765,1770,1775,1775,1781,1791,1791,1796,1796,1786,1786,1781,1765,1765,1750,1750,1736,1721,1721,1702,1702,1656,1635,1622,1613,1613,1597,1580,1580,1556,1556,1556,0,0,0,0,1437,1437,1414,1414,1361,1340,1340,1326,1326,1320,1317,1317,1315,1315,1315,1312,1312,1312,1309,1309,1306,1306,1309,1309,1309,1306,1306,1306,1306,1306,1306,1306,1306,1306,1312,1312,1312,1315,1317,1317,1320,1320,1323,1326,1326,1332,1337,1337,1337,1337,1337,1337,1337,1337,1340,1340,1340,1340,1340,1340,1340,1340,1340,1337,1337,1337,1337,1340,1340,1343,1343,1343,1346,1346,1346,1349,1349,1352,1358,1358,1361,1361,1361,1370,1376,1376,1382,1382,1388,1392,1392,1395,1398,1398,1407,1414,1414,1414,1414,1420,1424,1424,1434,1444,1444,1454,1457,1457,0,0,0,0,1485,1485,0,0,0,0,0,0,0,0,0,0,0,0,0,0,0,0,0,0,0,0,0,0,0,0,0,0,0,0,0,0,0,0,0,0,0,0,0,0,0,0,1895,1895,1901,1901,1901,1907,1907,1913,0,0,0,1913,1913,0,1817,1817,1817,0,0,0,0,1736,1736,1807,1750,1750,1770,1770,1833,0,0,0,0,0,0,0,0,0,1867,1867,1867,1867,0,0,0,0,0,0,0,0,0,0,0,0,1961,1955,1955,1955,1955,1955,1943,1943,1943,1949,1949,1949,1955,1955,1955,1961,1961,1961,1968,1968,1968,1974,1974,1974,1974,1974,1974,1974,1974,1974,1968,1968,1968,1961,1961,1955,1949,1949,1949,1949,1949,1943,1943,1943,1949,1949,1943,1943,1943,1943,1943,1937,1937,1937,1931,1931,1931,1925,1925,1919,1919,1919,1919,1925,1925,1925,1925,1925,1925,1931,1931,1931,1931,1937,1943,1943,1943,1949,1949,1955,1955,1955,1961,1961,1968,1968,1968,1968,1961,1949,1949,1949,1943,1943,1943,1943,1937,1937,1937,1937,1931,1931,1931,1937,1937,1943,1943,1937,1937,1937,1937,1937,1937,1937,1937,1937,1937,1937,1937,1937,1937,1937,1937,1937,1937,1937,1937,1943,1943,1949,1955,1955,1955,1955,1955,1961,1968,1968,1968,1968,1974,1974,1974,1974,1974,1974,1974,1974,1974,1980,1980,1980,1980,1980,1980,1980,1974,1974,1974,1980,1980,1980,1980,1980,1980,1980,1980,1980,1980,1980,1980,1980,1980,1980,1980,1980,1980,1980,1987,1987,1987,1987,1987,1987,1987,1980,1980,1974,1968,1968,1961,1949,1949,1937,1937,1925,1913,1913,1901,1901,1901,1889,1889,1878,1855,1855,1844,1844,1828,1807,1807,1791,1791,1775,1755,1755,1736,1736,1721,1712,1712,1702,1702,1688,1674,1674,1661,1648,1648,1635,1635,1617,1605,1605,1592,1592,1580,1568,1568,1560,1560,1549,1541,1541,1537,1529,1529,1522,1522,1518,1514,1514,1511,1511,1503,1500,1500,1500,1500,1503,1503,1541,1576,1576,0,1745,1740,1740,1801,1867,1855,1855,1850,1828,1828,1817,1796,1796,1781,1781,1770,1760,1760,1750,1750,1740,1731,1731,1707,1707,1697,1674,1674,1652,1652,1630,1617,1617,1601,1597,1592,1584,1584,1576,1568,1568,1560,1560,1552,1549,1549,1545,1545,1541,1537,1537,1533,1533,1533,1533,1533,1529,1529,1529,1529,1533,1533,1533,1537,1541,1537,1537,1537,1541,1541,1541,1541,5326,5326,5326,5373,5420,5420,5420,5517,5517,5517,5566,5566
0,0,0,0,0,0,0,0,0,0,0,0,1674,1674,1679,1679,1679,1679,1684,1684,1684,1688,1693,1693,1697,1697,1697,1702,1702,1707,1707,1707,1716,1721,1721,1721,1721,1726,1731,1731,1736,1740,1740,1750,1755,1755,1760,1760,1765,1770,1770,1781,1786,1786,1791,1791,1786,1786,1781,1765,1765,1750,1750,1736,1721,1721,1702,1702,1661,1635,1635,1613,1613,1597,1580,1580,1556,1556,1556,0,0,0,0,1437,1437,1414,1414,1382,1346,1346,1326,1326,1320,1317,1317,1315,1312,1312,1309,1309,1309,1306,1306,1306,1306,1309,1306,1306,1306,1306,1306,1306,1306,1306,1306,1306,1306,1309,1312,1312,1315,1317,1317,1320,1320,1323,1326,1326,1332,1337,1337,1337,1340,1340,1340,1340,1340,1340,1340,1343,1343,1343,1343,1343,1343,1343,1343,1343,1343,1343,1346,1346,1346,1349,1349,1349,1352,1352,1355,1355,1358,1361,1361,1367,1370,1370,1379,1382,1382,1388,1388,1395,1398,1398,1404,1404,1404,1407,1414,1414,1417,1417,1424,1427,1427,1434,1444,1444,1454,1457,1457,0,0,0,0,1485,1485,0,0,0,0,0,0,0,0,0,0,0,0,0,0,0,0,0,0,0,0,0,0,0,0,0,0,0,0,0,0,0,0,0,0,0,0,0,0,0,0,0,0,0,0,0,0,0,0,0,0,0,0,0,0,1817,1817,1817,0,0,0,0,1736,1736,0,1750,1750,1770,1770,0,0,0,0,0,0,0,0,0,0,0,0,0,0,0,0,0,0,0,0,0,0,0,0,0,0,0,1955,1955,1955,0,0,1943,1943,1943,1949,1949,1943,1943,1949,1949,1949,1949,1949,1955,1955,1961,1968,1968,1974,1974,1974,1974,1974,1968,1968,1968,1968,1961,1955,1955,1949,1943,1943,1937,1937,1937,1937,1937,1937,1937,1937,1931,1931,1931,1931,1931,1931,1931,1931,1925,1925,1919,1913,1913,1913,1913,1913,1913,1913,1913,1913,1913,1913,1913,1919,1919,1931,1931,1937,1943,1943,1943,1949,1949,1955,1955,1955,1961,1961,1968,1968,1968,1968,1961,1955,1955,1949,1943,1943,1943,1943,1937,1937,1937,1937,1931,1931,1931,1937,1937,1943,1943,1937,1937,1937,1937,1937,1937,1937,1937,1937,1937,1937,1937,1937,1937,1937,1937,1937,1937,1937,1937,1943,1943,1949,1955,1955,1955,1955,1955,1961,1961,1961,1968,1968,1968,1968,1968,1968,1968,1968,1968,1968,1968,1968,1968,1974,1974,1974,1974,1974,1974,1974,1974,1974,1974,1974,1974,1974,1974,1974,1974,1974,1974,1974,1980,1980,1980,1980,1980,1980,1980,1980,1987,1987,1987,1987,1987,1987,1987,1980,1980,1974,1968,1968,1961,1949,1949,1937,1937,1925,1913,1913,1901,1901,1901,1889,1889,1878,1855,1855,1839,1839,1823,1801,1801,1791,1791,1770,1745,1745,1731,1731,1712,1707,1707,1693,1693,1679,1670,1670,1656,1643,1643,1630,1630,1617,1605,1605,1588,1588,1580,1568,1568,1560,1560,1549,1541,1541,1537,1529,1529,1522,1522,1518,1514,1514,1511,1511,1503,1500,1500,1500,1500,1503,1503,1545,1584,1584,0,1745,1745,1745,1807,1867,1855,1855,1850,1828,1828,1817,1796,1796,1781,1781,1770,1760,1760,1750,1750,1740,1731,1731,1707,1707,1697,1674,1674,1652,1652,1630,1617,1617,1605,1597,1597,1588,1588,1576,1568,1568,1560,1560,1552,1549,1549,1545,1541,1541,1537,1537,1533,1529,1529,1529,1529,1529,1529,1529,1529,1533,1533,1533,1537,1537,1537,1537,1537,1537,1537,1537,1541,5281,5281,5281,5326,5373,5373,5420,5468,5468,5517,5566,5566
0,0,0,0,0,0,0,0,0,0,1665,1665,1665,1674,1674,1674,1679,1679,1679,1684,1684,1688,1688,1688,1697,1697,1697,1702,1702,1707,1707,1707,1716,1721,1721,1721,1721,1726,1731,1731,1736,1740,1740,1750,1755,1755,1760,1760,1765,1770,1770,1781,1786,1786,1791,1791,1786,1786,1781,1765,1765,1745,1745,1736,1721,1721,1702,1702,1661,1635,1635,1613,1613,1597,1580,1580,1556,1556,1556,1541,1541,1541,0,1437,1437,1414,1398,1382,1346,1346,1326,1326,1317,1315,1315,1315,1312,1312,1309,1309,1309,1306,1306,1306,1306,1309,1306,1306,1306,1306,1306,1306,1306,1306,1306,1306,1306,1309,1315,1315,1315,1320,1320,1323,1323,1323,1329,1329,1334,1340,1340,1340,1340,1340,1343,1343,1343,1343,1343,1346,1346,1346,1346,1343,1343,1343,1343,1343,1346,1346,1349,1349,1352,1352,1352,1355,1358,1355,1355,1355,1358,1361,1361,1367,1370,1370,1379,1382,1382,1388,1388,1395,1398,1398,1404,1404,1404,1407,1411,1411,1411,1411,1414,1417,1417,1417,1420,1420,1427,1424,1424,1430,1430,1427,1427,1427,1434,1430,1424,1424,1414,1414,0,1407,1407,1407,1401,1401,1401,0,0,0,0,0,0,0,0,0,0,0,0,0,0,0,0,0,0,0,0,0,0,0,0,0,0,0,0,0,0,0,0,0,0,0,0,0,0,0,0,0,0,0,0,0,0,0,0,0,1736,1736,0,1750,1750,1770,1770,0,0,0,0,0,0,0,0,0,0,1731,1731,1731,0,0,0,0,0,0,0,0,0,0,0,0,0,0,1955,1955,1955,0,0,1943,1943,1943,0,0,1943,1943,1949,1949,1949,1949,1949,1955,1955,1961,1968,1968,1974,1974,1974,1980,1974,1968,1968,1961,1961,1961,1955,1955,1949,1943,1943,1937,1937,1937,1937,1937,1937,1937,1937,1931,1931,1931,1931,1931,1931,1931,1931,1925,1925,1919,1913,1913,1913,1913,1913,1913,1913,1913,1913,1913,1913,1913,1919,1919,1925,1925,1925,1931,1931,1937,1937,1937,1943,1943,1949,1961,1961,1961,1968,1968,1968,1961,1955,1955,1949,1943,1943,1943,1943,1937,1937,1937,1937,1931,1931,1931,1937,1937,1937,1943,1937,1937,1937,1937,1937,1937,1937,1937,1937,1937,1937,1937,1937,1937,1937,1937,1937,1937,1937,1937,1943,1949,1949,1955,1955,1955,1955,1955,1961,1961,1961,1968,1968,1968,1968,1968,1968,1968,1968,1968,1968,1968,1968,1968,1974,1974,1974,1974,1974,1974,1974,1974,1974,1974,1974,1974,1974,1974,1974,1974,1974,1974,1974,1974,1974,1974,1974,1974,1980,1980,1980,1980,1980,1980,1987,1987,1980,1980,1974,1974,1974,1968,1968,1955,1949,1949,1937,1937,1925,1913,1913,1901,1901,1901,1889,1889,1878,1855,1855,1839,1839,1823,1801,1801,1786,1786,1765,1740,1740,1721,1721,1707,1697,1697,1684,1684,1674,1661,1661,1648,1639,1639,1626,1626,1617,1605,1605,1588,1588,1580,1568,1568,1560,1560,1549,1541,1541,1537,1529,1529,1526,1526,1518,1514,1514,1511,1511,1503,1500,1500,1500,1500,1503,1503,1549,1592,1592,0,1755,1755,1755,1807,1867,1855,1855,1844,1828,1828,1812,1796,1796,1775,1775,1765,1755,1755,1750,1750,1740,1726,1726,1707,1707,1693,1670,1670,1652,1652,1630,1617,1617,1605,1597,1597,1588,1588,1580,1572,1572,1564,1564,1552,1549,1549,1545,1541,1541,1537,1537,1533,1529,1529,1529,1529,1529,1529,1529,1529,1533,1533,1533,1533,1533,1533,1537,1537,1537,1537,1537,1541,5281,5281,5281,5326,5373,5373,5420,5468,5468,5517,5566,5566
0,0,0,0,0,0,0,0,0,0,1665,1665,1665,1674,1674,1674,1679,1679,1679,1684,1684,1688,1688,1688,1693,1697,1697,1702,1702,1702,1707,1707,1712,1716,1716,1721,1721,1726,1731,1731,1736,1740,1740,1750,1755,1755,1760,1760,1765,1770,1770,1775,1786,1786,1786,1786,1786,1786,1775,1765,1765,1745,1745,1736,1721,1721,1702,1702,1674,1652,1652,1635,1635,1630,1622,1622,1601,1601,1576,1541,1541,1541,0,0,0,0,1398,1398,1358,1358,1332,1332,1317,1315,1315,1315,0,0,1309,1309,1309,1306,1306,1306,1306,1309,1309,1309,1309,1309,1309,1309,1309,1309,1306,1306,1306,1312,1315,1315,1317,1320,1320,1323,1323,1323,1329,1329,1334,1340,1340,1340,1340,1340,1343,1343,1343,1343,1343,1346,1346,1346,1346,1343,1343,1343,1343,1343,1346,1346,1349,1349,1352,1352,1352,1355,1358,1358,1358,1364,1364,1370,1370,1373,1376,1376,1382,1385,1385,1392,1392,1395,1398,1398,1404,1404,1404,1407,1411,1411,1411,1411,1407,1407,1407,1417,1420,1420,1427,1424,1424,1430,1430,1427,1427,1427,1434,1430,1424,1424,1414,1414,0,1407,1407,1407,1401,1401,1401,0,0,0,0,0,0,0,0,0,0,0,0,0,0,0,0,0,0,0,0,0,0,0,0,0,0,0,0,0,0,0,0,0,0,0,0,0,0,0,0,0,0,0,0,0,0,0,0,0,0,0,0,0,0,0,0,0,0,0,0,0,0,0,0,0,0,1731,1731,1731,0,0,0,0,0,0,0,0,0,0,0,0,0,0,0,0,0,0,0,0,0,0,0,0,0,0,0,0,0,0,0,0,0,0,0,0,0,0,0,0,0,1968,1968,1961,1961,1955,1949,1949,1943,1931,1931,1931,1931,1925,1925,1925,1925,1925,1925,1919,1919,1919,1913,1913,1913,1913,1913,1907,1907,1907,1907,1907,1901,1901,1907,1907,1907,1907,1913,1913,1913,1913,1913,1913,1913,1913,1919,1925,1925,1925,1931,1931,1937,1937,1943,1955,1955,1961,1961,1961,1968,1961,1955,1955,1949,1949,1949,1943,1943,1943,1937,1937,1937,1937,1937,1937,1937,1937,1937,1943,1943,1937,1937,1937,1937,1937,1937,1937,1937,1937,1937,1937,1937,1937,1937,1937,1937,1937,1943,1943,1949,1949,1949,1955,1955,1955,1955,1955,1961,1961,1961,1961,1961,1961,1961,1961,1961,1961,1961,1961,1961,1961,1968,1968,1968,1968,1968,1968,1968,1968,1968,1968,1968,1968,1968,1974,1968,1968,1968,1968,1968,1968,1968,1974,1974,1974,1974,1974,1974,1974,1974,1980,1980,1980,1980,1980,1980,1980,1974,1974,1968,1961,1961,1955,1943,1943,1931,1931,1925,1913,1913,1901,1901,1901,1889,1889,1878,1855,1855,1839,1839,1823,1801,1801,1786,1786,1765,1740,1740,1721,1721,1707,1697,1697,1684,1684,1674,1661,1661,1648,1639,1639,1626,1626,1613,1601,1601,1588,1588,1580,1568,1568,1560,1560,1549,1541,1541,1537,1529,1529,1526,1526,1518,1514,1514,1511,1503,1503,1500,1500,1500,1500,1503,1503,1549,1592,1592,0,1755,1755,1755,1812,1867,1850,1850,1839,1823,1823,1807,1786,1786,1775,1775,1760,1755,1755,1750,1750,1736,1721,1721,1707,1707,1693,1670,1670,1652,1652,1630,1617,1617,1605,1597,1597,1588,1588,1584,1576,1576,1564,1564,1556,1552,1552,1545,1541,1541,1537,1537,1533,1529,1529,1529,1529,1529,1529,1529,1529,1533,1533,1533,1533,1533,1533,1533,1533,1533,1533,1533,1537,1537,1537,5236,5326,5326,5326,5373,5468,5468,5468,5517,5517
0,0,0,0,0,0,0,0,0,0,1665,1665,1665,1670,1674,1674,1679,1679,1679,1684,1684,1684,1688,1688,1693,1697,1697,1702,1702,1702,1707,1707,1712,1716,1716,1721,1721,1726,1731,1731,1736,1740,1740,1745,1755,1755,1755,1755,1765,1770,1770,1775,1786,1786,1786,1786,1786,1786,1775,1765,1765,1750,1750,1736,1721,1721,1707,1707,1688,1674,1674,1674,1674,1670,1665,1665,1656,1643,1643,1613,1613,1613,0,0,0,0,1398,1398,1358,1358,1332,1332,1317,1315,1315,1315,1312,1312,1309,1309,1309,1306,1306,1306,1306,1309,1309,1309,1309,1309,1309,1309,1309,1309,1306,1306,1306,1312,1315,1315,1317,1323,1323,1323,1323,1326,1332,1332,1337,1343,1343,1343,1343,1343,1343,1343,1343,1346,1346,1346,1346,1346,1346,1346,1346,1346,1346,1349,1349,1349,1355,1358,1358,1361,1361,1364,1364,1364,1367,1373,1373,1376,1376,1379,1385,1385,1388,1392,1392,1398,1401,1401,1401,1401,1407,1407,1407,1411,1414,1411,1411,1411,1407,1407,1407,1407,1407,1404,1404,1395,1385,1385,1385,1427,1364,1361,1361,1352,1352,1340,1329,1329,1329,1323,1323,1320,1320,1320,1317,1317,1309,1309,0,0,0,0,0,0,0,0,0,0,0,0,0,0,0,0,0,0,0,0,0,0,0,0,0,0,0,0,0,0,0,0,0,0,0,0,0,0,0,0,0,0,0,0,0,0,0,0,0,0,0,0,0,0,0,0,0,0,0,0,0,0,0,0,0,0,0,0,0,0,0,0,0,0,0,0,0,0,0,0,0,0,0,0,0,0,0,0,0,0,0,0,0,0,0,0,0,0,0,0,0,0,0,0,0,0,0,1968,1968,1961,1961,1955,1949,1949,1943,1931,1931,1931,1931,1925,1913,1913,1913,1913,1913,1913,1913,1907,1907,1907,1907,1907,1907,1901,1901,1901,1901,1907,1901,1901,1907,1907,1907,1907,1913,1913,1913,1913,1913,1913,1913,1913,1919,1925,1925,1925,1931,1931,1937,1937,1943,1955,1955,1961,1961,1961,1968,1968,1961,1961,1955,1949,1949,1943,1943,1943,1937,1937,1931,1931,1931,1931,1931,1931,1937,1937,1937,1937,1937,1937,1937,1937,1937,1937,1937,1937,1937,1937,1937,1937,1937,1937,1937,1937,1943,1943,1949,1949,1949,1955,1955,1949,1949,1949,1955,1955,1955,1961,1955,1955,1955,1955,1955,1955,1955,1955,1955,1961,1961,1961,1961,1961,1961,1961,1961,1961,1968,1968,1968,1968,1968,1974,1968,1968,1968,1968,1968,1968,1968,1974,1974,1974,1974,1974,1974,1974,1974,1980,1980,1980,1980,1980,1980,1980,1974,1974,1968,1961,1961,1955,1943,1943,1931,1931,1925,1907,1907,1901,1895,1895,1889,1889,1878,1855,1855,1839,1839,1817,1796,1796,1781,1781,1755,1736,1736,1716,1716,1697,1688,1688,1679,1679,1665,1652,1652,1643,1630,1630,1622,1622,1609,1601,1601,1588,1588,1576,1568,1568,1560,1560,1549,1545,1545,1537,1529,1529,1526,1526,1518,1514,1514,1511,1503,1503,1500,1500,1500,1500,1507,1507,1552,1601,1601,0,1755,1755,1755,1812,1867,1850,1850,1839,1823,1823,1807,1786,1786,1775,1775,1760,1755,1755,1750,1750,1736,1721,1721,1707,1707,1693,1670,1670,1648,1648,1630,1617,1617,1605,1597,1597,1588,1588,1584,1576,1576,1564,1564,1556,1552,1552,1545,1541,1541,1537,1537,1533,1529,1529,1529,1529,1529,1529,1529,1529,1529,1529,1529,1529,1533,1529,1529,1529,1529,1529,1529,1529,1529,1529,5236,5326,5326,5326,5326,5420,5420,5468,5468,5468
