1113,1113,1113,1113,1113,1113,1113,1113,1113,1113,1113,1115,1115,1115,1115,1115,1117,1117,1119,1119,1119,1121,1121,1123,1123,1123,1125,1125,1125,1134,1134,1132,1132,1132,1132,1132,1132,1132,1132,1132,1132,1132,1134,1134,1134,1136,1136,1136,1136,1136,1138,1138,1138,1138,1140,1140,1140,1140,1140,1140,1140,1142,1142,1142,1142,1142,1142,1142,1142,1142,1142,1142,1142,1140,1140,1140,1138,1138,1138,1138,1138,1138,1138,1138,1138,1140,1140,1140,1142,1144,1144,1146,1146,1148,1151,1151,1155,1157,1157,1159,1159,1159,1161,1161,1161,1161,1161,1161,1161,1159,1159,1155,1155,1155,1155,1155,1153,1153,1153,1151,1151,1151,1151,1151,1151,1151,1151,1151,1153,1161,1161,1161,1164,1164,1164,1164,1164,1166,1166,1166,1166,1164,1164,1164,1164,1164,1164,1164,1164,1164,1164,1161,1161,1161,1161,1161,1164,1164,1164,1164,1166,1166,1166,1168,1170,1170,1170,1170,1172,1172,1172,1175,1175,1175,1177,1177,1179,1179,1179,1181,1184,1184,1186,1186,1186,1188,1188,1188,1188,1188,1190,1190,1190,1193,1193,1193,1193,1193,1193,1193,1193,1193,1190,1188,1188,1188,1186,1186,1186,1186,1186,1184,1184,1184,1184,1184,1184,1184,1184,1184,1184,1184,1184,1184,1184,1184,1184,1184,1193,1193,1193,1197,1197,1197,1197,1200,1202,1202,1202,1204,1204,1204,1204,1204,1204,1202,1202,1202,1202,1202,1202,1200,1200,1200,1202,1202,1202,1202,1202,1202,1202,1202,1202,1202,1202,1202,1202,1202,1202,1202,1202,1202,1202,1202,1204,1204,1204,1204,1204,1207,1207,1207,1207,1207,1207,1207,1207,1207,1204,1202,1202,1200,1200,1197,1195,1195,1195,1193,1193,1190,1190,1188,1188,1188,1186,1186,1186,1186,1188,1188,1190,1195,1195,1197,1202,1202,1204,1204,1209,1211,1211,1214,1214,1211,1211,1211,1209,1209,1209,1214,1214,1211,1211,1211,1209,1209,1209,1207,1207,1207,1207,1204,1204,1204,1204,1204,1204,1204,1204,1207,1207,1207,1207,1207,1207,1207,1209,1209,1209,1211,1211,1211,1214,1214,1211,1211,1211,1214,1211,1211,1211,1211,1211,1211,1211,1214,1214,1214,1216,1216,1219,1219,1219,1219,1219,1219,1221,1221,1221,1223,1223,1223,1223,1223,1223,1223,1223,1223,1223,1223,1223,1223,1223,1223,1223,1223,1223,1223,1223,1223,1223,1223,1223,1223,1223,1223,1223,1221,1221,1221,1221,1221,1221,1221,1221,1219,1219,1219,1219,1228,1228,1228,1228,1228,1228,1228,1228,1231,1231,1231,1233,1233,1233,1233,1233,1236,1236,1236,1238,1238,1241,1241,1241,1243,1243,1243,1243,1243,1246,1246,1246,1246,1246,1248,1248,1248,1248,1248,1248,1248,1248,1248,1248,1248,1248,1248,1248,1251,1251,1251,1251,1251,1251,1251,1251,1251,1251,1251,1251,1251,1251,1251,1251,1251,1251,1251,1251,1248,1248,1248,1248,1248,1248,1248,1248,1248,1248,1248,1248,1248,1248,1248,1251,1251,1251,1253,1253,1256,1258,1258,1258,1258,1261,1264,1264,1266,1269,1269,1279,1279,1282,1282,1282,1285,1285,1285,1287,1287,1287,1290,1290,1290,1293,1290,1290,1293,1293,1293,1293,1293,1295,1295,1295,1298,1298,1298,1298,1298,1298,1298,1301,1301,1301,1303,1303,1303,1306,1306,1306,1309,1309,1312,1315,1315,1315,1315,1317,1317,1317,1317,1317,1317,1317,1315,1312,1312,1309,1309,1309,1309,1309,1309,1306,1306,1306,1306,1306,1303,1303,1303,1301,1301,1298,1298,1295,1293,1293,1287,1285,1285,1282,1282,1282,1282,1282,1282,1282,1285,1285,1287,1287,1290,1290,1290,1295,1298,1298,1301,1306,1306,1309,1309,1312,1315,1315,1317,1320,1320,1320,1320
1113,1113,1113,1113,1113,1113,1113,1113,1113,1113,1113,1115,1115,1115,1115,1115,1117,1117,1119,1119,1119,1121,1121,1123,1123,1123,1125,1125,1125,1127,1127,1127,1127,1127,1127,1127,1127,1127,1127,1127,1127,1127,1127,1127,1127,1130,1130,1130,1130,1130,1130,1132,1130,1130,1132,1132,1132,1132,1132,1132,1132,1134,1134,1134,1134,1134,1136,1136,1134,1134,1134,1132,1132,1132,1132,1132,1130,1130,1130,1130,1130,1130,1130,1130,1130,1132,1132,1132,1134,1134,1136,1146,1146,1148,1151,1151,1155,1157,1157,1159,1159,1159,1161,1161,1161,1161,1161,1161,1161,1159,1159,1155,1155,1155,1155,1155,1153,1153,1153,1151,1151,1151,1151,1151,1151,1151,1151,1151,1153,1155,1155,1155,1155,1157,1157,1157,1157,1159,1157,1157,1157,1157,1157,1157,1157,1157,1157,1157,1155,1155,1155,1155,1155,1155,1155,1155,1155,1155,1155,1155,1157,1157,1157,1159,1159,1159,1161,1161,1164,1164,1164,1166,1168,1168,1168,1168,1170,1172,1172,1175,1177,1177,1177,1179,1179,1181,1181,1181,1184,1184,1184,1190,1190,1193,1193,1193,1193,1193,1193,1193,1193,1193,1190,1188,1188,1188,1186,1186,1186,1186,1186,1184,1184,1184,1184,1184,1184,1184,1184,1184,1184,1184,1184,1184,1184,1184,1184,1184,1184,1184,1186,1188,1188,1190,1190,1193,1195,1195,1195,1195,1195,1197,1197,1197,1197,1195,1195,1195,1193,1193,1195,1195,1195,1195,1195,1195,1195,1195,1195,1195,1197,1197,1197,1197,1195,1195,1197,1197,1197,1197,1197,1197,1197,1197,1197,1197,1197,1197,1200,1200,1200,1200,1200,1200,1200,1200,1197,1197,1195,1195,1195,1195,1200,1197,1195,1195,1195,1193,1193,1190,1190,1188,1188,1188,1186,1186,1186,1186,1188,1188,1190,1195,1195,1197,1202,1202,1204,1204,1209,1211,1211,1214,1214,1211,1211,1211,1209,1209,1207,1207,1207,1204,1204,1204,1202,1202,1202,1200,1200,1200,1200,1197,1197,1197,1197,1200,1200,1200,1200,1200,1200,1200,1200,1200,1202,1202,1202,1202,1202,1204,1204,1204,1204,1204,1204,1204,1204,1204,1204,1204,1204,1204,1204,1204,1204,1204,1204,1207,1209,1209,1209,1209,1209,1211,1211,1211,1211,1211,1214,1214,1214,1223,1223,1223,1223,1223,1223,1223,1223,1223,1223,1223,1223,1223,1223,1223,1223,1223,1223,1223,1223,1223,1223,1223,1223,1223,1223,1221,1221,1221,1221,1221,1221,1221,1221,1219,1219,1219,1219,1219,1219,1219,1219,1219,1219,1219,1219,1221,1221,1221,1223,1223,1226,1226,1226,1228,1228,1228,1228,1228,1231,1231,1231,1233,1233,1233,1236,1236,1236,1238,1238,1238,1238,1238,1238,1238,1238,1238,1238,1241,1241,1241,1241,1241,1241,1241,1241,1241,1241,1241,1241,1241,1243,1243,1243,1243,1243,1243,1243,1243,1246,1251,1251,1251,1251,1251,1251,1248,1248,1248,1248,1248,1248,1248,1248,1248,1248,1248,1248,1248,1248,1248,1251,1251,1251,1253,1253,1256,1258,1258,1258,1258,1261,1264,1264,1266,1269,1269,1271,1271,1271,1274,1274,1277,1277,1277,1279,1279,1279,1279,1279,1282,1282,1282,1282,1282,1282,1282,1282,1285,1285,1285,1285,1285,1285,1287,1287,1287,1287,1287,1290,1290,1290,1293,1293,1293,1295,1295,1295,1298,1298,1301,1301,1303,1303,1303,1303,1306,1306,1306,1306,1306,1306,1303,1303,1303,1303,1303,1303,1301,1301,1301,1306,1306,1306,1306,1306,1303,1303,1303,1301,1301,1298,1298,1295,1293,1293,1287,1285,1285,1282,1282,1282,1282,1282,1282,1282,1285,1285,1287,1287,1290,1290,1290,1295,1298,1298,1301,1303,1303,1303,1303,1306,1309,1309,1309,1312,1312,1315,1315
1105,1105,1105,1105,1105,1105,1105,1105,1105,1105,1105,1107,1107,1107,1107,1107,1109,1109,1111,1111,1111,1113,1113,1115,1117,1117,1119,1119,1119,1121,1121,1121,1121,1121,1121,1121,1121,1121,1121,1121,1121,1121,1121,1121,1121,1123,1123,1123,1123,1123,1123,1123,1123,1123,1132,1132,1132,1132,1132,1132,1132,1134,1134,1134,1134,1134,1136,1136,1134,1134,1134,1132,1132,1132,1132,1132,1130,1130,1130,1130,1130,1130,1130,1130,1130,1132,1132,1132,1134,1134,1136,1138,1138,1140,1142,1142,1146,1148,1148,1148,1148,1151,1153,1153,1153,1153,1153,1153,1151,1151,1151,1148,1146,1146,1146,1146,1144,1144,1144,1144,1142,1142,1142,1144,1144,1144,1146,1146,1148,1148,1148,1151,1148,1148,1151,1151,1151,1151,1151,1151,1148,1148,1148,1148,1148,1148,1148,1148,1148,1148,1148,1148,1148,1155,1155,1155,1155,1155,1155,1155,1157,1157,1157,1159,1159,1159,1161,1161,1164,1164,1164,1166,1168,1168,1168,1168,1170,1172,1172,1175,1177,1177,1177,1179,1179,1181,1181,1181,1184,1184,1184,1186,1186,1186,1186,1188,1188,1188,1188,1188,1186,1186,1184,1181,1181,1181,1179,1179,1179,1179,1177,1177,1177,1177,1177,1177,1177,1177,1177,1177,1177,1177,1177,1177,1177,1177,1177,1177,1177,1177,1177,1179,1179,1179,1179,1181,1184,1184,1184,1184,1184,1186,1186,1186,1188,1186,1186,1186,1186,1186,1186,1186,1186,1186,1195,1195,1195,1195,1195,1195,1197,1197,1197,1197,1195,1195,1197,1197,1197,1197,1197,1197,1197,1197,1197,1197,1197,1197,1200,1200,1200,1200,1200,1200,1200,1200,1197,1197,1195,1195,1195,1193,1193,1190,1188,1188,1186,1184,1184,1181,1181,1181,1179,1179,1179,1179,1179,1179,1179,1179,1184,1186,1186,1190,1195,1195,1197,1197,1200,1202,1202,1204,1204,1204,1204,1202,1202,1202,1200,1197,1197,1197,1197,1195,1195,1195,1193,1193,1193,1193,1193,1193,1193,1193,1193,1193,1193,1193,1193,1193,1193,1193,1193,1193,1202,1202,1202,1202,1202,1204,1204,1204,1204,1204,1204,1204,1204,1204,1204,1204,1204,1204,1204,1204,1204,1204,1204,1207,1209,1209,1209,1209,1209,1211,1211,1211,1211,1211,1214,1214,1214,1214,1214,1214,1214,1214,1214,1214,1214,1214,1214,1214,1214,1214,1214,1214,1214,1214,1214,1214,1214,1214,1214,1214,1214,1214,1214,1214,1214,1214,1214,1214,1214,1214,1214,1211,1211,1211,1211,1211,1211,1211,1211,1211,1211,1211,1211,1214,1214,1214,1216,1216,1216,1216,1219,1219,1219,1221,1221,1221,1223,1223,1223,1233,1233,1233,1236,1236,1236,1238,1238,1238,1238,1238,1238,1238,1238,1238,1238,1241,1241,1241,1241,1241,1241,1241,1241,1241,1241,1241,1241,1241,1243,1243,1243,1243,1243,1243,1243,1243,1246,1246,1246,1246,1246,1246,1246,1246,1246,1246,1246,1246,1243,1243,1243,1243,1243,1243,1243,1243,1243,1243,1243,1243,1246,1246,1246,1248,1248,1248,1251,1251,1253,1256,1256,1256,1258,1258,1261,1261,1261,1264,1264,1266,1266,1266,1269,1269,1269,1269,1269,1271,1271,1271,1271,1271,1271,1271,1271,1274,1274,1274,1274,1285,1285,1287,1287,1287,1287,1287,1290,1290,1290,1293,1293,1293,1295,1295,1295,1298,1298,1301,1301,1303,1303,1303,1303,1306,1306,1306,1306,1306,1306,1303,1303,1303,1303,1303,1303,1301,1301,1301,1301,1301,1298,1298,1295,1293,1293,1293,1290,1290,1287,1287,1285,1282,1282,1279,1274,1274,1271,1271,1271,1274,1274,1274,1277,1279,1279,1282,1282,1285,1287,1287,1293,1295,1295,1295,1298,1298,1298,1298,1301,1303,1303,1303,1306,1306,1306,1306
1099,1097,1097,1097,1097,1097,1097,1097,1097,1097,1099,1099,1099,1101,1101,1101,1109,1109,1111,1111,1111,1113,1113,1115,1117,1117,1119,1119,1119,1121,1121,1121,1121,1121,1121,1121,1121,1121,1121,1121,1121,1121,1121,1121,1121,1123,1123,1123,1123,1123,1123,1123,1123,1123,1123,1123,1125,1123,1123,1125,1125,1125,1125,1125,1127,1127,1127,1127,1127,1127,1127,1125,1125,1125,1123,1123,1123,1121,1121,1121,1121,1121,1121,1123,1123,1123,1125,1125,1127,1127,1127,1130,1130,1132,1134,1134,1138,1138,1138,1140,1140,1142,1144,1144,1144,1144,1144,1144,1142,1142,1142,1140,1138,1138,1138,1138,1138,1144,1144,1144,1142,1142,1142,1144,1144,1144,1146,1146,1148,1148,1148,1151,1148,1148,1151,1151,1151,1151,1151,1151,1148,1148,1148,1148,1148,1148,1148,1148,1148,1148,1148,1148,1146,1146,1146,1146,1146,1148,1148,1148,1148,1148,1148,1151,1151,1151,1153,1153,1153,1155,1155,1157,1159,1159,1159,1159,1161,1164,1164,1166,1168,1168,1170,1172,1172,1175,1175,1177,1177,1177,1179,1179,1179,1179,1179,1181,1181,1181,1181,1181,1179,1179,1177,1177,1177,1175,1172,1172,1172,1172,1170,1170,1170,1170,1170,1170,1170,1177,1177,1177,1177,1177,1177,1177,1177,1177,1177,1177,1177,1177,1177,1179,1179,1179,1179,1181,1184,1184,1184,1184,1184,1186,1186,1186,1188,1186,1186,1186,1186,1186,1186,1186,1186,1186,1188,1188,1188,1188,1190,1190,1190,1190,1190,1190,1190,1190,1193,1193,1193,1190,1190,1193,1193,1193,1193,1193,1193,1193,1195,1195,1193,1193,1193,1193,1193,1190,1188,1188,1188,1186,1186,1184,1184,1181,1179,1179,1177,1177,1177,1175,1175,1172,1172,1172,1172,1172,1170,1170,1172,1172,1175,1179,1179,1184,1186,1186,1197,1197,1200,1202,1202,1204,1204,1204,1204,1202,1202,1202,1200,1197,1197,1197,1197,1195,1195,1195,1193,1193,1193,1193,1193,1193,1193,1193,1193,1193,1193,1193,1193,1193,1193,1193,1193,1193,1195,1195,1195,1195,1195,1197,1197,1197,1197,1197,1197,1197,1197,1197,1197,1197,1197,1197,1197,1200,1200,1200,1200,1200,1202,1202,1202,1202,1202,1204,1204,1204,1204,1204,1204,1207,1207,1207,1207,1207,1207,1207,1207,1207,1207,1207,1207,1207,1207,1207,1204,1204,1204,1207,1207,1207,1207,1207,1207,1207,1207,1207,1214,1214,1214,1214,1214,1214,1214,1214,1214,1211,1211,1211,1211,1211,1211,1211,1211,1211,1211,1211,1211,1214,1214,1214,1216,1216,1216,1216,1219,1219,1219,1221,1221,1221,1223,1223,1223,1226,1226,1226,1226,1226,1228,1228,1228,1228,1228,1231,1231,1231,1231,1231,1231,1231,1231,1231,1231,1231,1231,1231,1231,1233,1233,1233,1233,1233,1233,1233,1233,1236,1236,1236,1238,1238,1238,1241,1241,1241,1241,1243,1243,1241,1241,1241,1241,1241,1241,1241,1241,1238,1238,1238,1238,1238,1238,1238,1238,1238,1238,1238,1238,1248,1248,1248,1251,1251,1253,1256,1256,1256,1258,1258,1261,1261,1261,1264,1264,1266,1266,1266,1269,1269,1269,1269,1269,1271,1271,1271,1271,1271,1271,1271,1271,1274,1274,1274,1274,1274,1274,1277,1277,1277,1279,1279,1279,1279,1279,1282,1282,1282,1285,1285,1285,1285,1285,1287,1287,1290,1290,1290,1293,1293,1293,1293,1293,1293,1295,1293,1293,1293,1293,1293,1293,1293,1293,1293,1290,1290,1290,1290,1287,1285,1285,1282,1279,1279,1277,1277,1274,1269,1269,1266,1266,1266,1264,1264,1264,1264,1266,1266,1277,1279,1279,1282,1282,1285,1287,1287,1293,1295,1295,1295,1298,1298,1298,1298,1301,1303,1303,1303,1306,1306,1306,1306
1099,1097,1097,1097,1097,1097,1097,1097,1097,1097,1099,1099,1099,1101,1101,1101,1103,1103,1103,1107,1107,1107,1107,1109,1111,1111,1113,1115,1115,1115,1115,1115,1117,1117,1117,1117,1117,1117,1117,1117,1117,1117,1117,1117,1117,1117,1117,1117,1117,1117,1117,1117,1117,1117,1117,1117,1117,1117,1119,1119,1119,1119,1119,1119,1119,1119,1121,1121,1119,1119,1119,1119,1119,1117,1117,1117,1117,1117,1121,1121,1121,1121,1121,1123,1123,1123,1125,1125,1127,1127,1127,1130,1130,1132,1134,1134,1138,1138,1138,1140,1140,1142,1144,1144,1144,1144,1144,1144,1142,1142,1142,1140,1138,1138,1138,1138,1136,1136,1136,1136,1136,1136,1136,1138,1138,1140,1140,1140,1140,1142,1142,1144,1144,1144,1144,1144,1144,1144,1144,1144,1142,1142,1142,1142,1142,1142,1142,1142,1142,1142,1142,1142,1140,1140,1140,1140,1140,1142,1142,1142,1142,1142,1142,1142,1142,1144,1146,1146,1146,1146,1146,1148,1148,1148,1151,1151,1153,1155,1155,1166,1168,1168,1170,1172,1172,1175,1175,1177,1177,1177,1179,1179,1179,1179,1179,1181,1181,1181,1181,1181,1179,1179,1177,1177,1177,1175,1172,1172,1172,1172,1170,1170,1170,1170,1170,1170,1170,1170,1170,1170,1170,1170,1170,1170,1168,1168,1168,1166,1166,1166,1166,1170,1168,1168,1168,1170,1170,1170,1172,1172,1172,1175,1175,1175,1175,1175,1175,1177,1177,1177,1177,1179,1179,1179,1179,1179,1179,1181,1184,1184,1184,1184,1184,1184,1184,1186,1186,1186,1186,1186,1186,1186,1186,1186,1186,1186,1186,1186,1188,1195,1193,1193,1193,1193,1193,1190,1188,1188,1188,1186,1186,1184,1184,1181,1179,1179,1177,1177,1177,1175,1175,1172,1172,1172,1172,1172,1170,1170,1172,1172,1175,1179,1179,1184,1186,1186,1188,1188,1190,1195,1195,1195,1197,1195,1195,1195,1193,1193,1193,1190,1190,1190,1190,1190,1188,1188,1188,1188,1188,1186,1186,1186,1186,1186,1186,1186,1186,1186,1186,1186,1186,1186,1186,1188,1188,1188,1188,1190,1190,1190,1190,1190,1190,1190,1190,1190,1190,1190,1190,1190,1190,1190,1193,1193,1193,1193,1193,1193,1193,1193,1202,1202,1202,1204,1204,1204,1204,1204,1204,1207,1207,1207,1207,1207,1207,1207,1207,1207,1207,1207,1207,1207,1207,1207,1204,1204,1204,1207,1207,1207,1207,1207,1207,1207,1207,1207,1207,1207,1207,1207,1207,1207,1207,1207,1207,1207,1207,1207,1207,1207,1207,1207,1207,1207,1207,1207,1207,1209,1209,1209,1211,1211,1211,1211,1211,1211,1211,1214,1214,1214,1216,1216,1216,1216,1216,1219,1219,1219,1219,1219,1221,1221,1221,1221,1221,1221,1221,1221,1221,1221,1221,1223,1223,1223,1223,1223,1223,1223,1223,1233,1233,1233,1233,1233,1233,1236,1236,1236,1238,1238,1238,1241,1241,1241,1241,1243,1243,1241,1241,1241,1241,1241,1241,1241,1241,1238,1238,1238,1238,1238,1238,1238,1238,1238,1238,1238,1238,1238,1238,1241,1241,1241,1243,1246,1246,1248,1248,1248,1251,1251,1251,1253,1253,1256,1256,1256,1258,1258,1258,1258,1258,1258,1258,1258,1258,1258,1258,1258,1258,1261,1261,1261,1264,1264,1264,1264,1264,1266,1266,1266,1269,1269,1269,1271,1271,1271,1274,1274,1274,1274,1274,1274,1274,1277,1277,1277,1277,1277,1277,1293,1293,1293,1295,1293,1293,1293,1293,1293,1293,1293,1293,1293,1290,1290,1290,1290,1287,1285,1285,1282,1279,1279,1277,1277,1274,1269,1269,1266,1266,1266,1264,1264,1264,1264,1266,1266,1269,1271,1271,1274,1274,1279,1279,1279,1285,1287,1287,1290,1290,1290,1293,1293,1293,1295,1295,1295,1298,1298,1298,1298
1092,1090,1090,1090,1092,1092,1092,1092,1092,1092,1094,1094,1094,1094,1094,1095,1097,1097,1097,1099,1099,1101,1101,1103,1105,1105,1107,1109,1109,1109,1109,1109,1111,1111,1111,1111,1111,1111,1111,1111,1111,1111,1117,1117,1117,1117,1117,1117,1117,1117,1117,1117,1117,1117,1117,1117,1117,1117,1119,1119,1119,1119,1119,1119,1119,1119,1121,1121,1119,1119,1119,1119,1119,1117,1117,1117,1117,1117,1117,1117,1117,1117,1117,1117,1117,1117,1117,1117,1119,1119,1119,1121,1121,1123,1127,1127,1130,1132,1132,1134,1134,1136,1136,1136,1136,1138,1136,1136,1134,1134,1134,1132,1132,1132,1130,1130,1130,1130,1130,1130,1130,1130,1130,1132,1132,1134,1136,1136,1136,1136,1136,1136,1136,1138,1138,1138,1138,1138,1138,1138,1136,1136,1142,1142,1142,1142,1142,1142,1142,1142,1142,1142,1140,1140,1140,1140,1140,1142,1142,1142,1142,1142,1142,1142,1142,1144,1146,1146,1146,1146,1146,1148,1148,1148,1151,1151,1153,1155,1155,1157,1159,1159,1164,1164,1166,1166,1166,1168,1170,1170,1170,1172,1172,1172,1172,1172,1175,1172,1172,1172,1172,1172,1170,1170,1170,1168,1166,1166,1166,1166,1164,1164,1164,1164,1164,1164,1164,1164,1161,1161,1161,1161,1161,1159,1159,1159,1159,1157,1157,1157,1157,1159,1157,1157,1157,1159,1159,1159,1161,1161,1161,1164,1164,1175,1175,1175,1175,1177,1177,1177,1177,1179,1179,1179,1179,1179,1179,1181,1184,1184,1184,1184,1184,1184,1184,1186,1186,1186,1186,1186,1186,1186,1186,1186,1186,1186,1186,1186,1188,1188,1186,1186,1186,1186,1186,1184,1181,1181,1181,1177,1177,1177,1177,1175,1170,1170,1170,1170,1168,1168,1168,1166,1164,1164,1164,1164,1164,1164,1166,1166,1168,1172,1172,1177,1179,1179,1181,1181,1184,1186,1186,1188,1188,1188,1188,1186,1186,1186,1186,1186,1186,1184,1184,1184,1181,1181,1181,1181,1181,1179,1179,1179,1186,1186,1186,1186,1186,1186,1186,1186,1186,1186,1186,1188,1188,1188,1188,1190,1190,1190,1190,1190,1190,1190,1190,1190,1190,1190,1190,1190,1190,1190,1193,1193,1193,1193,1193,1193,1193,1193,1195,1195,1195,1197,1197,1197,1197,1197,1197,1197,1197,1197,1197,1200,1200,1197,1197,1197,1197,1197,1197,1197,1197,1197,1197,1197,1197,1197,1197,1197,1200,1200,1200,1200,1200,1200,1200,1200,1200,1200,1200,1200,1200,1200,1202,1202,1202,1200,1200,1200,1200,1200,1200,1200,1200,1200,1200,1202,1202,1202,1202,1202,1211,1211,1211,1211,1211,1214,1214,1214,1216,1216,1216,1216,1216,1219,1219,1219,1219,1219,1221,1221,1221,1221,1221,1221,1221,1221,1221,1221,1221,1223,1223,1223,1223,1223,1223,1223,1223,1226,1226,1226,1226,1228,1228,1228,1228,1231,1231,1231,1236,1236,1236,1236,1236,1238,1238,1238,1238,1238,1238,1238,1236,1236,1236,1233,1233,1233,1231,1231,1231,1231,1231,1231,1231,1231,1231,1231,1231,1231,1233,1233,1233,1236,1236,1238,1238,1238,1241,1241,1241,1243,1243,1246,1246,1246,1248,1248,1248,1248,1248,1248,1258,1258,1258,1258,1258,1258,1258,1261,1261,1261,1264,1264,1264,1264,1264,1266,1266,1266,1269,1269,1269,1271,1271,1271,1274,1274,1274,1274,1274,1274,1274,1277,1277,1277,1277,1277,1277,1277,1277,1279,1282,1282,1282,1285,1285,1285,1282,1282,1282,1282,1285,1285,1279,1279,1277,1274,1274,1271,1269,1269,1266,1266,1261,1258,1258,1256,1256,1256,1256,1256,1256,1256,1258,1258,1261,1266,1266,1269,1269,1271,1277,1277,1279,1282,1282,1285,1285,1285,1287,1287,1287,1287,1287,1287,1290,1290,1290,1290
1086,1086,1086,1086,1086,1092,1092,1092,1092,1092,1094,1094,1094,1094,1094,1095,1097,1097,1097,1099,1099,1101,1101,1103,1105,1105,1107,1109,1109,1109,1109,1109,1111,1111,1111,1111,1111,1111,1111,1111,1111,1111,1111,1111,1111,1111,1111,1111,1111,1111,1111,1111,1111,1111,1111,1111,1111,1111,1111,1111,1111,1113,1113,1113,1113,1113,1113,1113,1113,1113,1113,1113,1113,1111,1111,1111,1111,1111,1111,1109,1109,1109,1109,1109,1109,1109,1111,1111,1113,1113,1113,1115,1115,1117,1119,1119,1121,1121,1125,1127,1127,1127,1130,1130,1136,1138,1136,1136,1134,1134,1134,1132,1132,1132,1130,1130,1130,1130,1130,1130,1130,1130,1130,1132,1132,1134,1136,1136,1136,1136,1136,1136,1136,1138,1138,1138,1138,1138,1138,1138,1136,1136,1136,1136,1136,1136,1136,1136,1136,1136,1136,1136,1136,1136,1134,1134,1134,1134,1134,1134,1136,1136,1136,1136,1136,1136,1138,1138,1138,1138,1138,1138,1140,1140,1142,1142,1144,1146,1146,1148,1151,1151,1153,1153,1155,1157,1157,1159,1161,1161,1161,1161,1161,1164,1164,1164,1166,1166,1164,1164,1164,1164,1161,1161,1170,1168,1166,1166,1166,1166,1164,1164,1164,1164,1164,1164,1164,1164,1161,1161,1161,1161,1161,1159,1159,1159,1159,1157,1157,1157,1157,1159,1157,1157,1157,1159,1159,1159,1161,1161,1161,1164,1164,1164,1166,1166,1166,1166,1166,1168,1168,1170,1170,1170,1172,1172,1172,1172,1172,1175,1175,1175,1177,1177,1177,1177,1177,1177,1179,1179,1179,1179,1179,1179,1179,1179,1179,1179,1179,1179,1179,1179,1179,1179,1179,1177,1175,1175,1172,1172,1170,1168,1168,1168,1164,1164,1164,1164,1161,1159,1159,1159,1159,1159,1159,1164,1164,1164,1166,1166,1168,1172,1172,1177,1179,1179,1181,1181,1184,1186,1186,1188,1188,1188,1188,1186,1186,1186,1186,1186,1186,1184,1184,1184,1181,1181,1181,1181,1181,1179,1179,1179,1179,1179,1179,1179,1179,1179,1179,1179,1179,1179,1179,1179,1179,1179,1179,1179,1181,1181,1181,1181,1184,1184,1184,1184,1184,1184,1184,1186,1186,1186,1186,1186,1186,1188,1188,1188,1188,1188,1188,1188,1188,1190,1190,1190,1190,1190,1190,1190,1190,1190,1190,1190,1190,1190,1190,1193,1190,1190,1190,1190,1190,1190,1197,1197,1197,1197,1197,1197,1200,1200,1200,1200,1200,1200,1200,1200,1200,1200,1200,1200,1200,1200,1202,1202,1202,1200,1200,1200,1200,1200,1200,1200,1200,1200,1200,1202,1202,1202,1202,1202,1204,1204,1204,1204,1204,1207,1207,1207,1207,1207,1209,1209,1209,1209,1211,1211,1211,1211,1214,1214,1214,1214,1214,1214,1214,1214,1214,1214,1214,1216,1216,1216,1216,1216,1216,1216,1216,1219,1219,1219,1221,1221,1221,1223,1223,1226,1228,1228,1228,1233,1233,1233,1233,1233,1233,1233,1233,1233,1233,1233,1231,1231,1236,1233,1233,1233,1231,1231,1231,1231,1231,1231,1231,1231,1231,1231,1231,1231,1233,1233,1233,1236,1236,1238,1238,1238,1241,1241,1241,1243,1243,1246,1246,1246,1248,1248,1248,1248,1248,1248,1248,1248,1248,1248,1248,1248,1248,1251,1251,1251,1251,1251,1251,1253,1253,1256,1256,1256,1256,1256,1258,1258,1258,1258,1264,1261,1261,1261,1261,1261,1261,1264,1264,1264,1264,1264,1264,1266,1266,1269,1269,1269,1271,1271,1271,1274,1274,1274,1274,1274,1274,1274,1271,1271,1269,1264,1264,1261,1258,1258,1256,1256,1256,1258,1258,1256,1256,1256,1256,1256,1256,1256,1258,1258,1261,1266,1266,1269,1269,1271,1277,1277,1279,1282,1282,1285,1285,1285,1287,1287,1287,1287,1287,1287,1290,1290,1290,1290
1086,1086,1086,1086,1086,1086,1086,1086,1086,1086,1086,1086,1086,1088,1088,1090,1090,1090,1092,1094,1094,1095,1095,1097,1099,1099,1099,1101,1101,1103,1103,1103,1105,1105,1105,1105,1105,1105,1105,1105,1105,1105,1105,1105,1105,1105,1105,1105,1105,1105,1105,1105,1105,1105,1105,1105,1105,1105,1105,1105,1105,1107,1107,1107,1107,1107,1107,1113,1113,1113,1113,1113,1113,1111,1111,1111,1111,1111,1111,1109,1109,1109,1109,1109,1109,1109,1111,1111,1113,1113,1113,1115,1115,1117,1119,1119,1121,1121,1125,1127,1127,1127,1130,1130,1130,1130,1127,1127,1127,1125,1125,1123,1123,1123,1123,1123,1119,1119,1119,1119,1119,1119,1119,1121,1121,1123,1125,1125,1127,1127,1127,1127,1127,1130,1132,1132,1132,1132,1132,1132,1132,1132,1132,1132,1132,1132,1132,1132,1132,1130,1130,1130,1130,1130,1130,1130,1130,1127,1127,1127,1127,1130,1130,1130,1127,1127,1130,1130,1138,1138,1138,1138,1140,1140,1142,1142,1144,1146,1146,1148,1151,1151,1153,1153,1155,1157,1157,1159,1161,1161,1161,1161,1161,1164,1164,1164,1166,1166,1164,1164,1164,1164,1161,1159,1159,1159,1159,1157,1157,1157,1155,1153,1153,1153,1153,1153,1153,1153,1153,1153,1153,1151,1151,1151,1151,1151,1148,1148,1148,1146,1146,1146,1146,1146,1146,1148,1148,1148,1151,1151,1151,1153,1153,1153,1155,1155,1155,1157,1157,1157,1157,1159,1161,1161,1164,1164,1164,1164,1164,1166,1166,1166,1168,1168,1168,1170,1170,1177,1179,1179,1179,1179,1179,1179,1179,1179,1179,1179,1179,1179,1179,1179,1179,1179,1179,1177,1175,1175,1172,1172,1170,1168,1168,1168,1164,1164,1164,1164,1161,1159,1159,1159,1159,1159,1157,1157,1157,1159,1159,1159,1161,1166,1166,1168,1170,1170,1175,1175,1179,1179,1179,1181,1184,1181,1181,1181,1179,1179,1179,1177,1177,1177,1177,1177,1175,1175,1175,1175,1175,1175,1175,1172,1172,1172,1172,1170,1170,1170,1170,1170,1170,1172,1172,1172,1172,1172,1175,1175,1175,1175,1175,1177,1177,1177,1179,1179,1179,1184,1184,1186,1186,1186,1186,1186,1186,1188,1188,1188,1188,1188,1188,1188,1188,1190,1190,1190,1190,1190,1190,1190,1190,1190,1190,1190,1190,1190,1190,1193,1190,1190,1190,1190,1190,1190,1190,1190,1190,1190,1190,1193,1193,1193,1193,1193,1193,1193,1193,1193,1193,1193,1193,1195,1195,1195,1195,1195,1195,1195,1195,1195,1195,1195,1195,1195,1195,1195,1197,1197,1197,1197,1197,1197,1200,1200,1200,1200,1200,1200,1200,1200,1200,1200,1202,1202,1202,1202,1204,1204,1204,1204,1204,1204,1204,1207,1207,1207,1207,1207,1214,1214,1214,1216,1216,1216,1216,1216,1216,1216,1216,1219,1219,1219,1221,1221,1221,1223,1223,1226,1228,1228,1228,1233,1233,1233,1233,1233,1233,1233,1233,1233,1233,1233,1231,1231,1231,1228,1228,1228,1226,1226,1223,1223,1223,1223,1223,1223,1223,1223,1223,1223,1223,1223,1226,1226,1226,1228,1228,1231,1231,1231,1233,1233,1233,1236,1238,1238,1238,1238,1238,1238,1238,1238,1238,1238,1238,1238,1238,1238,1238,1241,1241,1241,1241,1241,1241,1243,1243,1243,1246,1246,1246,1246,1246,1248,1248,1248,1264,1261,1261,1261,1261,1261,1261,1264,1264,1264,1264,1264,1264,1266,1266,1269,1269,1269,1271,1271,1271,1274,1274,1274,1274,1274,1274,1274,1271,1271,1269,1264,1264,1261,1258,1258,1256,1256,1253,1248,1248,1246,1246,1246,1246,1246,1246,1248,1251,1251,1256,1258,1258,1261,1261,1266,1269,1269,1271,1277,1277,1277,1279,1279,1279,1279,1279,1282,1279,1279,1282,1282,1282,1282
1082,1080,1080,1080,1080,1080,1080,1080,1080,1080,1080,1080,1082,1082,1082,1084,1086,1086,1086,1088,1088,1090,1090,1092,1094,1094,1095,1095,1095,1103,1103,1103,1105,1105,1105,1105,1105,1105,1105,1105,1105,1105,1105,1105,1105,1105,1105,1105,1105,1105,1105,1105,1105,1105,1105,1105,1105,1105,1105,1105,1105,1107,1107,1107,1107,1107,1107,1107,1107,1107,1107,1107,1107,1105,1105,1105,1105,1105,1105,1103,1103,1103,1103,1103,1103,1103,1105,1105,1105,1105,1107,1109,1109,1111,1113,1113,1115,1115,1117,1119,1119,1121,1123,1123,1123,1121,1121,1121,1119,1117,1117,1117,1117,1115,1115,1115,1111,1111,1111,1111,1111,1111,1111,1111,1111,1115,1117,1117,1117,1127,1127,1127,1127,1130,1132,1132,1132,1132,1132,1132,1132,1132,1132,1132,1132,1132,1132,1132,1132,1130,1130,1130,1130,1130,1130,1130,1130,1127,1127,1127,1127,1130,1130,1130,1127,1127,1130,1130,1130,1130,1130,1130,1130,1132,1132,1132,1134,1136,1136,1140,1140,1140,1142,1142,1144,1146,1146,1148,1151,1151,1151,1151,1153,1153,1153,1155,1155,1155,1155,1155,1153,1153,1153,1151,1151,1148,1148,1148,1146,1146,1146,1144,1144,1144,1144,1144,1142,1142,1142,1142,1142,1142,1142,1140,1140,1140,1138,1138,1138,1138,1146,1146,1146,1146,1146,1148,1148,1148,1151,1151,1151,1153,1153,1153,1155,1155,1155,1157,1157,1157,1157,1159,1161,1161,1164,1164,1164,1164,1164,1166,1166,1166,1168,1168,1168,1170,1170,1170,1170,1170,1170,1170,1170,1172,1172,1172,1172,1172,1172,1172,1172,1172,1172,1170,1170,1170,1168,1168,1166,1166,1164,1161,1161,1161,1159,1159,1157,1157,1155,1155,1155,1153,1153,1153,1153,1153,1153,1153,1153,1153,1155,1159,1159,1161,1166,1166,1168,1168,1170,1172,1172,1175,1175,1175,1177,1175,1175,1175,1172,1172,1177,1177,1177,1177,1175,1175,1175,1175,1175,1175,1175,1172,1172,1172,1172,1170,1170,1170,1170,1170,1170,1172,1172,1172,1172,1172,1175,1175,1175,1175,1175,1177,1177,1177,1179,1179,1179,1179,1179,1179,1181,1181,1181,1181,1181,1181,1181,1181,1181,1181,1181,1181,1181,1181,1181,1181,1181,1181,1181,1184,1184,1184,1184,1184,1184,1184,1184,1184,1184,1186,1186,1186,1186,1186,1186,1186,1186,1186,1186,1186,1186,1186,1186,1188,1188,1188,1188,1188,1188,1188,1188,1188,1188,1188,1188,1190,1190,1190,1190,1195,1195,1195,1195,1195,1195,1195,1197,1197,1197,1197,1197,1197,1200,1200,1200,1200,1200,1200,1200,1200,1200,1200,1202,1202,1202,1202,1204,1204,1204,1204,1204,1204,1204,1207,1207,1207,1207,1207,1207,1207,1207,1207,1209,1209,1209,1209,1209,1209,1209,1211,1214,1214,1214,1216,1216,1219,1219,1221,1223,1223,1226,1226,1226,1228,1228,1231,1231,1231,1228,1228,1228,1228,1226,1223,1223,1223,1221,1221,1219,1219,1219,1216,1216,1216,1216,1216,1216,1216,1216,1216,1216,1216,1216,1219,1219,1221,1221,1221,1223,1223,1233,1233,1233,1236,1238,1238,1238,1238,1238,1238,1238,1238,1238,1238,1238,1238,1238,1238,1238,1241,1241,1241,1241,1241,1241,1243,1243,1243,1246,1246,1246,1246,1246,1248,1248,1248,1251,1251,1251,1251,1251,1251,1251,1251,1253,1253,1253,1256,1256,1256,1256,1256,1258,1258,1261,1264,1264,1264,1264,1264,1266,1266,1264,1264,1261,1261,1258,1256,1256,1253,1251,1251,1246,1246,1243,1241,1241,1238,1238,1238,1238,1238,1238,1241,1246,1246,1248,1251,1251,1256,1256,1258,1264,1264,1266,1269,1269,1271,1271,1271,1279,1279,1279,1282,1279,1279,1282,1282,1282,1282
1082,1080,1080,1080,1080,1080,1080,1080,1080,1080,1080,1080,1082,1082,1082,1084,1086,1086,1086,1088,1088,1090,1090,1092,1094,1094,1095,1095,1095,1097,1097,1097,1097,1097,1099,1099,1099,1099,1099,1099,1099,1099,1099,1099,1099,1099,1099,1099,1099,1099,1097,1097,1097,1097,1097,1097,1099,1099,1099,1099,1099,1099,1099,1099,1099,1099,1101,1101,1101,1101,1101,1101,1101,1099,1099,1099,1099,1099,1099,1097,1097,1097,1097,1097,1097,1099,1099,1099,1099,1099,1101,1103,1103,1111,1113,1113,1115,1115,1117,1119,1119,1121,1123,1123,1123,1121,1121,1121,1119,1117,1117,1117,1117,1115,1115,1115,1111,1111,1111,1111,1111,1111,1111,1111,1111,1115,1117,1117,1117,1119,1119,1121,1121,1121,1123,1123,1123,1125,1125,1125,1125,1125,1125,1125,1125,1125,1125,1125,1125,1125,1125,1125,1125,1125,1123,1123,1123,1123,1123,1123,1123,1123,1123,1123,1123,1123,1123,1121,1121,1123,1123,1123,1123,1123,1125,1125,1125,1127,1127,1130,1132,1132,1134,1134,1134,1136,1136,1138,1140,1140,1140,1140,1153,1153,1153,1155,1155,1155,1155,1155,1153,1153,1153,1151,1151,1148,1148,1148,1146,1146,1146,1144,1144,1144,1144,1144,1142,1142,1142,1142,1142,1142,1142,1140,1140,1140,1138,1138,1138,1138,1138,1138,1138,1138,1138,1138,1138,1138,1140,1140,1140,1142,1142,1144,1144,1144,1146,1146,1146,1148,1148,1151,1151,1151,1153,1153,1153,1155,1155,1157,1157,1157,1159,1159,1159,1161,1161,1161,1161,1161,1164,1164,1164,1164,1164,1166,1166,1166,1166,1166,1166,1166,1166,1164,1164,1164,1161,1161,1159,1159,1157,1157,1161,1161,1159,1159,1157,1157,1155,1155,1155,1153,1153,1153,1153,1153,1153,1153,1153,1153,1155,1159,1159,1161,1166,1166,1168,1168,1170,1172,1172,1175,1175,1175,1177,1175,1175,1175,1172,1172,1172,1172,1172,1170,1168,1168,1168,1168,1168,1166,1166,1166,1166,1166,1164,1164,1164,1164,1164,1164,1164,1164,1164,1164,1166,1166,1168,1168,1168,1170,1170,1170,1172,1172,1172,1172,1175,1177,1177,1177,1177,1177,1177,1177,1177,1177,1177,1177,1177,1177,1175,1175,1175,1175,1175,1175,1175,1175,1175,1175,1175,1177,1177,1184,1184,1184,1184,1184,1184,1186,1186,1186,1186,1186,1186,1186,1186,1186,1186,1186,1186,1186,1186,1188,1188,1188,1188,1188,1188,1188,1188,1188,1188,1188,1188,1190,1190,1190,1190,1190,1190,1190,1190,1190,1190,1190,1190,1190,1190,1193,1193,1193,1193,1193,1193,1195,1195,1195,1195,1195,1195,1195,1195,1195,1195,1195,1197,1197,1197,1197,1197,1197,1197,1200,1200,1200,1200,1200,1200,1200,1200,1200,1200,1200,1202,1202,1202,1204,1204,1204,1207,1207,1209,1211,1211,1214,1214,1216,1216,1216,1219,1221,1221,1228,1228,1231,1231,1231,1228,1228,1228,1228,1226,1223,1223,1223,1221,1221,1219,1219,1219,1216,1216,1216,1216,1216,1216,1216,1216,1216,1216,1216,1216,1219,1219,1221,1221,1221,1223,1223,1223,1226,1226,1226,1228,1228,1228,1226,1226,1228,1228,1228,1226,1226,1226,1226,1228,1228,1228,1228,1228,1228,1231,1231,1231,1233,1233,1233,1236,1236,1236,1236,1236,1238,1238,1238,1241,1241,1241,1241,1241,1241,1241,1241,1241,1241,1241,1241,1243,1246,1246,1246,1248,1248,1248,1251,1251,1253,1253,1253,1256,1256,1264,1264,1261,1261,1258,1256,1256,1253,1251,1251,1246,1246,1243,1241,1241,1238,1238,1238,1238,1238,1238,1241,1246,1246,1248,1251,1251,1256,1256,1258,1264,1264,1266,1269,1269,1271,1271,1271,1271,1271,1274,1274,1274,1274,1274,1274,1274,1274
1078,1076,1076,1076,1076,1076,1076,1076,1076,1076,1076,1076,1078,1078,1078,1080,1080,1080,1082,1084,1084,1086,1086,1086,1088,1088,1090,1090,1090,1092,1092,1092,1092,1092,1094,1094,1094,1094,1094,1092,1092,1092,1092,1092,1092,1092,1092,1092,1092,1092,1092,1092,1092,1092,1092,1097,1099,1099,1099,1099,1099,1099,1099,1099,1099,1099,1101,1101,1101,1101,1101,1101,1101,1099,1099,1099,1099,1099,1099,1097,1097,1097,1097,1097,1097,1099,1099,1099,1099,1099,1101,1103,1103,1105,1107,1107,1109,1109,1111,1113,1113,1113,1115,1115,1115,1115,1115,1115,1113,1111,1111,1109,1109,1107,1107,1107,1105,1103,1103,1103,1103,1103,1103,1103,1103,1107,1107,1107,1109,1109,1111,1113,1113,1115,1117,1117,1117,1119,1119,1119,1119,1119,1121,1121,1121,1121,1121,1121,1121,1121,1121,1121,1119,1119,1119,1123,1123,1123,1123,1123,1123,1123,1123,1123,1123,1123,1123,1121,1121,1123,1123,1123,1123,1123,1125,1125,1125,1127,1127,1130,1132,1132,1134,1134,1134,1136,1136,1138,1140,1140,1140,1140,1142,1142,1142,1144,1144,1144,1144,1144,1144,1144,1142,1140,1140,1140,1140,1138,1138,1138,1136,1136,1136,1134,1134,1134,1134,1134,1134,1134,1134,1132,1132,1132,1130,1130,1130,1130,1130,1130,1130,1130,1130,1130,1130,1130,1130,1130,1132,1132,1132,1132,1132,1134,1136,1136,1138,1138,1140,1140,1140,1140,1142,1142,1144,1153,1153,1155,1155,1157,1157,1157,1159,1159,1159,1161,1161,1161,1161,1161,1164,1164,1164,1164,1164,1166,1166,1166,1166,1166,1166,1166,1166,1164,1164,1164,1161,1161,1159,1159,1157,1155,1155,1155,1153,1153,1151,1151,1151,1148,1148,1148,1146,1146,1146,1146,1146,1146,1148,1148,1151,1153,1153,1155,1159,1159,1161,1161,1164,1166,1166,1168,1170,1168,1168,1168,1168,1168,1168,1166,1166,1166,1166,1164,1164,1164,1161,1161,1161,1159,1159,1159,1159,1159,1159,1157,1157,1157,1157,1157,1157,1157,1157,1159,1166,1166,1168,1168,1168,1170,1170,1170,1172,1172,1172,1172,1175,1177,1177,1177,1177,1177,1177,1177,1177,1177,1177,1177,1177,1177,1175,1175,1175,1175,1175,1175,1175,1175,1175,1175,1175,1177,1177,1177,1179,1179,1179,1179,1179,1179,1179,1179,1181,1181,1181,1181,1179,1179,1179,1181,1181,1181,1181,1181,1181,1181,1181,1181,1181,1181,1181,1184,1184,1184,1184,1184,1184,1184,1184,1184,1184,1186,1186,1186,1186,1186,1186,1188,1188,1188,1188,1188,1188,1188,1188,1188,1188,1188,1188,1188,1188,1188,1190,1190,1190,1195,1197,1197,1197,1197,1197,1197,1197,1200,1200,1200,1200,1200,1200,1200,1200,1200,1200,1200,1202,1202,1202,1204,1204,1204,1207,1207,1209,1211,1211,1214,1214,1216,1216,1216,1219,1221,1221,1223,1223,1226,1226,1223,1223,1223,1221,1221,1221,1219,1219,1216,1216,1216,1214,1214,1211,1209,1209,1209,1209,1209,1209,1209,1209,1209,1209,1209,1209,1211,1211,1211,1211,1211,1214,1214,1214,1216,1216,1216,1216,1219,1219,1216,1216,1216,1216,1216,1216,1216,1216,1216,1216,1216,1216,1216,1216,1216,1219,1219,1219,1233,1233,1233,1236,1236,1236,1236,1236,1238,1238,1238,1241,1241,1241,1241,1241,1241,1241,1241,1241,1241,1241,1241,1243,1246,1246,1246,1248,1248,1248,1251,1251,1253,1253,1253,1256,1256,1253,1253,1251,1251,1248,1246,1246,1243,1243,1241,1238,1238,1236,1231,1231,1231,1231,1231,1231,1231,1231,1233,1238,1238,1241,1246,1246,1248,1248,1253,1256,1256,1258,1264,1264,1264,1266,1266,1266,1266,1266,1266,1266,1266,1266,1266,1266,1266
1076,1075,1075,1075,1073,1073,1073,1073,1073,1073,1073,1073,1073,1075,1075,1075,1076,1076,1082,1084,1084,1086,1086,1086,1088,1088,1090,1090,1090,1092,1092,1092,1092,1092,1094,1094,1094,1094,1094,1092,1092,1092,1092,1092,1092,1092,1092,1092,1092,1092,1092,1092,1092,1092,1092,1092,1092,1092,1092,1092,1092,1094,1094,1094,1094,1094,1094,1094,1094,1094,1094,1094,1094,1094,1094,1094,1094,1094,1094,1092,1092,1092,1092,1092,1092,1092,1092,1092,1094,1094,1095,1097,1097,1097,1099,1099,1103,1103,1105,1107,1107,1107,1109,1109,1109,1109,1107,1107,1107,1105,1105,1103,1103,1101,1099,1099,1099,1103,1103,1103,1103,1103,1103,1103,1103,1107,1107,1107,1109,1109,1111,1113,1113,1115,1117,1117,1117,1119,1119,1119,1119,1119,1121,1121,1121,1121,1121,1121,1121,1121,1121,1121,1119,1119,1119,1119,1119,1119,1119,1119,1117,1117,1117,1119,1117,1117,1117,1117,1117,1117,1117,1117,1117,1117,1117,1117,1119,1119,1119,1121,1121,1123,1123,1123,1125,1127,1127,1127,1130,1130,1132,1132,1134,1134,1134,1134,1136,1136,1136,1136,1134,1134,1132,1132,1132,1132,1132,1130,1130,1130,1127,1127,1127,1125,1125,1125,1125,1134,1134,1134,1134,1132,1132,1132,1130,1130,1130,1130,1130,1130,1130,1130,1130,1130,1130,1130,1130,1130,1132,1132,1132,1132,1132,1134,1136,1136,1138,1138,1140,1140,1140,1140,1142,1142,1144,1144,1144,1146,1146,1148,1148,1148,1151,1151,1151,1153,1153,1153,1155,1155,1155,1157,1157,1157,1157,1159,1159,1159,1159,1159,1159,1159,1159,1157,1157,1157,1155,1155,1155,1155,1153,1151,1151,1151,1148,1148,1146,1146,1146,1144,1144,1144,1142,1142,1142,1142,1142,1142,1144,1144,1146,1148,1148,1151,1155,1155,1157,1157,1164,1166,1166,1168,1170,1168,1168,1168,1168,1168,1168,1166,1166,1166,1166,1164,1164,1164,1161,1161,1161,1159,1159,1159,1159,1159,1159,1157,1157,1157,1157,1157,1157,1157,1157,1159,1159,1159,1161,1161,1164,1164,1164,1166,1168,1168,1168,1168,1170,1170,1170,1170,1170,1170,1170,1170,1170,1170,1170,1170,1170,1170,1170,1168,1168,1168,1168,1168,1168,1168,1168,1168,1168,1170,1170,1170,1172,1172,1172,1172,1172,1172,1172,1175,1175,1175,1175,1175,1175,1175,1175,1175,1175,1175,1177,1177,1177,1177,1177,1181,1181,1181,1181,1184,1184,1184,1184,1184,1184,1184,1184,1184,1184,1186,1186,1186,1186,1186,1186,1188,1188,1188,1188,1188,1188,1188,1188,1188,1188,1188,1188,1188,1188,1188,1190,1190,1190,1190,1190,1190,1193,1193,1193,1193,1190,1190,1190,1190,1193,1193,1193,1193,1193,1193,1193,1193,1195,1195,1195,1197,1197,1197,1200,1200,1202,1204,1204,1207,1207,1209,1209,1209,1211,1214,1214,1216,1216,1216,1216,1216,1216,1216,1214,1214,1214,1211,1211,1209,1207,1207,1207,1207,1204,1202,1202,1202,1200,1200,1200,1209,1209,1209,1209,1209,1209,1211,1211,1211,1211,1211,1214,1214,1214,1216,1216,1216,1216,1219,1219,1216,1216,1216,1216,1216,1216,1216,1216,1216,1216,1216,1216,1216,1216,1216,1219,1219,1219,1221,1221,1223,1223,1223,1226,1226,1226,1228,1228,1228,1231,1231,1231,1231,1228,1228,1228,1231,1231,1231,1231,1231,1233,1233,1233,1236,1238,1238,1241,1241,1241,1241,1241,1243,1243,1243,1243,1243,1241,1241,1241,1238,1238,1236,1236,1231,1231,1231,1231,1226,1226,1226,1226,1226,1226,1226,1226,1228,1231,1231,1236,1246,1246,1248,1248,1253,1256,1256,1258,1264,1264,1264,1266,1266,1266,1266,1266,1266,1266,1266,1266,1266,1266,1266
1076,1075,1075,1075,1073,1073,1073,1073,1073,1073,1073,1073,1073,1075,1075,1075,1076,1076,1076,1078,1078,1080,1080,1082,1082,1082,1084,1084,1084,1086,1086,1086,1086,1086,1088,1088,1088,1088,1088,1088,1088,1088,1086,1086,1086,1086,1086,1086,1086,1086,1084,1084,1084,1084,1084,1086,1086,1086,1086,1086,1086,1088,1088,1088,1088,1088,1088,1088,1088,1088,1088,1088,1088,1088,1088,1088,1086,1086,1086,1086,1092,1092,1092,1092,1092,1092,1092,1092,1094,1094,1095,1097,1097,1097,1099,1099,1103,1103,1105,1107,1107,1107,1109,1109,1109,1109,1107,1107,1107,1105,1105,1103,1103,1101,1099,1099,1097,1097,1097,1095,1095,1095,1095,1095,1095,1099,1101,1101,1101,1101,1105,1107,1107,1109,1111,1111,1111,1113,1113,1115,1115,1115,1115,1115,1115,1117,1117,1117,1117,1117,1117,1117,1117,1117,1115,1115,1115,1115,1115,1115,1115,1115,1113,1113,1113,1113,1113,1111,1111,1111,1111,1111,1111,1111,1111,1111,1111,1113,1113,1113,1113,1123,1123,1123,1125,1127,1127,1127,1130,1130,1132,1132,1134,1134,1134,1134,1136,1136,1136,1136,1134,1134,1132,1132,1132,1132,1132,1130,1130,1130,1127,1127,1127,1125,1125,1125,1125,1125,1125,1125,1125,1125,1125,1123,1123,1123,1123,1123,1123,1123,1123,1123,1125,1125,1125,1125,1125,1125,1127,1127,1127,1127,1127,1130,1132,1132,1132,1132,1132,1134,1134,1134,1136,1136,1136,1138,1138,1138,1138,1140,1142,1142,1142,1144,1144,1144,1144,1146,1146,1146,1148,1148,1148,1148,1148,1151,1151,1151,1151,1159,1159,1159,1159,1157,1157,1157,1155,1155,1155,1155,1153,1151,1151,1151,1148,1148,1146,1146,1146,1144,1144,1144,1142,1142,1142,1142,1142,1142,1144,1144,1146,1148,1148,1151,1155,1155,1157,1157,1159,1161,1161,1164,1164,1164,1166,1164,1164,1164,1164,1161,1161,1161,1161,1159,1159,1159,1157,1155,1155,1155,1155,1155,1153,1153,1151,1151,1151,1151,1151,1151,1151,1151,1151,1151,1153,1153,1155,1155,1157,1159,1159,1161,1164,1164,1164,1164,1166,1166,1166,1166,1166,1166,1166,1166,1166,1166,1166,1164,1164,1164,1170,1168,1168,1168,1168,1168,1168,1168,1168,1168,1168,1170,1170,1170,1172,1172,1172,1172,1172,1172,1172,1175,1175,1175,1175,1175,1175,1175,1175,1175,1175,1175,1177,1177,1177,1177,1177,1177,1177,1177,1177,1177,1177,1177,1177,1177,1177,1177,1177,1179,1179,1179,1179,1179,1181,1181,1181,1181,1181,1181,1181,1181,1184,1184,1184,1184,1184,1184,1184,1184,1184,1184,1184,1184,1184,1184,1184,1184,1184,1184,1186,1186,1186,1184,1184,1184,1184,1184,1186,1186,1186,1186,1188,1188,1188,1188,1188,1190,1190,1193,1200,1200,1202,1204,1204,1207,1207,1209,1209,1209,1211,1214,1214,1216,1216,1216,1216,1216,1216,1216,1214,1214,1214,1211,1211,1209,1207,1207,1207,1207,1204,1202,1202,1202,1200,1200,1200,1200,1200,1200,1200,1200,1200,1202,1202,1202,1202,1204,1204,1204,1204,1207,1207,1207,1207,1207,1207,1207,1207,1207,1207,1207,1204,1204,1204,1204,1204,1207,1207,1207,1207,1207,1209,1209,1209,1211,1211,1211,1214,1214,1214,1214,1216,1219,1219,1219,1219,1219,1221,1219,1219,1219,1219,1219,1221,1221,1221,1221,1221,1233,1233,1236,1238,1238,1241,1241,1241,1241,1241,1243,1243,1243,1243,1243,1241,1241,1241,1238,1238,1236,1236,1231,1231,1231,1231,1226,1226,1226,1226,1226,1226,1226,1226,1228,1231,1231,1236,1238,1238,1243,1243,1246,1251,1251,1253,1256,1256,1258,1258,1258,1258,1258,1261,1261,1258,1258,1258,1258,1258,1256
1073,1071,1071,1071,1069,1069,1069,1069,1069,1069,1069,1069,1069,1069,1069,1071,1071,1071,1073,1075,1075,1075,1075,1076,1078,1078,1078,1080,1080,1080,1080,1080,1082,1082,1082,1082,1080,1080,1080,1080,1080,1080,1086,1086,1086,1086,1086,1086,1086,1086,1084,1084,1084,1084,1084,1086,1086,1086,1086,1086,1086,1088,1088,1088,1088,1088,1088,1088,1088,1088,1088,1088,1088,1088,1088,1088,1086,1086,1086,1086,1086,1086,1086,1086,1086,1086,1086,1088,1088,1088,1090,1092,1092,1094,1095,1095,1097,1097,1099,1101,1101,1103,1103,1103,1103,1103,1103,1103,1101,1099,1099,1097,1097,1095,1094,1094,1092,1090,1090,1090,1090,1090,1088,1088,1088,1092,1094,1094,1095,1095,1097,1099,1099,1103,1105,1105,1107,1109,1109,1111,1111,1111,1115,1115,1115,1117,1117,1117,1117,1117,1117,1117,1117,1117,1115,1115,1115,1115,1115,1115,1115,1115,1113,1113,1113,1113,1113,1111,1111,1111,1111,1111,1111,1111,1111,1111,1111,1113,1113,1113,1113,1113,1115,1115,1117,1117,1117,1119,1119,1119,1121,1121,1121,1123,1123,1125,1125,1125,1125,1125,1123,1123,1123,1123,1123,1121,1121,1121,1119,1119,1119,1119,1119,1117,1117,1117,1117,1117,1117,1117,1117,1117,1117,1117,1117,1117,1117,1117,1117,1117,1117,1117,1119,1119,1119,1119,1121,1121,1121,1121,1121,1123,1123,1130,1132,1132,1132,1132,1132,1134,1134,1134,1136,1136,1136,1138,1138,1138,1138,1140,1142,1142,1142,1144,1144,1144,1144,1146,1146,1146,1148,1148,1148,1148,1148,1151,1151,1151,1151,1153,1153,1153,1153,1153,1153,1151,1151,1151,1148,1148,1148,1146,1146,1144,1144,1144,1142,1142,1140,1140,1142,1140,1140,1140,1138,1138,1138,1138,1138,1138,1140,1142,1142,1146,1146,1148,1151,1151,1155,1157,1157,1159,1161,1161,1161,1159,1159,1159,1159,1157,1157,1155,1155,1155,1153,1153,1151,1151,1151,1148,1148,1146,1146,1153,1151,1151,1151,1151,1151,1151,1151,1151,1151,1151,1153,1153,1155,1155,1157,1159,1159,1161,1164,1164,1164,1164,1166,1166,1166,1166,1166,1166,1166,1166,1166,1166,1166,1164,1164,1164,1164,1161,1161,1161,1161,1161,1161,1161,1161,1161,1161,1164,1164,1164,1164,1164,1166,1168,1168,1168,1168,1168,1168,1168,1168,1170,1170,1170,1170,1170,1170,1170,1170,1170,1170,1170,1170,1170,1170,1170,1170,1170,1170,1170,1170,1170,1170,1170,1172,1172,1172,1172,1172,1172,1175,1175,1175,1175,1175,1175,1175,1177,1184,1184,1184,1184,1184,1184,1184,1184,1184,1184,1184,1184,1184,1184,1184,1184,1184,1184,1186,1186,1186,1184,1184,1184,1184,1184,1186,1186,1186,1186,1188,1188,1188,1188,1188,1190,1190,1193,1195,1195,1197,1197,1197,1200,1200,1202,1204,1204,1207,1207,1207,1209,1209,1209,1209,1209,1207,1207,1207,1207,1204,1204,1204,1202,1200,1200,1200,1200,1197,1197,1197,1195,1195,1195,1193,1193,1193,1193,1193,1193,1193,1193,1193,1195,1195,1195,1195,1195,1197,1197,1197,1197,1197,1197,1197,1197,1197,1197,1197,1197,1197,1204,1204,1204,1204,1207,1207,1207,1207,1207,1209,1209,1209,1211,1211,1211,1214,1214,1214,1214,1216,1219,1219,1219,1219,1219,1221,1219,1219,1219,1219,1219,1221,1221,1221,1221,1221,1223,1223,1223,1226,1226,1228,1228,1228,1231,1231,1231,1233,1233,1236,1233,1231,1231,1231,1231,1231,1228,1228,1226,1226,1226,1223,1221,1221,1221,1221,1221,1221,1221,1221,1223,1226,1226,1228,1233,1233,1236,1236,1241,1243,1243,1246,1248,1248,1253,1253,1253,1253,1253,1251,1251,1251,1251,1248,1248,1248,1248
1069,1067,1067,1067,1067,1069,1069,1069,1069,1069,1069,1069,1069,1069,1069,1071,1071,1071,1073,1075,1075,1075,1075,1076,1078,1078,1078,1080,1080,1080,1080,1080,1082,1082,1082,1082,1080,1080,1080,1080,1080,1080,1080,1080,1080,1080,1078,1078,1078,1078,1078,1078,1078,1078,1078,1078,1080,1080,1080,1080,1080,1080,1080,1082,1082,1082,1082,1082,1082,1082,1082,1082,1082,1082,1082,1082,1082,1082,1080,1080,1080,1080,1080,1080,1080,1082,1082,1082,1084,1084,1086,1088,1088,1090,1092,1092,1095,1095,1097,1097,1097,1099,1099,1099,1101,1101,1103,1103,1101,1099,1099,1097,1097,1095,1094,1094,1092,1090,1090,1090,1090,1090,1088,1088,1088,1092,1094,1094,1095,1095,1097,1099,1099,1103,1105,1105,1107,1109,1109,1111,1111,1111,1111,1111,1113,1113,1113,1113,1113,1111,1111,1111,1111,1111,1111,1111,1111,1111,1111,1109,1109,1109,1109,1109,1107,1107,1107,1105,1105,1105,1105,1105,1105,1105,1105,1103,1103,1105,1105,1105,1105,1105,1107,1107,1107,1107,1107,1109,1109,1111,1111,1111,1113,1113,1113,1115,1115,1115,1115,1115,1115,1115,1115,1115,1123,1121,1121,1121,1119,1119,1119,1119,1119,1117,1117,1117,1117,1117,1117,1117,1117,1117,1117,1117,1117,1117,1117,1117,1117,1117,1117,1117,1119,1119,1119,1119,1121,1121,1121,1121,1121,1123,1123,1123,1123,1123,1125,1125,1127,1127,1127,1127,1130,1130,1132,1130,1130,1132,1132,1134,1134,1134,1136,1136,1136,1138,1138,1138,1138,1138,1140,1140,1140,1142,1142,1142,1144,1144,1144,1144,1144,1144,1144,1144,1144,1144,1144,1144,1142,1142,1142,1140,1140,1140,1138,1138,1138,1138,1138,1136,1136,1136,1136,1136,1136,1138,1138,1138,1138,1138,1140,1142,1142,1146,1146,1148,1151,1151,1155,1157,1157,1159,1161,1161,1161,1159,1159,1159,1159,1157,1157,1155,1155,1155,1153,1153,1151,1151,1151,1148,1148,1146,1146,1146,1146,1144,1144,1144,1144,1144,1144,1144,1144,1146,1148,1148,1151,1151,1153,1153,1153,1157,1159,1159,1161,1161,1161,1161,1161,1161,1161,1161,1161,1161,1159,1159,1159,1157,1157,1157,1157,1155,1155,1155,1153,1153,1153,1153,1153,1153,1153,1155,1155,1157,1157,1157,1159,1161,1161,1161,1161,1161,1164,1164,1164,1170,1170,1170,1170,1170,1170,1170,1170,1170,1170,1170,1170,1170,1170,1170,1170,1170,1170,1170,1170,1170,1170,1170,1172,1172,1172,1172,1172,1172,1175,1175,1175,1175,1175,1175,1175,1177,1177,1177,1177,1177,1177,1177,1177,1177,1177,1177,1177,1177,1177,1177,1177,1177,1179,1179,1179,1179,1179,1177,1177,1177,1177,1177,1179,1179,1179,1179,1181,1181,1184,1184,1184,1186,1186,1188,1188,1188,1190,1190,1193,1195,1195,1195,1197,1197,1200,1200,1200,1202,1202,1202,1202,1200,1200,1200,1197,1197,1197,1195,1195,1195,1200,1200,1200,1200,1197,1197,1197,1195,1195,1195,1193,1193,1193,1193,1193,1193,1193,1193,1193,1195,1195,1195,1195,1195,1197,1197,1197,1197,1197,1197,1197,1197,1197,1197,1197,1197,1195,1195,1195,1195,1195,1197,1197,1197,1197,1197,1197,1197,1200,1202,1202,1202,1202,1204,1207,1207,1207,1209,1209,1209,1209,1209,1209,1209,1209,1209,1209,1211,1211,1211,1211,1211,1214,1214,1214,1216,1219,1219,1219,1219,1219,1221,1221,1221,1223,1223,1226,1226,1223,1223,1223,1223,1223,1221,1221,1221,1221,1221,1221,1221,1221,1221,1221,1221,1221,1221,1221,1223,1226,1226,1228,1233,1233,1236,1236,1241,1243,1243,1246,1248,1248,1253,1253,1253,1253,1253,1251,1251,1251,1251,1248,1248,1248,1248
1069,1067,1067,1067,1065,1065,1065,1065,1065,1065,1065,1065,1065,1065,1065,1065,1067,1067,1067,1067,1069,1069,1069,1071,1071,1071,1073,1075,1075,1075,1075,1075,1075,1075,1075,1075,1075,1075,1075,1075,1075,1073,1073,1073,1073,1073,1073,1071,1071,1071,1071,1073,1073,1073,1073,1073,1073,1073,1075,1075,1075,1075,1075,1076,1076,1076,1076,1082,1082,1082,1082,1082,1082,1082,1082,1082,1082,1082,1080,1080,1080,1080,1080,1080,1080,1082,1082,1082,1084,1084,1086,1088,1088,1090,1092,1092,1095,1095,1097,1097,1097,1099,1099,1099,1101,1101,1099,1099,1097,1095,1095,1094,1094,1092,1090,1090,1088,1086,1086,1084,1084,1084,1084,1086,1086,1086,1088,1088,1090,1090,1094,1095,1095,1097,1101,1101,1103,1105,1105,1107,1107,1107,1107,1107,1109,1109,1109,1109,1109,1109,1109,1109,1109,1109,1107,1107,1107,1105,1105,1105,1105,1105,1103,1103,1101,1101,1101,1101,1105,1105,1105,1105,1105,1105,1105,1103,1103,1105,1105,1105,1105,1105,1107,1107,1107,1107,1107,1109,1109,1111,1111,1111,1113,1113,1113,1115,1115,1115,1115,1115,1115,1115,1115,1115,1115,1113,1113,1113,1113,1113,1111,1111,1111,1111,1111,1111,1111,1111,1111,1111,1111,1111,1111,1111,1111,1111,1111,1111,1111,1111,1113,1113,1113,1113,1113,1113,1113,1113,1115,1115,1115,1117,1117,1117,1119,1119,1119,1119,1119,1121,1121,1121,1123,1123,1123,1123,1123,1125,1125,1125,1127,1127,1127,1127,1127,1130,1130,1130,1138,1138,1140,1140,1140,1142,1142,1142,1144,1144,1144,1144,1144,1144,1144,1144,1144,1144,1144,1144,1142,1142,1142,1140,1140,1140,1138,1138,1138,1138,1138,1136,1136,1136,1136,1136,1136,1136,1134,1134,1134,1134,1134,1138,1138,1140,1140,1142,1146,1146,1148,1153,1153,1155,1157,1157,1157,1157,1155,1155,1155,1153,1153,1151,1151,1151,1148,1148,1146,1146,1146,1144,1144,1142,1140,1140,1140,1140,1140,1140,1140,1138,1138,1140,1140,1140,1144,1144,1146,1146,1148,1151,1151,1151,1155,1155,1155,1155,1157,1161,1161,1161,1161,1161,1161,1161,1159,1159,1159,1157,1157,1157,1157,1155,1155,1155,1153,1153,1153,1153,1153,1153,1153,1155,1155,1157,1157,1157,1159,1161,1161,1161,1161,1161,1164,1164,1164,1164,1164,1164,1164,1164,1164,1164,1164,1164,1164,1164,1164,1164,1164,1161,1161,1161,1161,1164,1164,1164,1164,1164,1164,1164,1164,1166,1166,1166,1168,1168,1168,1168,1168,1170,1170,1170,1170,1170,1170,1170,1170,1170,1170,1170,1170,1170,1170,1170,1170,1170,1170,1170,1170,1170,1170,1170,1170,1170,1170,1170,1172,1172,1179,1179,1179,1179,1181,1181,1184,1184,1184,1186,1186,1188,1188,1188,1190,1190,1193,1195,1195,1195,1197,1197,1200,1200,1200,1202,1202,1202,1202,1200,1200,1200,1197,1197,1197,1195,1195,1193,1193,1193,1190,1190,1190,1188,1188,1188,1188,1188,1188,1188,1186,1186,1186,1186,1186,1188,1186,1186,1186,1188,1188,1188,1188,1188,1188,1188,1188,1188,1188,1188,1188,1188,1186,1186,1186,1186,1186,1186,1186,1186,1186,1186,1186,1188,1188,1188,1190,1193,1193,1195,1195,1197,1200,1200,1200,1200,1200,1202,1202,1202,1209,1209,1209,1209,1209,1211,1211,1211,1211,1211,1214,1214,1214,1216,1219,1219,1219,1219,1219,1221,1221,1221,1223,1223,1226,1226,1223,1223,1223,1223,1223,1221,1221,1221,1221,1221,1219,1216,1216,1216,1216,1216,1216,1219,1216,1216,1221,1221,1221,1226,1226,1231,1231,1233,1236,1236,1238,1241,1241,1243,1243,1246,1246,1246,1243,1243,1243,1243,1243,1241,1241,1241
1067,1065,1065,1063,1063,1063,1062,1062,1062,1062,1062,1062,1062,1062,1062,1062,1063,1063,1063,1063,1063,1065,1065,1065,1067,1067,1067,1069,1069,1069,1069,1075,1075,1075,1075,1075,1075,1075,1075,1075,1075,1073,1073,1073,1073,1073,1073,1071,1071,1071,1071,1073,1073,1073,1073,1073,1073,1073,1075,1075,1075,1075,1075,1076,1076,1076,1076,1076,1076,1076,1076,1076,1076,1076,1076,1076,1075,1075,1075,1075,1075,1075,1075,1075,1075,1075,1075,1076,1078,1078,1080,1082,1082,1086,1088,1088,1092,1092,1094,1095,1095,1097,1097,1097,1099,1097,1097,1097,1095,1094,1094,1092,1092,1088,1086,1086,1084,1082,1082,1080,1080,1080,1080,1080,1080,1082,1084,1084,1086,1086,1088,1095,1095,1097,1101,1101,1103,1105,1105,1107,1107,1107,1107,1107,1109,1109,1109,1109,1109,1109,1109,1109,1109,1109,1107,1107,1107,1105,1105,1105,1105,1105,1103,1103,1101,1101,1101,1101,1099,1099,1099,1099,1099,1099,1099,1099,1097,1097,1097,1097,1097,1097,1099,1099,1099,1099,1099,1101,1101,1101,1103,1103,1103,1103,1103,1105,1105,1105,1105,1105,1105,1105,1105,1105,1105,1105,1105,1105,1105,1105,1105,1105,1105,1105,1105,1103,1103,1103,1103,1103,1103,1103,1105,1105,1105,1105,1105,1105,1105,1105,1113,1113,1113,1113,1113,1113,1113,1113,1115,1115,1115,1117,1117,1117,1119,1119,1119,1119,1119,1121,1121,1121,1123,1123,1123,1123,1123,1125,1125,1125,1127,1127,1127,1127,1127,1130,1130,1130,1130,1130,1132,1134,1134,1134,1134,1136,1136,1136,1138,1138,1138,1138,1138,1138,1138,1138,1138,1138,1136,1136,1136,1136,1136,1134,1134,1134,1132,1132,1132,1132,1132,1132,1132,1132,1130,1130,1130,1127,1127,1127,1130,1132,1132,1134,1134,1138,1140,1140,1144,1146,1146,1151,1153,1153,1153,1153,1151,1151,1151,1151,1153,1151,1151,1151,1148,1148,1146,1146,1146,1144,1144,1142,1140,1140,1140,1140,1140,1140,1140,1138,1138,1140,1140,1140,1144,1144,1146,1146,1148,1151,1151,1151,1155,1155,1155,1155,1157,1157,1157,1157,1157,1155,1155,1155,1155,1155,1153,1151,1151,1151,1151,1148,1148,1148,1146,1146,1146,1146,1146,1146,1146,1148,1148,1151,1153,1153,1153,1153,1153,1155,1155,1155,1157,1157,1157,1159,1159,1159,1159,1159,1159,1159,1157,1157,1157,1157,1157,1157,1157,1157,1157,1157,1155,1155,1155,1157,1157,1157,1157,1159,1159,1166,1166,1166,1168,1168,1168,1168,1168,1170,1170,1170,1170,1170,1170,1170,1170,1170,1170,1170,1170,1170,1170,1170,1170,1170,1170,1170,1170,1170,1170,1170,1170,1170,1170,1170,1172,1172,1172,1172,1172,1175,1175,1175,1175,1175,1177,1179,1179,1181,1181,1181,1184,1184,1186,1188,1188,1188,1188,1188,1190,1190,1190,1193,1193,1190,1190,1190,1190,1190,1188,1188,1188,1186,1186,1186,1186,1186,1184,1184,1184,1181,1181,1181,1181,1181,1181,1181,1181,1181,1181,1181,1181,1181,1181,1181,1181,1181,1181,1181,1188,1188,1188,1188,1188,1188,1188,1188,1188,1188,1186,1186,1186,1186,1186,1186,1186,1186,1186,1186,1186,1188,1188,1188,1190,1193,1193,1195,1195,1197,1200,1200,1200,1200,1200,1202,1202,1202,1204,1204,1204,1204,1204,1204,1204,1204,1204,1204,1204,1207,1207,1209,1209,1209,1209,1209,1211,1211,1211,1211,1214,1214,1216,1216,1216,1216,1216,1216,1216,1216,1219,1216,1214,1214,1214,1211,1211,1209,1209,1209,1209,1211,1211,1211,1214,1214,1214,1214,1219,1221,1221,1223,1226,1226,1228,1231,1231,1233,1233,1236,1246,1246,1243,1243,1243,1243,1243,1241,1241,1241
1067,1065,1065,1063,1063,1063,1062,1062,1062,1062,1062,1062,1062,1062,1062,1062,1063,1063,1063,1063,1063,1065,1065,1065,1067,1067,1067,1069,1069,1069,1069,1069,1069,1069,1069,1069,1067,1067,1067,1067,1067,1067,1067,1067,1065,1065,1065,1065,1065,1065,1065,1065,1065,1065,1065,1065,1067,1067,1067,1067,1067,1069,1069,1069,1071,1071,1071,1071,1071,1071,1071,1071,1071,1071,1069,1069,1069,1069,1069,1067,1067,1067,1067,1069,1069,1069,1069,1071,1073,1073,1075,1076,1076,1086,1088,1088,1092,1092,1094,1095,1095,1097,1097,1097,1099,1097,1097,1097,1095,1094,1094,1092,1092,1088,1086,1086,1084,1082,1082,1080,1080,1080,1080,1080,1080,1082,1084,1084,1086,1086,1088,1092,1092,1094,1095,1095,1099,1101,1101,1103,1103,1103,1105,1105,1105,1105,1105,1105,1105,1103,1103,1103,1103,1103,1103,1103,1101,1101,1101,1099,1099,1099,1099,1099,1097,1097,1097,1095,1094,1094,1094,1094,1092,1092,1092,1092,1092,1092,1092,1092,1092,1092,1092,1092,1090,1090,1090,1092,1092,1092,1092,1092,1094,1103,1103,1105,1105,1105,1105,1105,1105,1105,1105,1105,1105,1105,1105,1105,1105,1105,1105,1105,1105,1105,1105,1103,1103,1103,1103,1103,1103,1103,1105,1105,1105,1105,1105,1105,1105,1105,1107,1107,1107,1107,1107,1109,1109,1109,1109,1109,1111,1111,1111,1111,1111,1111,1113,1113,1113,1115,1115,1115,1115,1115,1117,1117,1117,1117,1117,1117,1119,1119,1119,1119,1121,1121,1121,1121,1123,1123,1123,1125,1125,1125,1125,1127,1130,1130,1130,1130,1130,1130,1130,1132,1132,1132,1132,1132,1130,1130,1130,1130,1130,1130,1134,1134,1132,1132,1132,1132,1132,1132,1132,1132,1130,1130,1130,1127,1127,1127,1130,1132,1132,1134,1134,1138,1140,1140,1144,1146,1146,1151,1153,1153,1153,1153,1151,1151,1151,1148,1148,1146,1146,1144,1142,1142,1142,1140,1140,1138,1138,1136,1136,1136,1136,1136,1134,1134,1134,1134,1134,1136,1136,1136,1138,1138,1142,1142,1144,1144,1144,1148,1151,1151,1151,1151,1153,1153,1153,1151,1151,1151,1151,1151,1148,1148,1146,1146,1146,1144,1144,1142,1142,1142,1140,1140,1140,1140,1140,1140,1140,1142,1142,1151,1153,1153,1153,1153,1153,1155,1155,1155,1157,1157,1157,1159,1159,1159,1159,1159,1159,1159,1157,1157,1157,1157,1157,1157,1157,1157,1157,1157,1155,1155,1155,1157,1157,1157,1157,1159,1159,1159,1159,1159,1161,1161,1161,1161,1161,1161,1161,1161,1161,1161,1161,1161,1161,1161,1161,1164,1164,1164,1164,1164,1164,1164,1164,1164,1164,1164,1164,1164,1164,1164,1164,1164,1164,1164,1164,1166,1166,1166,1168,1168,1170,1170,1170,1170,1170,1172,1175,1175,1177,1177,1177,1179,1179,1179,1179,1179,1181,1181,1181,1193,1193,1190,1190,1190,1190,1190,1188,1188,1188,1186,1186,1186,1186,1186,1184,1184,1184,1181,1181,1181,1181,1181,1181,1181,1181,1181,1181,1181,1181,1181,1181,1181,1181,1181,1181,1181,1181,1181,1181,1181,1181,1181,1181,1179,1179,1179,1179,1179,1177,1177,1177,1177,1177,1177,1177,1177,1177,1179,1179,1179,1181,1184,1184,1186,1186,1188,1190,1190,1190,1195,1195,1195,1197,1197,1197,1197,1197,1197,1197,1197,1200,1200,1200,1200,1200,1200,1200,1202,1202,1202,1202,1202,1202,1202,1202,1202,1204,1204,1207,1207,1216,1216,1216,1216,1216,1216,1219,1216,1214,1214,1214,1211,1211,1209,1209,1209,1209,1211,1211,1211,1214,1214,1214,1214,1219,1221,1221,1223,1226,1226,1228,1231,1231,1233,1233,1236,1236,1236,1236,1236,1233,1233,1233,1233,1233,1231
1065,1063,1063,1062,1060,1060,1060,1060,1060,1060,1060,1060,1060,1060,1060,1060,1060,1060,1060,1060,1060,1062,1062,1062,1062,1062,1062,1063,1063,1063,1063,1063,1063,1063,1063,1062,1062,1062,1062,1062,1062,1060,1060,1060,1060,1060,1060,1058,1058,1058,1058,1060,1060,1060,1060,1060,1067,1067,1067,1067,1067,1069,1069,1069,1071,1071,1071,1071,1071,1071,1071,1071,1071,1071,1069,1069,1069,1069,1069,1067,1067,1067,1067,1069,1069,1069,1069,1071,1073,1073,1075,1076,1076,1080,1082,1082,1086,1086,1088,1092,1092,1094,1094,1094,1095,1095,1094,1094,1094,1092,1092,1090,1090,1086,1084,1084,1082,1080,1080,1078,1078,1076,1076,1078,1078,1078,1080,1080,1082,1082,1084,1086,1086,1090,1092,1092,1095,1097,1097,1099,1099,1099,1099,1099,1101,1101,1099,1099,1099,1099,1099,1097,1097,1097,1097,1103,1101,1101,1101,1099,1099,1099,1099,1099,1097,1097,1097,1095,1094,1094,1094,1094,1092,1092,1092,1092,1092,1092,1092,1092,1092,1092,1092,1092,1090,1090,1090,1092,1092,1092,1092,1092,1094,1094,1094,1095,1095,1095,1095,1095,1095,1095,1095,1095,1095,1095,1097,1097,1097,1097,1097,1097,1097,1097,1097,1097,1097,1097,1097,1097,1097,1097,1097,1097,1099,1099,1099,1099,1099,1101,1101,1101,1101,1103,1103,1103,1103,1103,1105,1105,1105,1105,1105,1105,1105,1105,1107,1107,1107,1107,1107,1109,1109,1109,1109,1109,1117,1117,1117,1117,1119,1119,1119,1119,1121,1121,1121,1121,1123,1123,1123,1125,1125,1125,1125,1127,1130,1130,1130,1130,1130,1130,1130,1132,1132,1132,1132,1132,1130,1130,1130,1130,1130,1130,1130,1130,1127,1127,1127,1127,1127,1127,1127,1127,1125,1125,1123,1123,1123,1123,1123,1125,1125,1127,1127,1132,1134,1134,1138,1140,1140,1146,1148,1148,1151,1148,1148,1148,1146,1144,1144,1142,1142,1140,1138,1138,1136,1136,1136,1134,1134,1132,1130,1130,1130,1130,1130,1130,1130,1130,1130,1130,1130,1132,1134,1134,1142,1142,1144,1144,1144,1148,1151,1151,1151,1151,1153,1153,1153,1151,1151,1151,1151,1151,1148,1148,1146,1146,1146,1144,1144,1142,1142,1142,1140,1140,1140,1140,1140,1140,1140,1142,1142,1142,1144,1144,1146,1146,1148,1148,1148,1151,1151,1151,1153,1153,1153,1153,1153,1153,1153,1153,1153,1153,1153,1153,1151,1151,1151,1148,1148,1148,1148,1151,1151,1151,1151,1151,1151,1151,1151,1153,1153,1153,1153,1153,1155,1155,1155,1155,1155,1155,1155,1155,1155,1155,1155,1155,1155,1155,1155,1155,1155,1155,1155,1164,1164,1164,1164,1164,1164,1164,1164,1164,1164,1164,1164,1164,1164,1166,1166,1166,1168,1168,1170,1170,1170,1170,1170,1172,1175,1175,1177,1177,1177,1179,1179,1179,1179,1179,1181,1181,1181,1181,1181,1181,1181,1179,1179,1179,1179,1179,1177,1177,1177,1177,1177,1175,1175,1175,1175,1175,1175,1175,1175,1175,1175,1175,1175,1175,1175,1175,1175,1175,1175,1175,1175,1175,1175,1175,1175,1175,1175,1175,1175,1172,1172,1172,1172,1172,1170,1170,1170,1168,1168,1168,1170,1170,1168,1168,1168,1170,1170,1170,1175,1184,1184,1186,1186,1188,1190,1190,1190,1195,1195,1195,1197,1197,1197,1197,1197,1197,1197,1197,1200,1200,1200,1200,1200,1200,1200,1202,1202,1202,1202,1202,1202,1202,1202,1202,1204,1204,1207,1207,1207,1209,1209,1209,1209,1209,1209,1209,1209,1209,1207,1204,1204,1204,1204,1202,1202,1202,1202,1202,1204,1204,1207,1207,1209,1211,1211,1214,1216,1216,1219,1221,1221,1223,1223,1226,1228,1226,1226,1228,1226,1226,1226,1226,1226,1223
1063,1062,1062,1060,1060,1060,1058,1058,1058,1056,1056,1056,1056,1056,1056,1056,1056,1056,1060,1060,1060,1062,1062,1062,1062,1062,1062,1063,1063,1063,1063,1063,1063,1063,1063,1062,1062,1062,1062,1062,1062,1060,1060,1060,1060,1060,1060,1058,1058,1058,1058,1060,1060,1060,1060,1060,1060,1060,1062,1062,1062,1063,1063,1063,1063,1063,1065,1065,1065,1065,1065,1065,1065,1065,1063,1063,1063,1063,1062,1062,1062,1062,1062,1062,1062,1062,1062,1063,1065,1065,1069,1073,1073,1075,1078,1078,1082,1082,1084,1088,1088,1090,1090,1090,1092,1092,1092,1092,1090,1088,1088,1086,1086,1082,1080,1080,1078,1078,1080,1078,1078,1076,1076,1078,1078,1078,1080,1080,1082,1082,1084,1086,1086,1090,1092,1092,1095,1097,1097,1099,1099,1099,1099,1099,1101,1101,1099,1099,1099,1099,1099,1097,1097,1097,1097,1097,1097,1095,1095,1095,1094,1094,1094,1094,1092,1090,1090,1090,1088,1088,1088,1088,1088,1086,1086,1086,1086,1084,1084,1084,1084,1084,1084,1082,1082,1084,1084,1084,1084,1084,1084,1084,1084,1086,1086,1086,1086,1088,1088,1088,1088,1088,1088,1088,1088,1090,1090,1090,1090,1090,1090,1090,1090,1092,1092,1092,1092,1092,1092,1097,1097,1097,1097,1097,1099,1099,1099,1099,1099,1101,1101,1101,1101,1103,1103,1103,1103,1103,1105,1105,1105,1105,1105,1105,1105,1105,1107,1107,1107,1107,1107,1109,1109,1109,1109,1109,1109,1109,1109,1111,1111,1111,1111,1111,1113,1115,1115,1115,1115,1115,1117,1117,1117,1119,1119,1119,1121,1121,1121,1123,1123,1123,1123,1125,1125,1123,1123,1123,1123,1123,1123,1123,1123,1123,1123,1123,1121,1121,1121,1121,1121,1121,1121,1121,1119,1119,1117,1115,1115,1115,1117,1117,1117,1121,1121,1125,1127,1127,1138,1140,1140,1146,1148,1148,1151,1148,1148,1148,1146,1144,1144,1142,1142,1140,1138,1138,1136,1136,1136,1134,1134,1132,1130,1130,1130,1130,1130,1130,1130,1130,1130,1130,1130,1132,1134,1134,1138,1138,1138,1142,1142,1144,1146,1146,1146,1146,1148,1148,1148,1146,1146,1146,1146,1144,1142,1142,1142,1140,1140,1138,1138,1136,1136,1136,1134,1134,1134,1134,1134,1134,1134,1136,1136,1136,1138,1138,1140,1140,1140,1142,1142,1142,1144,1144,1144,1146,1146,1146,1146,1146,1146,1146,1144,1144,1144,1144,1144,1144,1151,1148,1148,1148,1148,1151,1151,1151,1151,1151,1151,1151,1151,1153,1153,1153,1153,1153,1155,1155,1155,1155,1155,1155,1155,1155,1155,1155,1155,1155,1155,1155,1155,1155,1155,1155,1155,1155,1155,1155,1155,1155,1155,1157,1157,1157,1157,1157,1157,1157,1157,1159,1159,1159,1161,1161,1161,1161,1164,1164,1164,1166,1168,1168,1168,1168,1170,1170,1170,1170,1170,1170,1170,1170,1170,1170,1170,1170,1170,1170,1170,1168,1168,1168,1168,1168,1168,1168,1168,1168,1168,1168,1166,1166,1168,1168,1168,1168,1168,1168,1168,1175,1175,1175,1175,1175,1175,1175,1175,1175,1175,1175,1175,1175,1175,1175,1175,1172,1172,1172,1172,1172,1170,1170,1170,1168,1168,1168,1170,1170,1168,1168,1168,1170,1170,1170,1175,1177,1177,1179,1179,1181,1184,1184,1186,1186,1186,1188,1188,1190,1190,1190,1193,1193,1193,1193,1193,1193,1195,1195,1195,1195,1195,1195,1195,1195,1195,1195,1195,1195,1195,1195,1197,1197,1200,1200,1200,1200,1200,1202,1204,1204,1204,1204,1202,1202,1200,1197,1197,1197,1197,1197,1197,1197,1195,1195,1197,1197,1200,1200,1209,1211,1211,1214,1216,1216,1219,1221,1221,1223,1223,1226,1228,1226,1226,1228,1226,1226,1226,1226,1226,1223
1063,1062,1062,1060,1060,1060,1058,1058,1058,1056,1056,1056,1056,1056,1056,1056,1056,1056,1056,1056,1056,1058,1058,1058,1058,1058,1058,1058,1058,1058,1058,1058,1058,1058,1058,1056,1056,1056,1054,1054,1054,1054,1054,1053,1053,1053,1053,1053,1053,1053,1053,1053,1053,1053,1053,1054,1054,1054,1054,1056,1056,1058,1058,1058,1058,1058,1060,1060,1060,1060,1060,1060,1060,1060,1058,1058,1056,1056,1056,1056,1062,1062,1062,1062,1062,1062,1062,1063,1065,1065,1069,1073,1073,1075,1078,1078,1082,1082,1084,1088,1088,1090,1090,1090,1092,1092,1092,1092,1090,1088,1088,1086,1086,1082,1080,1080,1078,1076,1076,1075,1075,1075,1075,1075,1075,1075,1076,1076,1076,1076,1080,1082,1082,1084,1088,1088,1090,1092,1092,1094,1094,1095,1095,1095,1097,1097,1095,1095,1095,1095,1095,1094,1092,1092,1092,1092,1092,1090,1090,1090,1090,1090,1088,1088,1086,1086,1086,1084,1084,1084,1082,1082,1082,1080,1080,1080,1080,1080,1078,1078,1078,1084,1084,1082,1082,1084,1084,1084,1084,1084,1084,1084,1084,1086,1086,1086,1086,1088,1088,1088,1088,1088,1088,1088,1088,1090,1090,1090,1090,1090,1090,1090,1090,1092,1092,1092,1092,1092,1092,1094,1094,1094,1094,1094,1094,1094,1094,1095,1095,1095,1095,1095,1097,1097,1097,1097,1097,1097,1099,1099,1099,1099,1099,1099,1099,1099,1099,1099,1101,1101,1101,1101,1101,1101,1101,1101,1101,1103,1103,1103,1105,1105,1105,1105,1105,1107,1107,1107,1109,1109,1111,1111,1111,1113,1113,1113,1113,1113,1115,1115,1115,1123,1123,1125,1125,1123,1123,1123,1123,1123,1123,1123,1123,1123,1123,1123,1121,1121,1121,1121,1121,1121,1121,1121,1119,1119,1117,1115,1115,1115,1117,1117,1117,1121,1121,1125,1127,1127,1132,1136,1136,1140,1144,1144,1144,1144,1142,1142,1142,1140,1140,1138,1138,1134,1134,1134,1132,1132,1130,1130,1130,1127,1125,1125,1125,1125,1125,1125,1125,1125,1125,1125,1125,1127,1130,1130,1132,1132,1134,1136,1136,1138,1138,1138,1140,1140,1140,1140,1138,1138,1138,1138,1138,1136,1136,1136,1134,1132,1132,1132,1132,1132,1136,1136,1134,1134,1134,1134,1134,1134,1134,1136,1136,1136,1138,1138,1140,1140,1140,1142,1142,1142,1144,1144,1144,1146,1146,1146,1146,1146,1146,1146,1144,1144,1144,1144,1144,1142,1142,1142,1142,1142,1142,1142,1142,1142,1142,1142,1142,1144,1144,1144,1144,1144,1144,1144,1146,1146,1146,1146,1146,1146,1146,1146,1146,1146,1146,1146,1146,1146,1146,1146,1146,1146,1146,1146,1146,1146,1148,1148,1148,1148,1148,1148,1148,1148,1148,1148,1151,1151,1151,1151,1151,1153,1153,1153,1153,1155,1155,1157,1168,1168,1168,1168,1170,1170,1170,1170,1170,1170,1170,1170,1170,1170,1170,1170,1170,1170,1170,1168,1168,1168,1168,1168,1168,1168,1168,1168,1168,1168,1166,1166,1168,1168,1168,1168,1168,1168,1168,1168,1168,1168,1168,1168,1168,1168,1168,1168,1168,1168,1168,1168,1168,1168,1168,1166,1166,1166,1166,1164,1164,1164,1161,1161,1161,1161,1161,1161,1161,1161,1161,1161,1164,1164,1166,1170,1170,1172,1172,1175,1177,1177,1179,1181,1181,1184,1184,1186,1186,1186,1186,1188,1188,1188,1188,1188,1188,1188,1188,1188,1188,1195,1195,1195,1195,1195,1195,1195,1195,1195,1197,1197,1200,1200,1200,1200,1200,1202,1204,1204,1204,1204,1202,1202,1200,1197,1197,1197,1197,1197,1197,1197,1195,1195,1197,1197,1200,1200,1200,1202,1202,1204,1207,1207,1209,1211,1211,1214,1214,1216,1216,1216,1219,1219,1216,1216,1216,1216,1216,1216
1060,1060,1060,1058,1056,1056,1056,1054,1054,1054,1054,1053,1053,1053,1053,1053,1053,1053,1053,1053,1053,1053,1053,1053,1053,1053,1053,1053,1053,1053,1053,1053,1053,1051,1051,1051,1049,1049,1049,1049,1049,1047,1047,1047,1053,1053,1053,1053,1053,1053,1053,1053,1053,1053,1053,1054,1054,1054,1054,1056,1056,1058,1058,1058,1058,1058,1060,1060,1060,1060,1060,1060,1060,1060,1058,1058,1056,1056,1056,1056,1056,1054,1054,1056,1056,1056,1056,1058,1060,1060,1063,1065,1065,1071,1073,1073,1076,1076,1080,1082,1082,1084,1086,1086,1088,1088,1088,1088,1086,1084,1084,1082,1082,1080,1076,1076,1075,1073,1073,1071,1071,1071,1071,1071,1071,1071,1071,1071,1075,1075,1076,1076,1076,1080,1082,1082,1086,1086,1086,1090,1090,1092,1092,1092,1097,1097,1095,1095,1095,1095,1095,1094,1092,1092,1092,1092,1092,1090,1090,1090,1090,1090,1088,1088,1086,1086,1086,1084,1084,1084,1082,1082,1082,1080,1080,1080,1080,1080,1078,1078,1078,1076,1076,1076,1076,1076,1076,1076,1076,1076,1076,1076,1076,1078,1078,1078,1078,1078,1080,1080,1080,1080,1080,1080,1080,1082,1082,1082,1082,1084,1084,1084,1084,1086,1086,1086,1088,1088,1088,1088,1088,1088,1088,1088,1090,1090,1090,1090,1090,1092,1092,1092,1092,1092,1092,1092,1094,1094,1094,1094,1094,1094,1094,1099,1099,1099,1099,1099,1101,1101,1101,1101,1101,1101,1101,1101,1101,1103,1103,1103,1105,1105,1105,1105,1105,1107,1107,1107,1109,1109,1111,1111,1111,1113,1113,1113,1113,1113,1115,1115,1115,1117,1117,1117,1117,1117,1117,1117,1117,1117,1117,1117,1117,1117,1117,1117,1115,1115,1115,1115,1115,1115,1115,1115,1113,1113,1111,1109,1109,1109,1109,1111,1111,1113,1113,1117,1121,1121,1125,1130,1130,1134,1138,1138,1140,1140,1138,1138,1136,1134,1134,1134,1134,1132,1130,1130,1127,1127,1125,1125,1125,1123,1123,1125,1125,1125,1125,1125,1125,1125,1125,1125,1125,1127,1130,1130,1132,1132,1134,1136,1136,1138,1138,1138,1140,1140,1140,1140,1138,1138,1138,1138,1138,1136,1136,1136,1134,1132,1132,1132,1132,1130,1130,1130,1127,1127,1127,1127,1127,1127,1127,1127,1127,1130,1132,1132,1134,1134,1134,1134,1134,1136,1136,1136,1138,1138,1138,1138,1138,1138,1138,1138,1138,1138,1136,1136,1136,1134,1134,1134,1134,1134,1134,1134,1134,1134,1134,1134,1134,1136,1136,1136,1136,1136,1136,1136,1138,1138,1138,1138,1138,1138,1138,1138,1146,1146,1146,1146,1146,1146,1146,1146,1146,1146,1146,1146,1146,1146,1148,1148,1148,1148,1148,1148,1148,1148,1148,1148,1151,1151,1151,1151,1151,1153,1153,1153,1153,1155,1155,1157,1157,1157,1157,1157,1159,1159,1159,1159,1159,1159,1159,1159,1159,1159,1159,1159,1159,1159,1159,1157,1157,1157,1157,1157,1157,1157,1157,1157,1157,1157,1157,1159,1159,1159,1159,1159,1159,1159,1159,1161,1161,1161,1161,1161,1161,1161,1161,1161,1161,1161,1161,1161,1159,1159,1159,1159,1159,1157,1157,1157,1155,1155,1155,1161,1161,1161,1161,1161,1161,1161,1161,1161,1164,1164,1166,1170,1170,1172,1172,1175,1177,1177,1179,1181,1181,1184,1184,1186,1186,1186,1186,1188,1188,1188,1188,1188,1188,1188,1188,1188,1188,1188,1190,1190,1190,1190,1190,1190,1190,1190,1193,1193,1195,1195,1197,1197,1197,1197,1200,1197,1197,1197,1197,1197,1195,1193,1193,1190,1190,1190,1190,1190,1188,1188,1190,1190,1190,1190,1193,1193,1193,1195,1197,1197,1200,1202,1202,1204,1204,1207,1207,1207,1209,1209,1207,1207,1207,1207,1207,1207
1058,1056,1056,1056,1054,1054,1054,1054,1054,1054,1054,1053,1053,1053,1053,1053,1053,1053,1053,1053,1053,1053,1053,1053,1053,1053,1053,1053,1053,1053,1053,1053,1053,1051,1051,1051,1049,1049,1049,1049,1049,1047,1047,1047,1047,1047,1045,1045,1045,1045,1047,1047,1047,1047,1047,1047,1049,1049,1049,1049,1051,1053,1053,1053,1053,1053,1054,1054,1054,1054,1054,1054,1054,1054,1053,1053,1053,1053,1051,1051,1051,1051,1051,1051,1051,1051,1051,1053,1054,1054,1058,1062,1062,1065,1065,1067,1071,1071,1075,1076,1076,1078,1080,1080,1082,1082,1088,1088,1086,1084,1084,1082,1082,1080,1076,1076,1075,1073,1073,1071,1071,1071,1071,1071,1071,1071,1071,1071,1075,1075,1076,1076,1076,1080,1082,1082,1086,1086,1086,1090,1090,1092,1092,1092,1092,1092,1092,1092,1090,1090,1090,1088,1086,1086,1086,1086,1086,1084,1084,1084,1084,1082,1082,1082,1080,1080,1080,1078,1078,1078,1078,1078,1076,1076,1076,1075,1075,1075,1075,1075,1073,1073,1073,1073,1073,1071,1071,1071,1071,1071,1071,1071,1071,1071,1073,1073,1073,1073,1075,1075,1075,1075,1075,1075,1075,1076,1082,1082,1082,1084,1084,1084,1084,1086,1086,1086,1088,1088,1088,1088,1088,1088,1088,1088,1090,1090,1090,1090,1090,1092,1092,1092,1092,1092,1092,1092,1094,1094,1094,1094,1094,1094,1094,1094,1094,1094,1094,1094,1094,1094,1094,1094,1094,1094,1095,1095,1095,1095,1095,1097,1097,1097,1099,1099,1099,1101,1101,1101,1101,1101,1103,1103,1103,1105,1105,1107,1107,1107,1109,1109,1109,1109,1109,1111,1111,1111,1111,1111,1111,1111,1111,1111,1111,1111,1109,1109,1109,1109,1109,1109,1109,1109,1107,1107,1105,1105,1105,1109,1109,1109,1109,1111,1111,1113,1113,1117,1121,1121,1125,1130,1130,1134,1138,1138,1140,1140,1138,1138,1136,1134,1134,1134,1134,1132,1130,1130,1127,1127,1125,1125,1125,1123,1121,1121,1121,1121,1121,1121,1121,1121,1121,1121,1121,1123,1125,1125,1127,1127,1127,1130,1130,1132,1132,1132,1132,1132,1132,1132,1132,1130,1130,1130,1130,1127,1127,1127,1127,1125,1125,1125,1125,1123,1123,1123,1123,1123,1123,1123,1123,1123,1123,1123,1123,1123,1125,1125,1125,1125,1127,1127,1127,1127,1130,1130,1130,1130,1138,1138,1138,1138,1138,1138,1138,1138,1136,1136,1136,1134,1134,1134,1134,1134,1134,1134,1134,1134,1134,1134,1134,1136,1136,1136,1136,1136,1136,1136,1138,1138,1138,1138,1138,1138,1138,1138,1138,1138,1138,1138,1138,1138,1138,1138,1138,1138,1138,1138,1138,1138,1138,1138,1140,1140,1140,1140,1140,1140,1140,1140,1142,1142,1142,1142,1142,1144,1144,1144,1144,1146,1146,1146,1148,1148,1148,1148,1148,1148,1148,1148,1148,1148,1148,1148,1148,1148,1148,1148,1148,1148,1148,1146,1146,1146,1146,1146,1146,1146,1157,1157,1157,1157,1157,1159,1159,1159,1159,1159,1159,1159,1159,1161,1161,1161,1161,1161,1161,1161,1161,1161,1161,1161,1161,1161,1159,1159,1159,1159,1159,1157,1157,1157,1155,1155,1155,1155,1155,1153,1153,1153,1153,1153,1153,1155,1157,1157,1159,1161,1161,1166,1166,1168,1170,1170,1172,1177,1177,1179,1179,1179,1179,1179,1181,1181,1181,1181,1184,1184,1184,1184,1184,1184,1184,1186,1186,1186,1186,1184,1184,1186,1186,1186,1186,1186,1188,1188,1190,1190,1190,1190,1193,1193,1193,1193,1190,1190,1188,1188,1193,1190,1190,1190,1190,1190,1188,1188,1190,1190,1190,1190,1193,1193,1193,1195,1197,1197,1200,1202,1202,1204,1204,1207,1207,1207,1209,1209,1207,1207,1207,1207,1207,1207
1058,1056,1056,1056,1054,1054,1054,1053,1053,1051,1051,1051,1049,1049,1049,1049,1049,1047,1047,1047,1047,1047,1047,1047,1047,1047,1047,1047,1047,1047,1045,1045,1045,1045,1045,1044,1044,1044,1042,1042,1042,1042,1042,1040,1040,1040,1040,1040,1040,1040,1040,1040,1040,1040,1040,1042,1042,1042,1044,1044,1044,1045,1045,1047,1047,1047,1047,1049,1049,1054,1054,1054,1054,1054,1053,1053,1053,1053,1051,1051,1051,1051,1051,1051,1051,1051,1051,1053,1054,1054,1058,1062,1062,1065,1065,1067,1071,1071,1075,1076,1076,1078,1080,1080,1082,1082,1082,1082,1080,1080,1080,1076,1076,1075,1073,1073,1071,1069,1069,1069,1069,1067,1067,1067,1067,1067,1067,1067,1069,1069,1071,1073,1073,1075,1076,1076,1080,1080,1080,1082,1082,1084,1086,1086,1086,1086,1084,1084,1084,1082,1082,1082,1082,1080,1080,1080,1078,1078,1078,1076,1076,1076,1075,1075,1075,1075,1075,1075,1078,1078,1078,1078,1076,1076,1076,1075,1075,1075,1075,1075,1073,1073,1073,1073,1073,1071,1071,1071,1071,1071,1071,1071,1071,1071,1073,1073,1073,1073,1075,1075,1075,1075,1075,1075,1075,1076,1076,1076,1078,1078,1078,1078,1078,1080,1082,1082,1082,1082,1082,1082,1082,1084,1084,1084,1084,1084,1084,1086,1086,1086,1086,1086,1086,1086,1086,1086,1086,1086,1088,1088,1088,1088,1088,1088,1088,1088,1088,1088,1088,1088,1088,1088,1088,1088,1090,1090,1090,1090,1090,1092,1092,1092,1092,1092,1094,1094,1094,1095,1101,1101,1103,1103,1103,1105,1105,1107,1107,1107,1109,1109,1109,1109,1109,1111,1111,1111,1111,1111,1111,1111,1111,1111,1111,1111,1109,1109,1109,1109,1109,1109,1109,1109,1107,1107,1105,1105,1103,1101,1101,1101,1101,1103,1103,1107,1107,1111,1113,1113,1119,1123,1123,1127,1132,1132,1134,1134,1134,1134,1132,1130,1130,1127,1127,1125,1123,1123,1123,1123,1121,1119,1119,1119,1119,1119,1117,1117,1117,1117,1117,1117,1117,1117,1117,1119,1121,1121,1121,1121,1121,1123,1123,1123,1123,1123,1123,1121,1121,1121,1121,1130,1130,1130,1130,1127,1127,1127,1127,1125,1125,1125,1125,1123,1123,1123,1123,1123,1123,1123,1123,1123,1123,1123,1123,1123,1125,1125,1125,1125,1127,1127,1127,1127,1130,1130,1130,1130,1130,1130,1130,1130,1130,1130,1130,1130,1130,1130,1127,1127,1127,1125,1125,1125,1125,1125,1125,1125,1125,1125,1127,1127,1127,1127,1127,1127,1130,1130,1130,1130,1130,1130,1130,1130,1130,1130,1130,1130,1130,1130,1130,1130,1130,1130,1130,1130,1130,1130,1130,1130,1130,1130,1132,1132,1132,1132,1132,1132,1132,1132,1142,1142,1142,1142,1142,1144,1144,1144,1144,1146,1146,1146,1148,1148,1148,1148,1148,1148,1148,1148,1148,1148,1148,1148,1148,1148,1148,1148,1148,1148,1148,1146,1146,1146,1146,1146,1146,1146,1148,1148,1148,1148,1148,1151,1151,1151,1151,1151,1153,1153,1153,1153,1155,1155,1155,1155,1155,1155,1155,1155,1155,1155,1155,1153,1153,1153,1153,1151,1151,1151,1151,1148,1148,1148,1146,1146,1146,1146,1146,1146,1146,1146,1146,1148,1151,1151,1155,1157,1157,1159,1159,1161,1166,1166,1168,1170,1170,1172,1172,1175,1179,1179,1181,1181,1181,1181,1184,1184,1184,1184,1184,1184,1184,1186,1186,1186,1186,1184,1184,1186,1186,1186,1186,1186,1188,1188,1190,1190,1190,1190,1193,1193,1193,1193,1190,1190,1188,1186,1186,1184,1184,1184,1184,1184,1181,1181,1184,1184,1184,1184,1184,1186,1186,1186,1188,1188,1190,1190,1193,1195,1195,1195,1197,1197,1197,1197,1197,1197,1197,1197,1197,1197
1056,1054,1054,1053,1051,1051,1051,1051,1051,1049,1049,1047,1047,1047,1045,1045,1045,1044,1044,1044,1044,1044,1044,1044,1044,1044,1044,1044,1044,1044,1044,1045,1045,1045,1045,1044,1044,1044,1042,1042,1042,1042,1042,1040,1040,1040,1040,1040,1040,1040,1040,1040,1040,1040,1040,1042,1042,1042,1044,1044,1044,1045,1045,1047,1047,1047,1047,1049,1049,1049,1049,1049,1049,1049,1047,1047,1047,1047,1045,1045,1045,1045,1045,1045,1045,1047,1047,1047,1049,1049,1053,1056,1056,1060,1060,1062,1065,1065,1069,1071,1071,1073,1075,1075,1075,1075,1076,1076,1075,1075,1075,1073,1073,1071,1067,1067,1067,1065,1065,1063,1063,1063,1063,1063,1063,1063,1063,1063,1065,1065,1067,1073,1073,1075,1076,1076,1080,1080,1080,1082,1082,1084,1086,1086,1086,1086,1084,1084,1084,1082,1082,1082,1082,1080,1080,1080,1078,1078,1078,1076,1076,1076,1075,1075,1075,1075,1075,1073,1073,1073,1073,1073,1071,1071,1071,1069,1069,1069,1069,1069,1067,1067,1067,1067,1067,1065,1065,1065,1065,1065,1065,1065,1065,1065,1067,1067,1067,1067,1069,1069,1069,1069,1069,1071,1071,1071,1071,1071,1073,1073,1073,1073,1073,1075,1076,1076,1076,1076,1076,1078,1078,1078,1078,1078,1078,1078,1078,1080,1080,1080,1080,1080,1086,1086,1086,1086,1086,1086,1088,1088,1088,1088,1088,1088,1088,1088,1088,1088,1088,1088,1088,1088,1088,1088,1090,1090,1090,1090,1090,1092,1092,1092,1092,1092,1094,1094,1094,1095,1095,1095,1095,1095,1097,1097,1097,1099,1099,1099,1101,1101,1101,1103,1103,1103,1103,1103,1103,1103,1103,1103,1103,1103,1103,1103,1103,1103,1101,1101,1101,1101,1101,1101,1101,1099,1099,1099,1097,1095,1095,1094,1094,1094,1097,1099,1099,1103,1107,1107,1111,1115,1115,1121,1125,1125,1127,1127,1127,1127,1125,1123,1123,1123,1127,1125,1123,1123,1123,1123,1121,1119,1119,1119,1119,1119,1117,1117,1117,1117,1117,1117,1117,1117,1117,1119,1121,1121,1121,1121,1121,1123,1123,1123,1123,1123,1123,1121,1121,1121,1121,1121,1121,1121,1121,1119,1119,1119,1119,1117,1117,1117,1119,1117,1117,1117,1117,1117,1117,1117,1117,1117,1117,1117,1117,1117,1119,1119,1119,1119,1119,1121,1121,1121,1121,1121,1121,1121,1121,1121,1121,1121,1121,1121,1121,1121,1121,1121,1119,1119,1119,1119,1119,1119,1119,1119,1119,1119,1119,1119,1119,1119,1119,1127,1127,1127,1130,1130,1130,1130,1130,1130,1130,1130,1130,1130,1130,1130,1130,1130,1130,1130,1130,1130,1130,1130,1130,1130,1130,1130,1130,1130,1132,1132,1132,1132,1132,1132,1132,1132,1134,1134,1134,1134,1134,1136,1136,1136,1138,1138,1138,1138,1138,1140,1140,1140,1140,1140,1140,1140,1140,1140,1140,1140,1140,1140,1140,1140,1138,1138,1138,1138,1138,1138,1138,1138,1138,1138,1138,1138,1138,1140,1140,1140,1142,1142,1144,1144,1144,1144,1144,1146,1146,1146,1148,1148,1148,1148,1148,1148,1148,1146,1146,1146,1153,1153,1153,1151,1151,1151,1151,1148,1148,1148,1146,1146,1146,1146,1146,1146,1146,1146,1146,1148,1151,1151,1155,1157,1157,1159,1159,1161,1166,1166,1168,1170,1170,1172,1172,1175,1175,1175,1175,1177,1177,1177,1177,1177,1177,1177,1177,1177,1177,1179,1179,1179,1179,1179,1179,1181,1181,1181,1184,1184,1184,1184,1188,1188,1186,1186,1188,1186,1186,1186,1184,1184,1181,1179,1179,1177,1177,1177,1177,1177,1175,1175,1175,1175,1175,1175,1177,1177,1177,1177,1177,1177,1179,1179,1181,1184,1184,1184,1186,1186,1197,1197,1197,1197,1197,1197,1197,1197
1056,1054,1054,1053,1051,1051,1051,1051,1051,1049,1049,1047,1047,1047,1045,1045,1045,1044,1044,1044,1044,1044,1044,1044,1044,1044,1044,1044,1044,1044,1042,1042,1042,1040,1040,1040,1038,1038,1037,1037,1037,1035,1035,1035,1035,1035,1033,1033,1033,1033,1035,1035,1035,1035,1035,1037,1037,1037,1037,1037,1038,1040,1040,1042,1042,1042,1044,1044,1044,1044,1044,1045,1045,1045,1044,1044,1044,1044,1042,1042,1042,1042,1042,1042,1042,1042,1042,1044,1045,1045,1047,1051,1051,1054,1054,1062,1065,1065,1069,1071,1071,1073,1075,1075,1075,1075,1076,1076,1075,1075,1075,1073,1073,1071,1067,1067,1067,1065,1065,1063,1063,1063,1063,1063,1063,1063,1063,1063,1065,1065,1067,1067,1067,1069,1073,1073,1073,1073,1075,1076,1076,1078,1078,1078,1078,1078,1078,1078,1078,1076,1076,1075,1075,1075,1073,1073,1073,1071,1071,1071,1071,1071,1069,1069,1069,1069,1069,1069,1069,1067,1067,1067,1065,1065,1065,1065,1065,1065,1065,1065,1063,1063,1063,1062,1062,1062,1060,1060,1060,1060,1060,1060,1060,1060,1067,1067,1067,1067,1069,1069,1069,1069,1069,1071,1071,1071,1071,1071,1073,1073,1073,1073,1073,1075,1076,1076,1076,1076,1076,1078,1078,1078,1078,1078,1078,1078,1078,1080,1080,1080,1080,1080,1080,1082,1080,1080,1080,1080,1080,1080,1080,1080,1080,1080,1080,1080,1080,1080,1080,1080,1080,1082,1082,1082,1082,1082,1084,1084,1084,1084,1086,1086,1086,1086,1088,1088,1088,1088,1088,1088,1090,1090,1090,1092,1092,1092,1094,1094,1094,1094,1095,1095,1095,1097,1097,1097,1097,1097,1097,1097,1097,1097,1097,1097,1103,1103,1101,1101,1101,1101,1101,1101,1101,1099,1099,1099,1097,1095,1095,1094,1094,1094,1097,1099,1099,1103,1107,1107,1111,1115,1115,1121,1125,1125,1127,1127,1127,1127,1125,1123,1123,1121,1121,1121,1121,1121,1119,1119,1117,1115,1115,1115,1115,1115,1115,1115,1113,1113,1113,1113,1113,1115,1115,1115,1115,1115,1115,1115,1115,1115,1115,1115,1113,1113,1113,1113,1111,1111,1111,1111,1111,1111,1111,1111,1111,1111,1111,1111,1111,1111,1111,1111,1111,1111,1111,1111,1111,1111,1111,1111,1111,1113,1113,1113,1119,1119,1119,1119,1119,1121,1121,1121,1121,1121,1121,1121,1121,1121,1121,1121,1121,1121,1121,1121,1121,1121,1119,1119,1119,1119,1119,1119,1119,1119,1119,1119,1119,1119,1119,1119,1119,1119,1119,1119,1119,1119,1121,1121,1121,1121,1121,1121,1121,1121,1121,1121,1121,1121,1121,1121,1121,1121,1121,1123,1123,1123,1123,1123,1123,1123,1123,1123,1123,1123,1123,1123,1125,1125,1125,1125,1125,1127,1127,1127,1130,1130,1130,1130,1130,1132,1132,1132,1132,1132,1132,1132,1132,1132,1132,1132,1132,1132,1132,1140,1140,1140,1138,1138,1138,1138,1138,1138,1138,1138,1138,1138,1138,1138,1138,1140,1140,1140,1142,1142,1144,1144,1144,1144,1144,1146,1146,1146,1148,1148,1148,1148,1148,1148,1148,1146,1146,1146,1146,1146,1144,1144,1144,1144,1144,1142,1142,1142,1142,1140,1140,1140,1140,1140,1142,1142,1142,1144,1146,1146,1148,1148,1151,1155,1155,1157,1161,1161,1164,1166,1166,1168,1168,1168,1170,1170,1170,1170,1170,1170,1170,1172,1172,1170,1170,1170,1170,1172,1172,1172,1172,1172,1172,1172,1172,1175,1177,1177,1177,1177,1188,1188,1186,1186,1188,1186,1186,1186,1184,1184,1181,1179,1179,1177,1177,1177,1177,1177,1175,1175,1175,1175,1175,1175,1177,1177,1177,1177,1177,1177,1179,1179,1181,1184,1184,1184,1186,1186,1188,1188,1188,1188,1188,1188,1188,1188
1051,1051,1051,1049,1049,1049,1049,1047,1047,1045,1045,1045,1044,1044,1042,1040,1040,1040,1040,1040,1038,1038,1038,1038,1038,1038,1038,1038,1040,1040,1038,1037,1037,1037,1037,1035,1033,1033,1031,1031,1031,1030,1030,1028,1028,1028,1028,1028,1028,1028,1028,1028,1028,1030,1030,1030,1037,1037,1037,1037,1038,1040,1040,1042,1042,1042,1044,1044,1044,1044,1044,1045,1045,1045,1044,1044,1044,1044,1042,1042,1042,1042,1042,1042,1042,1042,1042,1044,1045,1045,1047,1051,1051,1054,1054,1056,1060,1060,1062,1063,1063,1067,1069,1069,1069,1069,1069,1069,1069,1067,1067,1065,1065,1065,1062,1062,1062,1060,1060,1060,1060,1058,1058,1058,1058,1058,1058,1058,1060,1060,1062,1063,1063,1065,1065,1065,1067,1067,1069,1071,1071,1073,1073,1073,1073,1073,1071,1071,1071,1069,1069,1067,1067,1067,1067,1067,1067,1071,1071,1071,1071,1071,1069,1069,1069,1069,1069,1069,1069,1067,1067,1067,1065,1065,1065,1065,1065,1065,1065,1065,1063,1063,1063,1062,1062,1062,1060,1060,1060,1060,1060,1060,1060,1060,1060,1062,1062,1062,1062,1062,1063,1063,1063,1063,1063,1065,1065,1065,1067,1067,1067,1067,1067,1069,1071,1071,1071,1073,1073,1073,1073,1073,1073,1073,1073,1075,1075,1075,1075,1075,1075,1075,1075,1075,1075,1075,1075,1075,1075,1075,1075,1075,1075,1075,1075,1075,1075,1075,1075,1075,1075,1075,1075,1076,1076,1076,1084,1084,1084,1084,1086,1086,1086,1086,1088,1088,1088,1088,1088,1088,1090,1090,1090,1092,1092,1092,1094,1094,1094,1094,1095,1095,1095,1097,1097,1097,1097,1097,1097,1097,1097,1097,1097,1097,1097,1095,1095,1095,1095,1094,1094,1094,1094,1094,1092,1092,1090,1088,1088,1088,1088,1088,1090,1092,1092,1095,1099,1099,1103,1109,1109,1113,1113,1117,1121,1121,1121,1121,1119,1119,1119,1117,1117,1115,1115,1115,1115,1115,1113,1113,1113,1111,1111,1111,1111,1111,1109,1109,1111,1111,1109,1109,1109,1111,1111,1111,1115,1115,1115,1115,1115,1115,1113,1113,1113,1113,1111,1111,1111,1111,1111,1111,1111,1111,1111,1111,1111,1111,1111,1111,1111,1111,1111,1111,1111,1111,1111,1111,1111,1111,1111,1113,1113,1113,1113,1113,1113,1113,1113,1113,1113,1113,1113,1113,1113,1113,1113,1113,1113,1113,1113,1113,1113,1113,1113,1113,1113,1111,1111,1111,1111,1111,1111,1111,1111,1111,1111,1111,1111,1111,1111,1113,1113,1113,1113,1113,1113,1113,1113,1113,1113,1113,1113,1113,1113,1113,1113,1115,1115,1115,1115,1115,1115,1115,1115,1115,1115,1123,1123,1123,1123,1123,1123,1123,1123,1123,1125,1125,1125,1125,1125,1127,1127,1127,1130,1130,1130,1130,1130,1132,1132,1132,1132,1132,1132,1132,1132,1132,1132,1132,1132,1132,1132,1132,1132,1132,1130,1130,1130,1130,1130,1130,1130,1130,1130,1130,1132,1132,1132,1132,1132,1134,1134,1134,1136,1136,1138,1138,1138,1140,1140,1140,1140,1140,1142,1142,1142,1142,1142,1140,1140,1140,1140,1140,1140,1138,1138,1138,1138,1138,1136,1136,1136,1136,1136,1136,1136,1136,1136,1136,1136,1138,1140,1140,1144,1144,1146,1155,1155,1157,1161,1161,1164,1166,1166,1168,1168,1168,1170,1170,1170,1170,1170,1170,1170,1172,1172,1170,1170,1170,1170,1172,1172,1172,1172,1172,1172,1172,1172,1175,1177,1177,1177,1177,1181,1181,1181,1184,1184,1181,1181,1181,1179,1179,1177,1172,1172,1170,1170,1170,1168,1168,1168,1168,1168,1168,1168,1168,1168,1168,1168,1168,1168,1168,1170,1170,1170,1172,1172,1175,1177,1177,1177,1177,1179,1179,1179,1181,1181,1181
1047,1047,1047,1047,1047,1047,1045,1044,1044,1044,1044,1042,1040,1040,1037,1037,1037,1035,1035,1035,1038,1038,1038,1038,1038,1038,1038,1038,1040,1040,1038,1037,1037,1037,1037,1035,1033,1033,1031,1031,1031,1030,1030,1028,1028,1028,1028,1028,1028,1028,1028,1028,1028,1030,1030,1030,1031,1031,1031,1031,1033,1035,1035,1037,1038,1038,1038,1038,1038,1040,1040,1040,1040,1040,1040,1040,1040,1040,1040,1038,1038,1038,1038,1038,1038,1038,1038,1040,1042,1042,1044,1045,1045,1049,1049,1051,1054,1054,1056,1058,1058,1060,1060,1060,1062,1062,1062,1062,1062,1062,1062,1060,1060,1058,1056,1056,1056,1056,1060,1060,1060,1058,1058,1058,1058,1058,1058,1058,1060,1060,1062,1063,1063,1065,1065,1065,1067,1067,1069,1071,1071,1073,1073,1073,1073,1073,1071,1071,1071,1069,1069,1067,1067,1067,1067,1067,1065,1065,1065,1065,1065,1063,1063,1063,1063,1063,1063,1062,1062,1062,1062,1062,1062,1062,1062,1062,1062,1060,1060,1060,1058,1058,1058,1058,1058,1056,1056,1056,1054,1054,1054,1054,1054,1054,1054,1054,1054,1056,1056,1056,1056,1056,1058,1058,1058,1060,1060,1060,1062,1062,1062,1062,1062,1063,1063,1063,1065,1067,1067,1073,1073,1073,1073,1073,1073,1075,1075,1075,1075,1075,1075,1075,1075,1075,1075,1075,1075,1075,1075,1075,1075,1075,1075,1075,1075,1075,1075,1075,1075,1075,1075,1075,1075,1076,1076,1076,1076,1078,1078,1078,1080,1080,1080,1080,1080,1080,1080,1082,1082,1082,1084,1084,1084,1086,1086,1086,1088,1088,1088,1088,1090,1090,1090,1092,1092,1092,1092,1092,1092,1092,1090,1090,1090,1090,1090,1090,1088,1088,1088,1088,1088,1086,1086,1084,1084,1084,1082,1080,1080,1080,1080,1080,1082,1086,1086,1088,1094,1094,1097,1109,1109,1113,1113,1117,1121,1121,1121,1121,1119,1119,1119,1117,1117,1115,1115,1115,1115,1115,1113,1113,1113,1111,1111,1111,1111,1111,1109,1109,1111,1111,1109,1109,1109,1111,1111,1109,1109,1107,1107,1107,1107,1107,1105,1103,1103,1103,1103,1103,1101,1101,1101,1101,1101,1101,1101,1103,1103,1103,1103,1103,1103,1103,1105,1105,1105,1105,1107,1107,1107,1107,1107,1107,1107,1107,1107,1107,1107,1107,1105,1105,1105,1105,1105,1105,1105,1105,1105,1105,1105,1105,1105,1103,1103,1103,1105,1105,1105,1105,1111,1111,1111,1111,1111,1111,1111,1111,1111,1111,1111,1111,1111,1113,1113,1113,1113,1113,1113,1113,1113,1113,1113,1113,1113,1113,1113,1113,1113,1115,1115,1115,1115,1115,1115,1115,1115,1115,1115,1115,1117,1117,1117,1117,1117,1117,1117,1117,1117,1117,1119,1119,1119,1119,1119,1121,1121,1121,1123,1123,1123,1123,1123,1123,1123,1123,1123,1123,1123,1123,1123,1123,1123,1123,1123,1123,1123,1123,1123,1123,1123,1123,1123,1123,1123,1123,1123,1123,1123,1123,1125,1125,1125,1125,1125,1127,1127,1127,1130,1130,1130,1140,1140,1140,1140,1140,1142,1142,1142,1142,1142,1140,1140,1140,1140,1140,1140,1138,1138,1138,1138,1138,1136,1136,1136,1136,1136,1136,1136,1136,1136,1136,1136,1138,1140,1140,1144,1144,1146,1148,1148,1153,1155,1155,1157,1161,1161,1161,1161,1164,1164,1164,1164,1166,1166,1166,1166,1166,1166,1166,1166,1166,1166,1166,1166,1166,1168,1168,1168,1168,1168,1168,1170,1170,1172,1172,1175,1177,1177,1177,1177,1175,1175,1175,1175,1175,1172,1168,1168,1166,1166,1161,1161,1161,1161,1161,1159,1159,1159,1159,1159,1168,1168,1168,1168,1168,1170,1170,1170,1172,1172,1175,1177,1177,1177,1177,1179,1179,1179,1181,1181,1181
1047,1047,1047,1047,1047,1047,1045,1044,1044,1044,1044,1042,1040,1040,1037,1037,1037,1035,1035,1033,1033,1033,1031,1031,1031,1031,1031,1031,1031,1031,1031,1030,1030,1028,1028,1026,1025,1025,1025,1023,1023,1023,1023,1023,1021,1021,1021,1021,1023,1023,1023,1023,1023,1023,1023,1025,1025,1025,1026,1026,1028,1028,1028,1030,1031,1031,1033,1033,1033,1035,1035,1035,1035,1035,1035,1035,1035,1035,1035,1037,1037,1037,1038,1038,1038,1038,1038,1040,1042,1042,1044,1045,1045,1049,1049,1051,1054,1054,1056,1058,1058,1060,1060,1060,1062,1062,1062,1062,1062,1062,1062,1060,1060,1058,1056,1056,1056,1056,1054,1054,1054,1054,1054,1054,1054,1054,1054,1054,1056,1056,1056,1058,1058,1060,1060,1060,1062,1062,1063,1063,1063,1065,1065,1065,1065,1065,1065,1065,1065,1063,1063,1062,1062,1062,1060,1060,1060,1060,1060,1058,1058,1058,1058,1060,1058,1058,1060,1060,1060,1058,1058,1058,1058,1058,1058,1058,1058,1056,1056,1056,1054,1054,1058,1058,1058,1056,1056,1056,1054,1054,1054,1054,1054,1054,1054,1054,1054,1056,1056,1056,1056,1056,1058,1058,1058,1060,1060,1060,1062,1062,1062,1062,1062,1063,1063,1063,1065,1067,1067,1067,1067,1067,1067,1067,1069,1069,1069,1069,1069,1069,1069,1069,1069,1069,1069,1069,1069,1069,1069,1069,1069,1069,1069,1069,1069,1069,1069,1069,1069,1069,1069,1069,1069,1071,1071,1071,1071,1073,1073,1073,1073,1073,1075,1075,1075,1075,1075,1075,1076,1076,1078,1078,1078,1078,1078,1080,1080,1080,1082,1082,1082,1090,1090,1092,1092,1092,1092,1092,1092,1092,1090,1090,1090,1090,1090,1090,1088,1088,1088,1088,1088,1086,1086,1084,1084,1084,1082,1080,1080,1080,1080,1080,1082,1086,1086,1088,1094,1094,1097,1101,1101,1105,1105,1109,1113,1113,1115,1115,1113,1113,1113,1111,1111,1111,1111,1111,1109,1109,1109,1109,1109,1107,1107,1107,1107,1107,1107,1105,1105,1105,1105,1105,1105,1105,1105,1103,1103,1101,1099,1099,1097,1097,1097,1095,1095,1095,1094,1094,1094,1094,1094,1094,1094,1094,1094,1095,1095,1095,1095,1095,1097,1097,1105,1105,1105,1105,1107,1107,1107,1107,1107,1107,1107,1107,1107,1107,1107,1107,1105,1105,1105,1105,1105,1105,1105,1105,1105,1105,1105,1105,1105,1103,1103,1103,1105,1105,1105,1105,1105,1105,1105,1103,1103,1103,1103,1103,1105,1105,1105,1105,1105,1105,1105,1105,1107,1107,1107,1107,1107,1107,1107,1107,1107,1107,1107,1107,1107,1107,1107,1107,1107,1107,1107,1107,1107,1107,1107,1107,1109,1109,1109,1109,1109,1109,1109,1111,1111,1111,1111,1113,1113,1113,1113,1115,1115,1115,1115,1117,1117,1117,1117,1117,1123,1123,1123,1123,1123,1123,1123,1123,1123,1123,1123,1123,1123,1123,1123,1123,1123,1123,1123,1123,1123,1123,1123,1123,1123,1123,1125,1125,1125,1125,1125,1127,1127,1127,1130,1130,1130,1132,1134,1134,1134,1134,1136,1136,1134,1134,1134,1134,1134,1134,1134,1134,1134,1132,1132,1132,1132,1132,1132,1132,1132,1130,1130,1130,1132,1132,1132,1132,1132,1134,1136,1136,1138,1138,1142,1144,1144,1146,1151,1151,1153,1155,1155,1157,1157,1157,1157,1157,1157,1157,1157,1159,1159,1159,1159,1159,1159,1159,1159,1166,1166,1166,1168,1168,1168,1168,1168,1168,1170,1170,1172,1172,1175,1177,1177,1177,1177,1175,1175,1175,1175,1175,1172,1168,1168,1166,1166,1161,1161,1161,1161,1161,1159,1159,1159,1159,1159,1159,1159,1159,1159,1159,1161,1161,1161,1164,1164,1166,1168,1168,1168,1168,1170,1170,1170,1172,1172,1172
