1630,0,0,0,1648,1648,1648,1652,1652,1652,0,0,1670,1670,1670,1674,1679,1679,1697,1697,1716,1736,1736,1755,1775,1775,1796,1812,1812,1828,1839,1839,1855,1861,1861,1872,1872,1884,1889,1889,1895,1895,1895,1895,1907,1907,1907,1907,1913,1931,1931,1943,1955,1955,1974,2000,2000,2026,2026,2053,2087,2087,2109,2123,2123,2131,2138,2138,2138,2138,2138,2138,2131,2131,2131,2131,2138,2138,2138,2145,2145,2160,2176,2176,2183,2199,2199,2215,2215,2239,2247,2247,2297,2314,2314,2280,2280,2280,0,2323,2323,2340,2340,2349,2358,2358,2386,2395,2395,2404,2404,2414,2414,2414,2414,2414,2395,2395,2386,2367,2367,2349,2340,2340,2323,2323,2305,2297,2297,2297,2297,2297,2305,2323,2323,2323,2340,2340,2340,2349,2349,2349,2349,2349,2349,2340,2332,2332,2332,2332,2332,2314,2314,2305,2305,2297,2297,2297,2297,2297,2305,2305,2305,2305,2305,2305,2305,2323,2332,2332,2340,2340,2332,2332,2332,2314,2314,2297,2297,2305,2297,2297,2280,2263,2263,2263,2263,2255,2255,2255,2255,2239,2239,2223,2223,2223,2223,2239,2239,2239,2255,2255,2272,2288,2288,2323,2323,2358,2386,2386,2423,2442,2442,2452,2471,2471,2481,2501,2501,2501,2501,2491,2491,2491,2491,2512,2512,2543,2543,2543,2553,2543,2532,2532,2512,2512,2501,2491,2491,2481,2481,2462,2442,2442,2442,2433,2433,2433,2433,2433,2442,2452,2452,2462,2481,2481,2491,2501,2501,2512,2512,2532,2543,2543,2564,2574,2574,2585,2585,2585,2585,2585,2585,2585,2585,2585,2574,2564,2564,2543,2532,2532,2522,2522,2512,2512,2512,2512,2512,2512,2501,2501,2501,2501,2501,2491,2491,2491,2491,2491,2491,2491,2501,2501,2501,2543,2543,2553,2553,2596,2596,2596,2618,2640,2640,2652,2663,2663,2663,2629,2607,2607,2564,2564,2574,2574,2574,2564,2564,2564,2553,2553,2553,2553,2553,2553,2553,2553,2553,2564,2564,2553,2553,2553,2543,2543,2532,2522,2522,2522,2522,2501,2491,2491,2481,2481,2471,2462,2462,2462,2481,2481,2481,2491,2491,2481,2481,2481,2481,2481,2471,2471,2462,2452,2452,2433,2414,2414,2395,2395,2376,2367,2367,2358,2358,2340,2332,2332,2332,2332,2332,2323,2323,2323,2314,2314,2314,2297,2297,2280,2280,2263,2255,2255,2247,2247,2247,2239,2239,2231,2231,2231,2231,2231,2239,2231,2231,2215,2199,2199,2183,2183,2160,2145,2145,2123,2123,2102,2073,2073,2046,2026,2026,2006,2006,1993,1974,1974,1955,1955,1943,1931,1931,1919,1919,1913,1913,1913,1907,1901,1901,1901,1901,1895,1889,1889,1878,1867,1867,1855,1855,1844,1833,1833,1828,1828,1823,1817,1817,1812,1807,1807,1801,1801,1796,1791,1791,1781,1775,1775,1770,1770,1760,1750,1750,1740,1740,1731,1712,1712,1697,1697,1684,1665,1665,1648,1648,1630,1617,1617,1601,1588,1588,1580,1580,1568,1556,1556,1545,1545,1537,1529,1529,1518,1518,1511,1503,1503,1500,1496,1496,1496,1496,1492,1489,1489,1489,1489,1492,1492,1492,1492,1496,1500,1500,1503,1511,1511,1518,1541,1541,1568,1597,1597,1626,1656,1656,1684,1716,1716,1740,1745,1745,1745,1740,1731,1731,1731,1731,1726,1721,1721,1707,1707,0,0,0,0,1652,1652,1635,1635,1635,0,0,0,0,0,0,0,0,1617,1617,1609,1609,1597,1588,1588,1576,1560,1560,1522,1522,1503,1503,1485,1464,1464,1457,1457,1457,1457,1457,1457,1457,1461,1461,1461,1464,1464,4065,4038,4038,4012,4012,3986,3935,3935,3910,3886,3886,3886,3886,3862,3838,3838,3814,3814,3814,3814,3814,3791,3791,3791,3791,3814,3814,3814,3838,3838
1626,0,0,1635,1635,1639,1639,1648,1652,1652,1656,1656,1661,1670,1670,1679,1684,1684,1697,1716,1716,1736,1736,1755,1775,1775,1796,1812,1812,1828,1839,1839,1855,1861,1861,1872,1872,1884,1889,1889,1895,1895,1895,1895,1907,1907,1907,1907,1913,1931,1931,1943,1955,1955,1974,2000,2000,2026,2026,2053,2087,2087,2109,2123,2123,2131,2138,2138,2138,2138,2138,2138,2131,2131,2131,2131,2138,2138,2138,2145,2145,2160,2176,2176,2183,2199,2199,2215,2215,2239,2247,2247,2297,2314,2314,2332,0,2442,2442,2462,2404,2404,2404,2404,2404,2404,2414,2481,2433,2433,2433,2452,2452,2452,2452,2452,2452,2452,2433,2423,2423,2414,2386,2386,2376,2376,2367,2349,2349,2349,2358,2358,2358,2367,2367,2376,2386,2386,2386,2386,2386,2395,2395,2386,2386,2386,2376,2376,2376,2376,2367,2340,2340,2332,2314,2314,2305,2305,2297,2297,2305,2297,2288,2288,2288,2288,2288,2297,2297,2297,2305,2305,2297,2297,2297,2280,2280,2272,2272,2263,2255,2255,2239,2223,2223,2207,2207,2199,2176,2176,2176,2239,2145,2138,2138,2138,2145,2153,2153,2160,2176,2176,2183,2183,2215,2247,2247,2297,2332,2332,2367,2386,2386,2395,2423,2423,2452,2452,2471,2481,2481,2481,2491,2491,2491,2512,2512,2543,2543,2543,2553,2543,2532,2532,2512,2512,2501,2491,2491,2481,2481,2462,2442,2442,2442,2433,2433,2433,2433,2433,2442,2462,2462,2471,2491,2491,2501,2522,2512,2512,2512,2532,2543,2543,2564,2574,2574,2585,2585,2585,2585,2585,2585,2585,2585,2585,2574,2564,2564,2543,2522,2522,2512,2512,2512,2501,2501,2501,2501,2501,2501,2501,2501,2501,2501,2491,2491,2501,2501,2501,2501,2501,2512,2512,2522,2543,2543,2564,2585,2574,2574,2574,2596,2607,2607,2618,2629,2607,2607,2596,2585,2585,2564,2564,2574,2574,2574,2564,2564,2564,2553,2553,2553,2553,2553,2553,2553,2553,2553,2564,2564,2553,2553,2553,2543,2543,2532,2522,2522,2522,2522,2501,2491,2491,2481,2481,2471,2462,2462,2452,2452,2452,2452,2462,2462,2462,2462,2462,2452,2452,2452,2452,2442,2433,2433,2414,2395,2395,2376,2376,2358,2349,2349,2340,2340,2332,2323,2323,2323,2323,2323,2323,2323,2323,2314,2314,2314,2297,2297,2280,2280,2272,2255,2255,2247,2247,2247,2247,2247,2239,2239,2247,2247,2247,2247,2239,2239,2223,2207,2207,2191,2191,2168,2145,2145,2123,2123,2102,2073,2073,2046,2026,2026,2006,2006,1993,1974,1974,1955,1955,1943,1931,1931,1919,1919,1919,1913,1913,1907,1907,1907,1901,1901,1895,1889,1889,1878,1867,1867,1855,1855,1844,1833,1833,1828,1828,1823,1817,1817,1812,1807,1807,1801,1801,1796,1791,1791,1781,1775,1775,1770,1770,1760,1750,1750,1740,1740,1731,1712,1712,1697,1697,1679,1661,1661,1639,1639,1622,1605,1605,1592,1580,1580,1568,1568,1560,1549,1549,1541,1541,1533,1522,1522,1514,1514,1507,1503,1503,1500,1496,1496,1496,1496,1492,1489,1489,1489,1489,1492,1492,1492,1492,1496,1500,1500,1503,1511,1511,1518,1541,1541,1568,1597,1597,1626,1656,1656,1684,1716,1716,1740,1745,1745,1745,1740,1731,1731,1731,1726,1726,1721,1721,1702,1702,0,0,0,0,1648,1648,1635,1635,1626,1626,0,0,0,0,0,0,0,1617,1617,1609,1605,1597,1588,1588,1576,1560,1560,1541,1541,1526,1507,1507,1489,1489,1475,1475,1475,1471,1471,1471,1471,1475,1475,1475,1482,1482,4012,3986,3986,3961,3961,3935,3910,3910,3886,3862,3862,3862,3886,3862,3838,3838,3814,3814,3814,3814,3814,3791,3791,3791,3791,3814,3814,3814,3838,3838
1626,0,0,1635,1635,1639,1639,1648,0,1656,1656,1656,1661,1670,1670,1684,1688,1688,1702,1716,1716,1736,1736,1755,1770,1770,1791,1801,1801,1817,1828,1828,1839,1844,1844,1861,1861,1872,1878,1878,1884,1889,1889,1895,1901,1901,1907,1907,1913,1931,1931,1937,1955,1955,1968,1993,1993,2019,2019,2053,2087,2087,2116,2138,2138,2145,2153,2153,2153,2153,2153,2153,2145,2145,2153,2153,2153,2160,2160,2168,2168,2183,2199,2199,2215,2231,2231,2247,2272,2272,2297,2297,2349,2386,2386,2414,0,2442,2442,2462,2462,2491,2491,2491,2491,2471,2471,2481,2481,2491,2491,2491,2501,2491,2481,2481,2481,2481,2481,2471,2471,2414,2386,2386,2376,2376,2367,2349,2349,2349,2358,2358,2358,2367,2367,2376,2386,2386,2386,2386,2386,2395,2395,2386,2386,2386,2376,2376,2376,2376,2367,2340,2340,2332,2314,2314,2305,2305,2305,2305,2305,2297,2288,2288,2280,2280,2272,2272,2272,2272,2272,2272,2263,2263,2263,2255,2255,2247,2247,2239,2231,2231,2223,2223,2223,2207,2207,2199,2176,2176,2176,0,2145,2138,2138,2138,2145,2153,2153,2160,2176,2176,2183,2183,2215,2247,2247,2297,2332,2332,2367,2386,2386,2395,2423,2423,2452,2452,2471,2481,2481,2481,2481,2481,2481,2501,2501,2522,2522,2532,2543,2532,2522,2522,2501,2501,2491,2481,2481,2462,2462,2452,2433,2433,2423,2414,2414,2414,2414,2414,2423,2442,2442,2452,2471,2471,2491,2501,2501,2512,2512,2522,2522,2522,2543,2553,2553,2564,2564,2564,2564,2553,2553,2564,2553,2553,2553,2532,2532,2522,2501,2501,2481,2481,2481,2501,2501,2501,2501,2501,2501,2512,2512,2501,2501,2501,2501,2501,2501,2512,2512,2522,2522,2522,2532,2553,2553,2564,2585,2574,2574,2574,2596,2607,2607,2618,2629,2607,2607,2596,2585,2585,2564,2564,2564,2564,2564,2543,2532,2532,2532,2522,2522,2522,2522,2512,2512,2522,2522,2522,2522,2512,2512,2512,2512,2512,2501,2501,2491,2481,2481,2471,2452,2452,2452,2452,2442,2433,2433,2423,2423,2423,2423,2433,2433,2433,2433,2423,2423,2423,2414,2414,2414,2404,2404,2395,2376,2376,2367,2367,2358,2349,2349,2340,2340,2332,2323,2323,2323,2323,2323,2323,2323,2323,2314,2314,2314,2297,2297,2280,2280,2272,2272,0,0,2255,2255,2247,2247,2247,2247,2247,2247,2247,2255,2247,2247,2231,2207,2207,2191,2191,2160,2145,2145,2123,2123,2094,2066,2066,2039,2019,2019,2006,2006,1987,1974,1974,1955,1955,1937,1931,1931,1919,1919,1919,1913,1913,1907,1907,1907,1901,1901,1895,1889,1889,1878,1867,1867,1855,1855,1850,1839,1839,1833,1828,1823,1823,1823,1817,1817,1817,1812,1812,1807,1796,1796,1791,1786,1786,1775,1775,1765,1760,1760,1745,1745,1731,1712,1712,1697,1697,1679,1661,1661,1639,1639,1622,1605,1605,1592,1580,1580,1568,1568,1560,1549,1549,1541,1541,1533,1522,1522,1514,1514,1507,1503,1503,1496,1492,1492,1492,1492,1489,1489,1489,1489,1489,1489,1489,1489,1489,1489,1492,1492,1496,1503,1503,1514,1537,1537,1560,1592,1592,1622,1652,1652,1679,1712,1712,1736,1745,1745,1745,1740,1731,1731,1726,1726,1726,1721,1721,1702,1702,0,0,0,0,1648,1648,1635,1635,1626,1626,0,0,0,0,0,0,1626,1622,1622,1613,1605,1605,1597,1597,1588,1576,1576,1560,1560,1545,1529,1529,1529,0,1496,1492,1492,1485,1482,1482,1482,1485,1482,1482,1482,1482,4012,3986,3986,3961,3961,3935,3910,3910,3886,3862,3862,3838,3838,3814,3814,3814,3791,3791,3791,3767,3767,3767,3767,3767,3767,3791,3814,3814,3838,3838
1622,1630,1630,1630,1635,1639,1639,1648,0,1652,1652,1652,1661,1670,1670,1684,1688,1688,1702,1716,1716,1736,1736,1750,1770,1770,1786,1796,1796,1807,1817,1817,1828,1839,1839,1850,1850,1867,1872,1872,1884,1889,1889,1895,1901,1901,1907,1907,1913,1931,1931,1937,1955,1955,1968,1993,1993,2019,2019,2053,2102,2102,2131,2153,2153,2168,2176,2176,2176,2176,2176,2176,2168,2168,2176,2176,2183,2191,2191,2199,2199,2223,2239,2215,2215,2231,2231,2247,2272,2272,2297,2297,2349,2386,2386,2414,2532,2442,2442,2462,2462,2491,2491,2491,2491,2471,2471,2481,2481,2491,2491,2491,2501,2491,2481,2481,2481,2481,2481,2471,2471,2452,2442,2442,2442,2433,2433,2433,2433,2433,2433,2442,2423,2423,2433,2433,2442,2433,2433,2442,2433,2423,2423,2423,2423,2414,2414,2414,2404,2404,2395,2386,2386,2358,2340,2340,2332,2332,2323,2314,2314,2305,2288,2288,2280,2280,2272,2272,2272,2272,2272,2272,2263,2263,2263,2255,2255,2247,2247,2239,2231,2231,2223,2215,2215,2199,2199,2199,2176,2176,2153,2153,2145,2131,2131,2131,2131,2145,2145,2160,2176,2176,2183,2183,2215,2247,2247,2297,2332,2332,2367,2386,2386,2395,2423,2423,2452,2452,2471,2481,2481,2481,2481,2481,2481,2501,2501,2522,2522,2532,2532,2532,2522,2522,2501,2501,2491,2481,2481,2462,2452,2452,2433,2433,2423,2414,2414,2414,2414,2414,2423,2442,2442,2452,2471,2471,2491,2501,2501,2512,2512,2522,2522,2522,2543,2553,2553,2564,2564,2564,2564,2553,2553,2564,2553,2553,2553,2532,2532,2522,2501,2501,2481,2481,2481,2481,2481,2481,2481,2481,2481,2481,2481,2481,2481,2481,2481,2481,2481,2491,2491,2501,2522,2522,2522,2532,2532,2543,2564,2553,2553,2553,2553,2553,2553,2553,2553,2543,2543,2532,2522,2522,2501,2501,2501,2501,2501,2491,2481,2481,2471,2471,2452,2442,2442,2433,2433,2442,2442,2442,2442,2433,2433,2433,2442,2442,2442,2501,2491,2481,2481,2471,2452,2452,2452,2452,2442,2433,2433,2423,2423,2423,2423,2433,2433,2433,2433,2423,2423,2423,2414,2414,2414,2404,2404,2395,2376,2376,2367,2367,2358,2349,2349,2340,2340,2332,2323,2323,2323,2323,2323,2323,2323,2314,2314,2314,2305,2297,2297,2280,2280,2263,2263,2263,2255,2255,2255,2247,2247,2247,2247,2247,2247,2247,2255,2247,2247,2231,2207,2207,2183,2183,2160,2138,2138,2116,2116,2087,2060,2060,2032,2019,2019,2000,2000,1987,1968,1968,1955,1955,1937,1931,1931,1925,1919,1919,1913,1913,1913,1913,1913,1907,1907,1901,1895,1895,1878,1867,1867,1855,1855,1850,1839,1839,1833,1828,1828,1828,1828,1823,1817,1817,1817,1817,1812,1801,1801,1796,1791,1791,1775,1775,1765,1760,1760,1745,1745,1731,1712,1712,1693,1693,1670,1652,1652,1630,1630,1613,1597,1597,1580,1568,1568,1556,1556,1549,1541,1541,1533,1533,1526,1518,1518,1511,1511,1503,1496,1496,1492,1492,1492,1489,1489,1485,1485,1485,1482,1482,1485,1485,1485,1485,1485,1489,1489,1492,1500,1500,1511,1533,1533,1556,1588,1588,1617,1652,1652,1679,1712,1712,1736,1745,1745,1745,1740,1736,1736,1726,1726,1726,1721,1721,1702,1702,0,0,0,0,1648,1648,1635,1635,1630,1630,0,0,0,0,0,0,1626,1622,1622,1613,1605,1605,1597,1597,1588,1576,1576,1560,1560,1545,1529,1529,1526,1526,1496,1492,1492,1485,1482,1482,1482,1485,1482,1482,1482,1482,3961,3935,3935,3935,3935,3886,3862,3862,3838,3838,3838,3814,3814,3791,3767,3767,3767,3767,3767,3767,3767,3767,3767,3767,3767,3791,3814,3814,3838,3838
1622,1622,1626,1626,1630,1635,1635,1639,1643,1643,1652,1652,1661,1674,1674,1684,1688,1688,1702,1716,1716,1736,1750,1750,1770,1770,1786,1796,1796,1807,1817,1817,1828,1839,1839,1850,1850,1867,1872,1872,1884,1889,1889,1895,1907,1907,1907,1907,1913,1931,1931,1937,1955,1955,1968,1993,1993,2019,2019,2053,2102,2102,2131,2153,2153,2168,2176,2176,2176,2176,2176,2176,2168,2168,2176,2176,2183,2191,2191,2199,2199,2223,2239,2239,2255,2280,2280,2305,2332,2332,2358,2414,2414,2471,2501,2501,2532,2532,2553,2596,2596,2618,2618,2618,2618,2618,2607,2607,2607,2607,2607,2607,2607,2607,2607,2607,2596,2585,2585,2574,2564,2564,2553,2553,2543,2532,2532,2522,2522,2512,2501,2501,2491,2481,2481,2481,2481,2481,2471,2471,2471,2462,2462,2452,2452,2452,2414,2414,2404,2404,2395,2386,2386,2358,2340,2340,2332,2332,2323,2314,2314,2305,2288,2288,2280,2280,2272,2263,2263,2255,2255,2247,2239,2239,2239,2231,2231,2223,2223,2215,2215,2223,2207,2191,2191,2176,2176,2160,2138,2138,2131,2131,2123,2116,2116,2116,2123,2145,2145,2160,2176,2176,2199,2199,2231,2263,2263,2305,2349,2349,2376,2404,2404,2433,2452,2452,2481,2501,2501,2512,2512,2512,2522,2522,2522,2522,2522,2522,2522,2532,2532,2532,2522,2522,2512,2512,2491,2481,2481,2471,2452,2452,2433,2433,2433,2414,2414,2414,2414,2414,2423,2442,2442,2452,2471,2471,2491,2501,2501,2512,2512,2522,2522,2522,2543,2553,2553,2564,2564,2564,2564,2553,2553,2564,2553,2553,2553,2532,2532,2512,2501,2501,2481,2481,2481,2481,2481,2481,2481,2481,2481,2481,2481,2481,2481,2481,2481,2481,2481,2491,2491,2501,2522,2522,2522,2532,2532,2543,2564,2553,2553,2553,2553,2553,2553,2553,2553,2543,2543,2532,2522,2522,2501,2501,2501,2501,2501,2491,2481,2481,2471,2471,2452,2442,2442,2433,2433,2442,2442,2442,2442,2433,2433,2433,2442,2442,2442,2442,2433,2423,2423,2404,2395,2395,2395,2395,2386,2376,2376,2367,2367,2367,2358,2358,2358,2358,2358,2358,2349,2349,2349,2349,2340,2332,2332,2323,2323,2314,2314,2314,2305,2297,2297,2297,2297,2288,2288,2288,2288,2280,2280,2280,2280,2280,2280,2280,2280,2263,2263,2255,2255,2239,2239,2239,2239,2239,2247,2247,2247,2247,2247,2247,2247,2255,2255,2247,2247,2231,2207,2207,2183,2183,2160,2138,2138,2116,2116,2087,2060,2060,2032,2019,2019,2000,2000,1987,1968,1968,1955,1955,1937,1931,1931,1925,1919,1919,1913,1913,1913,1913,1913,1907,1907,1901,1895,1895,1878,1867,1867,1855,1855,1850,1839,1839,1833,1828,1828,1828,1828,1823,1817,1817,1817,1817,1812,1801,1801,1796,1791,1791,1781,1781,1770,1760,1760,1750,1750,1731,1712,1712,1688,1688,1665,1648,1648,1622,1622,1605,1584,1584,1568,1556,1556,1549,1549,1541,1541,1541,1533,1533,1526,1518,1518,1511,1511,1503,1496,1496,1492,1492,1492,1489,1489,1485,1485,1485,1482,1482,1485,1485,1485,1485,1485,1489,1489,1492,1500,1500,1511,1533,1533,1556,1588,1588,1617,1648,1648,1674,1707,1707,1731,1745,1745,1745,1740,1736,1736,1726,1726,1726,1721,1721,1702,1688,1688,1688,0,0,1648,1648,1635,1635,1630,1630,0,0,0,0,0,0,1626,1622,1622,1613,1609,1609,1601,1601,1597,1588,1588,1572,1572,1560,1541,1541,1526,1526,1507,1500,1500,1492,1489,1489,1489,1489,1489,1485,1485,1485,3961,3935,3935,3935,3935,3886,3862,3862,3838,3838,3838,3814,3814,3791,3767,3767,3767,3767,3767,3767,3767,3767,3767,3767,3767,3791,3814,3814,3838,3838
1622,1622,1626,1626,1630,1635,1635,1639,1643,1643,1652,1652,1661,1674,1674,1684,1688,1688,1702,1716,1716,1731,1745,1745,1760,1760,1775,1786,1786,1801,1807,1807,1817,1828,1828,1839,1839,1850,1861,1861,1872,1884,1884,1895,1901,1901,1907,1907,1919,1931,1931,1943,1955,1955,1968,1993,1993,2026,2060,2060,2102,2102,2131,2153,2153,2168,2176,2176,2183,2183,2183,2183,2183,2183,0,2207,2207,2215,2215,2223,2247,2247,2263,2263,2288,2305,2305,2332,2358,2358,2386,2442,2442,2501,2532,2532,2596,2596,2596,2618,2618,2663,2663,2663,2652,2652,2652,2652,2652,2607,2607,2607,2607,2607,2607,2607,2596,2585,2585,2574,2564,2564,2553,2553,2543,2532,2532,2522,2522,2512,2501,2501,2491,2481,2481,2481,2481,2481,2471,2471,2471,2462,2462,2452,2452,2452,2442,2442,2442,2433,2433,2414,2414,2404,2386,2386,2367,2367,2349,2340,2340,2332,2305,2305,2288,2288,2272,2255,2255,2239,2239,2231,2231,2239,2239,2231,2231,2223,2223,2215,2215,2223,2207,2191,2191,2176,2176,2160,2138,2138,2131,2131,2123,2116,2116,2116,2123,2153,2153,2199,2199,2199,2231,2272,2272,2314,2314,2349,2349,2349,2376,2404,2404,2433,2452,2452,2481,2501,2501,2512,2512,2512,2522,2522,2522,2522,2522,2522,2522,2522,2522,2522,2512,2512,2501,2501,2481,2471,2471,2462,2452,2452,2433,2433,2423,2414,2414,2414,2423,2433,2433,2452,2452,2471,2481,2481,2501,2512,2512,2512,2512,2532,2532,2532,2553,2553,2553,2564,2564,2564,2564,2564,2564,2564,2553,2553,2553,2532,2532,2512,2501,2501,2501,2501,2481,2481,2491,2491,2491,2491,2491,2491,2491,2491,2501,2501,2501,2501,2501,2512,2532,2532,2532,2532,2543,0,2564,2564,2564,2553,2553,2553,2553,2553,2553,2553,2553,2543,2543,2532,2522,2522,2501,2501,2501,2491,2491,2481,2481,2481,2471,2471,2452,2442,2442,2433,2433,2433,2433,2433,2433,2423,2423,2423,2414,2414,2414,2414,2414,2404,2404,2404,2395,2395,2395,2395,2386,2376,2376,2367,2367,2367,2358,2358,2358,2358,2358,2358,2349,2349,2349,2349,2340,2332,2332,2323,2323,2314,2314,2314,2305,2297,2297,2297,2297,2288,2288,2288,2288,2280,2280,2280,2280,2280,2280,2280,2280,2263,2263,2255,2255,2239,2239,2239,2239,2239,2247,2247,2247,2239,2239,2239,2239,2239,2247,2239,2239,2215,2191,2191,2168,2168,2145,2123,2123,2102,2102,2073,2046,2046,2026,2006,2006,1993,1993,1974,1961,1961,1949,1949,1937,1925,1925,1925,1925,1925,1919,1919,1919,1919,1919,1913,1907,1907,1901,1901,1884,1878,1878,1867,1867,1855,1844,1844,1844,1839,1839,1833,1833,1833,1828,1828,1828,1823,1823,1812,1812,1807,1796,1796,1786,1786,1781,1765,1765,1750,1750,1731,1712,1712,1688,1688,1665,1648,1648,1622,1622,1605,1584,1584,1568,1556,1556,1549,1549,1541,1533,1533,1526,1526,1518,1514,1514,1507,1500,1500,1496,1496,1489,1489,1489,1485,1485,1485,1485,1485,1482,1482,1482,1482,1482,1482,1485,1489,1489,1492,1500,1500,1507,1529,1529,1552,1584,1584,1613,1643,1643,1670,1702,1702,1731,1745,1745,1745,1745,1736,1736,1731,1726,1726,1721,1721,1702,1684,1684,1684,0,0,1648,1648,1635,1635,1630,1630,0,0,0,0,0,0,1630,1622,1622,1617,1609,1609,1605,1605,1601,1592,1592,1576,1576,1564,1552,1552,1552,0,1518,1511,1511,1511,0,0,1489,1489,1489,1485,1485,1485,3935,3910,3910,3886,3886,3862,3838,3838,3838,3814,3814,3791,3791,3767,3767,3767,3745,3745,3745,3745,3745,3745,3745,3767,3767,3767,3791,3791,3814,3814
1622,1622,1622,1622,1630,1630,1630,1639,1643,1643,1652,1652,1661,1674,1674,1684,1688,1688,1702,1716,1716,1731,1745,1745,1760,1760,1770,1781,1781,1791,1801,1801,1807,1817,1817,1839,1839,1850,1861,1861,1872,1884,1884,1895,1901,1901,1907,1907,1919,1931,1931,1943,1955,1955,1968,1993,1993,2026,0,0,2138,2138,2138,2160,2160,2176,2183,2183,2191,2199,2183,2183,2183,2183,2231,2207,2207,2215,2215,2223,2247,2247,2263,2263,2288,2305,2305,2332,2358,2358,2386,2442,2442,2501,2532,2532,2596,2596,2596,2618,2618,2663,2663,2663,2652,2652,2652,2652,2652,2663,2663,2663,2675,2675,2663,2663,2652,2652,2652,2629,2618,2618,2596,2596,2574,2564,2564,2543,2522,2522,2522,2522,2512,2491,2491,2481,2481,2481,2481,2481,2481,2481,2481,2481,2481,2471,2471,2471,2471,2462,2462,2452,2452,2433,2414,2414,2395,2376,2376,2358,2358,2340,2323,2323,2297,2297,2272,2255,2255,2239,2239,2231,2223,2223,2215,2207,2207,2207,2215,2207,2207,2207,2207,2183,2183,2176,2176,2160,2138,2138,2131,2123,2123,2116,2116,2116,2123,2153,2153,2199,2199,2199,2231,2272,2272,2314,2314,2358,2386,2386,2404,2423,2423,2452,2462,2462,2481,2501,2501,2501,2501,2501,2512,2512,2501,2501,2501,2501,2501,2501,2512,2512,2501,2501,2491,2491,2481,2471,2471,2462,2452,2452,2433,2433,2423,2414,2414,2414,2423,2433,2433,2452,2452,2471,2491,2491,2501,2512,2512,2512,2512,2532,2532,2532,2553,2553,2553,2564,2564,2564,2564,2564,2564,2564,2553,2553,2553,2532,2532,2512,2501,2501,2501,2501,2481,2481,2491,2491,2491,2491,2491,2491,2491,2491,2501,2501,2501,2501,2501,2512,2532,2532,2532,2532,2543,2564,2564,2564,2574,2564,2564,2564,2564,2564,2564,2553,2553,2543,2543,2532,2522,2522,2501,2501,2501,2491,2491,2481,2481,2481,2471,2471,2452,2433,2433,2433,2433,2433,2433,2433,2433,2423,2423,2423,2414,2414,2414,2414,2414,2404,2404,2404,2395,2395,2395,2395,2386,2386,2386,2376,2376,2376,2367,2367,2367,2367,2367,2358,2358,2358,2349,2349,2340,2332,2332,2323,2323,2314,2314,2314,2305,2297,2297,2297,2297,2288,2288,2288,2288,2280,2280,2280,2280,2280,2280,2280,2280,2263,2263,2255,2255,2239,2239,2239,2239,2239,2247,2247,2247,2239,2239,2239,2239,2239,2247,2239,2239,2215,2191,2191,2168,2168,2145,2123,2123,2102,2073,2073,2046,2046,2026,2006,2006,1993,1993,1974,1961,1961,1949,1949,1937,1925,1925,1925,1925,1925,1925,1925,1925,1919,1919,1919,1913,1913,1907,1907,1889,1878,1878,1867,1867,1861,1855,1855,1850,1844,1844,1839,1839,1833,1828,1828,1828,1823,1823,1812,1812,1807,1796,1796,1786,1786,1781,1765,1765,1750,1736,1731,1712,1712,1688,1665,1665,1639,1639,1617,1617,1597,1576,1576,1560,1549,1549,1537,1537,1529,1522,1522,1518,1518,1514,1507,1507,1500,1496,1496,1492,1492,1485,1485,1485,1485,1485,1482,1482,1482,1482,1482,1482,1478,1478,1478,1482,1489,1489,1492,1500,1500,1507,1529,1529,1552,1584,1584,1613,1643,1643,1670,1702,1702,1731,1745,1745,1745,1745,1736,1736,1731,1726,1726,1721,1721,1702,1684,1684,1684,0,0,1648,1648,1635,1635,1630,1630,1635,1635,0,0,0,1630,1630,1622,1622,1613,1609,1609,1605,1605,1601,1592,1592,1576,1576,1564,1552,1552,1552,0,1518,1511,1511,1511,0,0,0,0,1492,1492,1492,1489,1489,3886,3886,3862,3862,3838,3814,3814,3791,3791,3791,3767,3767,3745,3745,3745,3722,3722,3722,3722,3722,3722,3745,3745,3745,3767,3791,3791,3814,3814
0,1622,1622,1622,1630,1630,1630,1639,1643,1643,1652,1652,1661,1674,1674,1684,1693,1693,1702,1716,1716,1731,1745,1745,1760,1760,1770,1781,1781,1791,1801,1801,1807,1817,1817,1833,1833,1844,1855,1855,1861,1878,1878,1889,1901,1901,1907,1907,1919,1931,1931,1943,1955,1955,1968,1993,1993,2026,2060,2060,2138,2138,2138,2153,2153,2168,2176,2176,2183,2191,2191,2199,2215,2215,2231,2231,2247,2272,2272,2288,2323,2323,2349,2376,2376,2404,2433,2433,2481,2481,2522,2574,2574,2629,2663,2663,2710,2722,2722,2746,2783,2771,2771,2771,2771,2771,2771,2758,2758,2758,2771,2746,2746,2746,2746,2734,2734,2710,2710,2686,2663,2663,2640,2640,2607,2596,2596,2574,2553,2553,2532,2532,2512,2491,2491,2481,2481,2481,2481,2481,2481,2481,2481,2481,2481,2471,2471,2471,2471,2462,2462,2452,2452,2433,2414,2414,2395,2376,2376,2358,2358,2340,2323,2323,2297,2297,2272,2255,2255,2239,2231,2231,2223,2223,2215,2207,2207,2207,2207,2207,2207,2207,2207,2183,2183,2176,2176,2160,2138,2138,2131,2123,2123,2116,2116,2116,2131,2160,2160,2199,2231,2231,2255,2305,2305,2349,2367,2367,2404,2404,2423,2433,2433,2452,2471,2471,2491,2501,2501,2501,2501,2501,2512,2512,2501,2501,2501,2501,2501,2501,2512,2512,2501,2501,2491,2491,2481,2471,2471,2462,2452,2452,2433,2433,2423,2414,2414,2414,2423,2433,2433,2452,2452,2471,2491,2491,2501,2512,2512,2512,2512,2532,2532,2532,2553,2553,2553,2564,2564,2564,2564,2564,2564,2564,2564,2553,2553,2543,2543,2522,2512,2512,2512,2512,2501,2501,2501,2501,2512,2522,2522,2522,2522,2522,2522,2522,2522,2532,2532,2532,2543,2543,2553,2553,2553,2564,2564,2585,2596,2585,2585,2585,2574,2574,2574,2564,2564,2553,2553,2543,2522,2522,2501,2501,2501,2501,0,2481,2481,2481,2471,2471,2452,2433,2433,2423,2423,2423,2423,2433,2433,2423,2423,2414,2414,2414,2414,2414,2404,2404,2404,2404,2395,2395,2395,2395,2386,2386,2386,2376,2367,2367,2367,2367,2358,2358,2358,2349,2340,2340,2340,2340,2340,2332,2332,2323,2314,2314,2314,2314,2314,2314,2314,2305,2305,2305,2297,2297,2297,2297,2297,2297,2297,2297,2297,2297,2297,2288,2288,2272,2272,2263,2263,2263,2263,2272,2272,2272,2272,2263,2255,2255,2255,2263,2263,2247,2247,2231,2199,2199,2168,2168,2145,2123,2123,2102,2073,2073,2046,2046,2026,2006,2006,1987,1987,1974,1961,1961,1949,1949,1937,1925,1925,1925,1925,1925,1925,1925,1925,1919,1919,1919,1913,1913,1907,1907,1889,1878,1878,1867,1867,1861,1855,1855,1850,1844,1844,1839,1839,1839,1839,1839,1839,1833,1833,1823,1823,1812,1801,1801,1796,1796,1781,1770,1770,1755,1736,1736,1707,1707,1684,1665,1656,1630,1630,1617,1617,1597,1576,1576,1560,1549,1549,1537,1537,1529,1522,1522,1518,1518,1514,1507,1507,1500,1496,1496,1492,1492,1485,1485,1485,1485,1485,1482,1482,1482,1482,1482,1482,1478,1478,1478,1482,1485,1485,1489,1496,1496,1507,1526,1526,1549,1576,1576,1609,1635,1635,1665,1697,1697,1726,1740,1740,1745,1745,1736,1736,1726,1726,1726,1721,1721,1702,1684,1684,1684,0,0,1652,1652,1639,1635,1635,1635,1635,1635,0,0,0,1630,1630,1622,1622,1613,1609,1609,1605,1605,1601,1592,1592,1576,1576,1564,1556,1556,1556,0,0,0,0,0,0,0,0,0,1496,1492,1492,1489,1489,3886,3886,3862,3862,3838,3814,3814,3791,3791,3791,3767,3767,3745,3745,3745,3722,3722,3722,3722,3722,3722,3745,3745,3745,3767,3791,3791,3814,3814
1617,1617,1622,1622,1626,1630,1630,1635,1639,1639,1652,1652,1661,1674,1674,1684,1693,1693,1702,1716,1716,1731,1745,1745,1755,1755,1765,1775,1775,1786,1796,1796,1801,1812,1812,1823,1823,1833,1850,1850,1861,1878,1878,1889,1907,1907,1913,1913,1925,1937,1937,1955,1968,1968,1980,2000,2000,2026,2060,2060,2138,2138,2138,2153,2153,2168,2176,2176,2183,2191,2191,2199,2215,2215,2231,2231,2255,2272,2272,2305,2340,2340,2386,2414,2414,2452,2471,2471,2553,2574,2574,2629,2629,2663,2686,2686,2722,2722,2722,2746,2783,2771,2771,2771,2771,2771,2771,2758,2758,2758,2771,2746,2746,2746,2746,2734,2734,2710,2710,2686,2663,2663,2640,2640,2607,2585,2585,2574,2543,2543,2522,2522,2501,2501,2501,2491,2481,2481,2481,2491,2491,2491,2491,2481,2481,2481,2481,2481,2471,2471,2471,2452,2452,2442,2423,2423,2404,2395,2395,2376,2376,2358,2332,2332,2305,2305,2280,2255,2255,2247,2231,2231,2223,2223,2215,2215,2215,2207,2207,2215,2215,2223,2215,2191,2191,2183,2183,2168,2145,2145,2131,2131,2131,2123,2123,2123,2131,2160,2160,2199,2231,2231,2255,2305,2305,2349,2367,2367,2404,2404,2423,2433,2433,2452,2471,2471,2491,2501,2501,2501,2501,2501,2501,2501,2501,2501,2491,2491,2491,2491,2491,2491,2491,2491,2481,2481,2471,2462,2462,2452,2452,2452,2442,2442,2433,2433,2433,2433,2433,2442,2442,2462,2462,2491,2501,2501,2512,2532,2522,2522,2543,2543,2543,2543,2564,2574,2574,2574,2574,2574,2574,2574,2574,2574,2564,2564,2564,2553,2553,2522,2512,2512,2512,2512,2522,2522,2532,2532,2532,2543,2543,2543,2543,2543,2543,2543,2532,2532,2532,2532,2543,2543,2553,2553,2553,2564,2564,2585,2596,2585,2585,2585,2574,2574,2574,2564,2564,2553,2553,2543,2522,2522,2501,2491,2491,2481,2481,2471,2462,2462,2452,2452,2442,2433,2433,2423,2423,2423,2423,2433,2433,2414,2414,2404,2395,2395,2395,2395,2395,2395,2395,2395,2395,2395,2386,2386,2386,2376,2376,2376,2367,2367,2367,2367,2358,2358,2358,2349,2340,2340,2340,2340,2340,2332,2332,2323,2314,2314,2314,2314,2314,0,0,2314,2305,2305,2305,2305,2305,2305,2305,2305,2305,2305,2305,2305,2297,2288,2288,2272,2272,2263,2263,2263,2263,2272,2272,2272,2272,2263,2255,2255,2255,2255,2255,2239,2239,2215,2191,2191,2160,2160,2131,2109,2109,2087,2066,2066,2039,2039,2019,2000,2000,1987,1987,1974,1961,1961,1949,1949,1937,1925,1925,1925,1925,1925,1925,1925,1925,1925,1925,1925,1919,1919,1913,1913,1895,1884,1884,1872,1872,1861,1855,1855,1850,1844,1844,1844,1844,1844,1844,1844,1839,1839,1839,1828,1828,1817,1807,1807,1796,1796,1786,1770,1770,1755,1736,1736,1707,1707,1684,1684,1656,1630,1630,1609,1609,1588,1568,1568,1549,1549,1537,1533,1533,1526,1518,1518,1511,1511,1507,1503,1503,1500,1492,1492,1489,1489,1482,1482,1482,1482,1482,1482,1478,1478,1478,1475,1475,1475,1478,1475,1475,1482,1482,1485,1492,1492,1503,1522,1522,1545,1568,1568,1601,1630,1630,1661,1693,1693,1721,1740,1740,1745,1740,1736,1736,1726,1726,1726,1721,1721,1702,1684,1684,1684,0,0,1652,1652,1643,1639,1639,1639,1639,1639,0,0,0,1630,1630,1626,1626,1617,1613,1613,1609,1609,1601,1592,1592,1576,1576,1564,1556,1556,1556,0,0,0,0,0,0,0,0,0,1496,1492,1492,1489,1489,3838,3838,3838,3838,3814,3791,3791,3767,3745,3745,3722,3722,3722,3722,3722,3722,3700,3700,3700,3722,3722,3745,3745,3745,3767,3791,3791,3814,3814
1617,1617,1617,1617,1622,1626,1626,1635,1639,1639,1648,1648,1661,1674,1674,1684,1693,1693,1707,1716,1716,1731,1745,1745,1755,1755,1765,1775,1775,1786,1796,1796,1801,1812,1812,1823,1823,1833,1850,1850,1867,1884,1884,1901,1913,1913,1925,1937,1937,1949,1949,1961,1974,1974,1987,0,0,0,0,0,2138,2138,2138,2153,2153,2160,2168,2168,2183,2191,2191,2199,2215,2215,2231,2231,2255,2272,2272,2305,2340,2340,2386,2414,2414,2452,2471,2471,2553,2574,2574,2629,2629,2663,2686,2686,2734,2758,2758,2771,2796,2783,2783,2783,2796,2796,2796,2796,2796,2796,2796,2796,2796,2796,2796,2808,2808,2783,2783,2746,2686,2686,2652,2652,2618,2585,2585,2574,2543,2543,2522,2522,2501,2501,2501,2491,2481,2481,2481,2491,2491,2491,2491,2481,2481,2481,2481,2481,2471,2471,2471,2452,2452,2442,2423,2423,2404,2395,2395,2376,2376,2358,2332,2332,2305,2305,2280,2255,2255,2247,2231,2231,2223,2223,2215,2215,2215,2207,2207,2215,2215,2223,2207,2191,2191,2183,2183,2160,2138,2138,2123,2116,2116,2116,2123,2123,2131,2160,2160,2207,2239,2239,2272,2323,2323,2358,2386,2386,2423,2433,2433,2442,2442,2452,2471,2471,2481,2491,2491,2491,2481,2481,2481,2481,2501,2501,2491,2491,2491,2491,2491,2491,2491,2491,2481,2481,2471,2462,2462,2452,2452,2452,2452,2452,2442,2442,2442,2442,2442,2452,2452,2481,2481,2491,2512,2512,2522,2532,2522,2522,2532,2532,2543,2543,2553,2564,2564,2574,2574,2574,2574,2564,2564,2564,2564,2553,2553,2543,2543,2522,2512,2512,2512,2512,2522,2522,2532,2532,2532,2543,2543,2543,2543,2543,2543,2543,2543,2543,2543,2553,2553,2553,2553,2553,2564,2574,2574,2585,2596,2596,2596,2585,2585,2585,2574,2564,2564,2553,2553,2532,2512,2512,2501,2491,2491,2481,2481,2471,2462,2462,2452,2452,2442,2433,2433,2423,2423,2423,2423,0,0,2414,2414,2404,2395,2395,2395,2395,2395,2395,2395,2395,2395,2395,2386,2386,2386,2376,2376,2376,2367,2367,2367,2367,2358,2358,2358,2349,2340,2340,2340,2340,2340,2332,2332,2323,2314,2314,2314,2314,2314,0,0,2314,2305,2305,2305,2305,2305,2305,2305,2305,2305,2305,2305,2305,2305,2297,2297,2288,2280,2280,2280,2280,2280,2280,2288,2280,2280,2280,2272,2272,2263,2255,2255,2239,2239,2207,2176,2176,2145,2145,2131,2109,2109,2087,2066,2066,2039,2039,2019,2000,2000,1987,1987,1974,1961,1961,1949,1949,1937,1931,1931,1925,1925,1931,1931,1931,1931,1931,1931,1931,1925,1925,1913,1913,1901,1884,1884,1872,1867,1861,1855,1855,1850,1844,1844,1844,1844,1844,1844,1844,1839,1839,1839,1828,1828,1817,1807,1807,1796,1786,1786,1770,1770,1755,1736,1736,1707,1707,1679,1652,1652,1626,1626,1601,1601,1580,1560,1560,1537,1537,1529,1522,1522,1518,1511,1511,1507,1507,1503,1500,1500,1492,1492,1492,1485,1485,1482,1482,1482,1482,1482,1482,1478,1478,1478,1475,1475,1475,1478,1475,1475,1482,1482,1485,1492,1492,1503,1522,1522,1545,1568,1568,1601,1630,1630,1661,1693,1693,1721,1740,1740,1745,1740,1736,1736,1726,1726,1726,1721,1721,1702,1684,1684,1684,0,0,1652,1652,1643,1639,1639,1639,1639,1639,1643,0,0,1630,1630,1626,1626,1617,1613,1613,1609,1609,1597,1592,1592,1576,1576,0,0,0,0,0,0,0,0,0,0,0,0,0,1496,1496,1496,1492,1492,3814,3814,3814,3814,3791,3791,3791,3745,3722,3722,3722,3722,3722,3722,3722,3722,3700,3700,3700,3722,3722,3745,3745,3745,3767,3791,3791,3814,3814
0,1617,1617,1617,1622,1626,1626,1635,1639,1639,1648,1648,1661,1674,1674,1684,1697,1697,1707,1716,1716,1731,1745,1745,1755,1755,1765,1770,1770,1781,1791,1791,1796,1807,1807,1817,1817,1833,1850,1850,1867,1884,1884,1901,1913,1913,1925,1937,1937,1949,1949,1961,1974,1974,1987,2013,2013,2032,2053,2053,2094,2131,2131,2145,2145,2153,2160,2160,2176,2183,2183,2199,2207,2207,2231,2231,2255,2305,2305,2349,2386,2386,2452,0,2543,2543,2596,2596,2640,2675,2675,2698,2722,2722,2746,2746,2783,2796,2796,2808,2821,2808,2808,2821,2821,2821,2821,2834,2834,2834,2834,2834,2834,2834,2821,2808,2808,2783,2783,2746,2698,2698,2652,2629,2618,2585,2585,2574,2543,2543,2522,2522,2501,2501,2501,2491,2481,2481,2481,2491,2491,2491,2491,2481,2481,2481,2481,2481,2471,2471,2471,2452,2452,2442,2423,2423,2404,2386,2386,2367,2367,2349,2332,2332,2305,2305,2280,2255,2255,2247,2231,2231,2231,2231,2223,2215,2215,2215,2215,2223,2223,2223,2207,2199,2199,2183,2183,2160,2138,2138,2123,2116,2116,2116,0,2131,2131,2160,2160,2207,2239,2239,2280,2323,2323,2367,2395,2395,2423,2433,2433,2442,2442,2452,2471,2471,2481,2491,2491,2491,2481,2481,2481,2471,2471,2481,2471,2471,2471,2471,2471,2471,2471,2471,2462,2462,2452,2442,2442,2442,2442,2442,2433,2433,2433,2433,2433,2433,2442,2452,2452,2471,2471,2481,2491,2491,2501,2512,2512,2512,2522,2522,2522,2522,2532,2543,2543,2543,2543,2543,2543,2543,2543,2543,2543,2532,2532,2512,2512,2512,2501,2501,2501,2512,2532,2532,2543,2543,2553,0,0,2564,2564,2564,2564,2564,2564,0,2553,2553,2553,2553,2553,2553,2564,2574,2574,2585,2596,2596,2596,2585,2585,2585,2574,2564,2564,2553,2553,2532,2512,2512,2481,2471,2471,2462,2462,2452,2442,2442,2433,2433,2423,2414,2414,2404,2404,2404,2404,2404,2404,2395,2395,2386,2386,2386,2376,2376,2376,2376,2376,2376,2376,2395,2386,2386,2367,2367,2367,2367,2358,2358,2358,2358,2358,2358,2358,2349,2340,2340,2340,2340,2332,2323,2323,2314,2305,2305,2297,2297,2297,2297,2305,2305,2314,2314,2314,2314,2314,2323,2323,2323,2323,2323,2323,2323,2323,2314,2314,2297,2297,2297,2297,2297,2297,2297,2297,2297,2288,2288,2288,0,2272,2255,2255,2239,2239,2207,2176,2176,2145,2145,2123,2094,2094,2080,2060,2060,2039,2039,2019,2000,2000,1987,1987,1974,1961,1961,1949,1949,1937,1931,1931,1925,1925,1931,1931,1931,1931,1931,1931,1931,1925,1925,1913,1913,1901,1889,1889,1878,1867,1867,1861,1861,1855,1850,1850,1850,1850,1844,1844,1844,1844,1839,1839,1828,1828,1823,1812,1812,1801,1786,1786,1770,1770,1755,1740,1740,1707,1707,1679,1652,1652,1626,1626,1601,1601,1580,1560,1560,1537,1537,1529,1522,1522,1518,1511,1511,1507,1507,1503,1500,1500,1492,1492,1492,1485,1485,1482,1482,1482,1478,1478,1478,1478,1478,1475,1475,1475,1471,1471,1475,1475,1478,1478,1482,1489,1489,1496,1518,1518,1537,1564,1564,1588,1622,1622,1652,1684,1684,1712,1736,1736,1740,1740,1736,1736,1726,1721,1721,1716,1716,1702,1684,1684,1684,0,0,1652,1652,1643,1639,1639,1639,1639,1639,1643,0,0,1635,1635,1630,1630,1622,1613,1613,1613,1613,1597,1592,1592,1576,1576,0,0,0,0,0,0,0,0,0,0,0,0,0,1496,1496,1496,1492,1492,3814,3814,3814,3814,3791,3791,3791,3745,3722,3722,3722,3722,3700,3700,3722,3722,3700,3700,3700,3722,3722,3745,3745,3745,3767,3791,3791,3814,3814
1609,1609,1613,1613,1622,1626,1626,1630,1639,1639,1648,1648,1661,1674,1674,1684,1693,1693,1707,1716,1716,1731,1740,1740,1750,1750,1760,1770,1770,1781,1786,1786,1796,1801,1801,1817,1817,1833,1855,1855,1872,1895,1895,1913,1931,1931,1949,1961,1961,1968,1968,1987,1987,1987,2000,2013,2013,2032,2053,2053,2094,2131,2131,2145,2145,2153,2160,2160,2176,2183,2183,2199,2207,2207,2231,2231,2255,2305,2305,2349,2386,2386,0,0,2543,2543,2585,2585,2629,2663,2663,2698,2722,2722,2746,2746,2783,2796,2796,2808,2821,2808,2808,2821,2821,2821,2821,2808,2808,2796,2796,2796,2796,2796,2796,2771,2771,2746,2746,2710,2675,2675,2640,2607,2607,2574,2574,2553,2532,2532,2512,2512,2501,2491,2491,2491,2491,2491,2491,2491,2491,2491,2501,2501,2501,2501,2491,2491,2481,2471,2471,2452,2452,2442,2423,2423,2404,2386,2386,2367,2367,2349,2332,2332,2305,2305,2280,2255,2255,2247,2231,2231,2231,2231,2223,2223,2223,2223,2223,2223,2223,0,0,2199,2199,2183,2183,2160,2138,2138,2123,2116,2116,2116,2123,2123,2131,2160,2160,2207,2239,2239,2280,2323,2323,2367,2395,2395,2423,2433,2433,2442,2442,2452,2462,2462,2471,2481,2471,2471,2462,2462,2462,2462,2452,2452,2452,2452,2452,2452,2462,2462,2452,2452,2442,2442,2433,2433,2433,2433,2433,2433,2433,2433,2433,2433,2433,2433,2442,2452,2452,2471,2471,2481,2491,2491,2501,2512,2512,2512,2522,2522,2522,2522,2532,2543,2543,2543,2543,2543,2543,2543,2543,2543,2543,2532,2532,2512,2512,2512,2501,2501,2501,2512,2532,2532,2543,2543,2553,2574,2574,2564,2564,2564,2564,2564,2564,2564,2553,2543,2543,2543,2543,2543,2553,2564,2564,2574,2585,2585,2585,2585,2574,2574,2564,2543,2543,2522,2522,2501,2471,2471,2452,2433,2433,2423,2423,2414,2404,2404,2395,2395,2386,2376,2376,2367,2367,2367,2367,2367,2358,2349,2349,2340,2332,2332,2332,2332,2332,2376,2376,2376,2376,0,0,0,2367,2367,2367,2367,2358,2358,2358,2358,2358,2358,2358,2349,2340,2340,2340,2340,2332,2323,2323,2314,2305,2305,2297,2297,2297,2297,2305,2305,2314,2314,2314,2314,2314,2323,2323,2323,2323,2323,2323,2323,2323,2314,2314,2297,2297,2297,2297,2297,2297,2297,2297,2297,2288,2288,2280,2280,2272,2255,2255,2239,2239,2207,2168,2168,2138,2138,2116,2087,2087,2066,2053,2053,2032,2032,2013,2000,2000,1987,1987,1974,1961,1961,1955,1943,1943,1931,1931,1931,1931,1931,1931,1937,1937,1937,1943,1937,1931,1931,1919,1919,1907,1895,1895,1884,1872,1872,1867,1867,1861,1850,1850,1850,1850,1844,1844,1844,1844,1844,1844,1833,1833,1828,1817,1817,1801,1786,1786,1770,1770,1755,1736,1736,1702,1702,1674,1648,1648,1617,1617,1592,1592,1572,1549,1549,1529,1529,1522,1514,1514,1511,1507,1507,1503,1503,1496,1496,1496,1492,1489,1489,1485,1485,1482,1482,1482,1478,1478,1478,1475,1475,1475,1471,1471,1471,1471,1475,1475,1475,1475,1482,1485,1485,1492,1511,1511,1529,1552,1552,1584,1622,1622,1652,1684,1684,1712,1736,1736,1740,1740,1736,1736,1726,1721,1721,1716,1716,1702,1684,1684,1684,0,0,1656,1656,1648,1643,1643,1643,1643,1643,1643,0,0,1635,1635,1630,1630,1622,1613,1613,1613,1601,1597,1592,1592,1576,1576,0,1556,1556,1556,1522,1522,1514,1514,1500,1496,1496,1496,1496,1496,1496,1496,1492,1492,3814,3814,3814,3814,3791,3767,3767,3745,3722,3722,3722,3722,3700,3700,3722,3722,3722,3722,3722,3722,3722,3745,3767,3767,3791,3814,3814,3814,3814
1609,1609,1613,1613,1617,1622,1622,1630,1639,1639,1652,1661,1661,1674,1674,1684,1693,1693,1707,1716,1716,1731,1740,1740,1750,1750,1760,1770,1770,1781,1786,1786,1796,1801,1801,1823,1839,1839,1861,1861,1884,1907,1907,1931,1949,1949,1961,1961,1961,1968,1968,1987,1987,1987,2000,2013,2013,2032,2053,2053,2094,2131,2131,2145,2145,2153,2160,2160,2168,2168,2168,2176,2191,2191,2207,2207,2231,2272,2272,2314,2349,2349,2386,2433,2433,2491,2543,2543,2607,2640,2640,2663,2710,2710,2734,2734,2796,2796,2796,2796,2808,2783,2783,2783,2783,2783,2783,2783,2783,2771,2771,2796,2796,2796,2796,2771,2771,2746,2746,2710,2675,2675,2640,2607,2607,2574,2574,2553,2532,2532,2512,2512,2501,2491,2491,2491,2491,2491,2491,2491,2491,2491,2501,2501,2501,2501,2491,2491,2481,2462,2462,2452,2433,2433,2414,2414,2395,2386,2386,2358,2358,2340,2323,2323,2297,2297,2272,2255,2255,2247,2231,2231,2231,2231,2223,2223,2223,2223,2223,2223,2223,2231,2223,2207,2207,2191,2191,0,2145,2145,2131,2123,2123,2123,2123,2123,2138,2207,2207,2231,2272,2272,2280,2332,2332,2376,2404,2404,2433,2442,2442,2442,2442,2452,2462,2462,2471,2481,2471,2471,2462,2462,2462,2462,2452,2452,2452,2452,2452,2452,2462,2462,2452,2452,2442,2442,2433,2433,2433,2433,2433,2433,2433,2442,2433,2433,2442,2442,2442,2452,2452,2471,2471,2481,2491,2491,2501,2512,2512,2512,2522,2522,2522,2522,2532,2532,2532,2532,2532,2532,2532,2532,2532,2532,2522,2512,2512,2512,2512,2501,2501,2501,2501,2512,2532,2532,2553,2553,2564,2574,2574,2574,2574,2574,2574,2574,2564,2564,2553,2543,2543,2543,2543,2543,2553,2564,2564,2574,2585,2585,2585,2585,2574,2574,2564,2543,2543,2522,2522,2501,2471,2471,2452,2433,2433,2423,2423,2414,2404,2404,2395,2395,2386,2376,2376,2367,2367,2367,2367,2367,2358,2349,2349,2340,2332,2332,2332,2332,2332,2332,2332,2323,2323,2323,2314,2314,2314,2314,2314,2314,2305,2305,2305,2305,2305,2305,2305,2288,2288,2288,2280,2280,2272,2255,2255,2247,2247,2231,2231,2297,2297,2297,2305,2305,2314,2314,2280,2280,2280,2288,2297,2297,2305,2314,2314,2314,2314,2314,2314,2305,2305,2305,2305,2305,2305,2305,2305,2297,2288,2288,2280,2280,2272,2255,2255,2239,2239,2207,2168,2168,2138,2138,2116,2087,2087,2066,2053,2053,2032,2032,2013,2000,2000,1987,1987,1980,1968,1968,1955,1943,1943,1937,1937,1937,1931,1931,1931,1937,1937,1937,1943,1937,1931,1931,1919,1919,1907,1895,1895,1884,1872,1872,1867,1867,1861,1850,1850,1850,1850,1844,1844,1844,1844,1844,1844,1833,1833,1828,1817,1817,1801,1791,1791,1775,1775,1760,1731,1731,1697,1697,1665,1639,1639,1617,1617,1584,1584,1560,1541,1541,1522,1522,1518,1511,1511,1507,1500,1500,1500,1503,1496,1496,1496,1492,1489,1489,1485,1485,1482,1482,1482,1478,1478,1478,1475,1475,1475,1471,1471,1471,1471,1475,1475,1475,1475,1482,1485,1485,1492,1511,1511,1529,1552,1552,1584,1613,1613,1643,1674,1674,1702,1731,1731,1740,1740,1736,1736,1726,1721,1721,1716,1716,1702,1684,1684,1684,0,0,1656,1656,1648,1643,1643,1643,1643,1643,1643,1648,1648,1635,1635,1630,1630,1622,1617,1617,1613,1601,1601,1592,1592,1576,1576,0,1556,1556,1541,1522,1522,1514,1514,1500,1496,1496,1496,1496,1496,1496,1496,1496,1496,3838,3838,3814,3814,3791,3767,3767,3745,3722,3722,3722,3722,3722,3722,3722,3722,3722,3722,3722,3745,3767,3767,3791,3791,3814,3814,3814,3814,3814
1609,1609,1613,1613,1617,1622,1622,1630,1639,1639,1652,1661,1661,1674,1674,1684,1693,1693,1702,1716,1716,1731,1740,1740,1750,1750,1760,1770,1770,1781,1786,1786,1796,1801,1801,1823,1839,1839,1861,1861,1884,1907,1907,1931,1949,1949,1968,1980,1980,1987,2019,2019,2019,2019,2032,2032,2032,2046,2060,2060,2087,2102,2102,2109,2109,2116,2131,2131,2138,2153,2153,2160,2168,2168,2207,2207,2231,2272,2272,2314,2349,2349,2386,2433,2433,2491,2543,2543,2607,2640,2640,2663,2710,2710,2734,2734,2796,2796,2796,2796,2808,2783,2783,2783,2783,2783,2783,2783,2783,2771,2771,2783,2783,2783,2783,2771,2771,2734,2734,2698,2663,2663,2618,2596,2596,2564,2564,2543,2522,2522,2501,2501,2481,2481,2481,2481,2481,2481,2481,2481,2481,2481,2491,2481,2481,2491,2481,2481,2471,2452,2452,2433,2423,2423,2404,2404,2395,2376,2376,2358,2358,2332,2323,2323,2297,2297,2272,2255,2255,2247,2239,2239,2231,2231,2223,2223,2223,2223,2231,2231,2231,2231,2223,2207,2207,2191,2191,0,0,0,0,2138,2138,2138,2145,2145,2168,2207,2207,2272,2272,2272,2297,2349,2349,2386,2414,2414,2442,2442,2442,2442,2442,2452,2462,2462,2471,2481,2471,2471,2462,2462,2462,2462,2452,2452,2452,2452,2452,2452,2452,2452,2452,2452,2442,2442,2433,2433,2433,2433,2433,2433,2433,2442,2433,2433,2442,2442,2442,2452,2452,2471,2491,2491,2501,2501,2512,2512,2512,2512,2522,2522,2522,2522,2532,2532,2532,2522,2522,2522,2522,2522,2522,2532,2522,2512,2512,2512,2512,2501,2501,2501,2501,2522,2543,2543,2564,2574,2574,2596,2596,2607,2607,2596,2596,2596,2596,0,2553,2543,2543,2543,2543,2553,2553,2564,2564,2574,2585,2585,2585,2585,2574,2574,2564,2543,2543,2512,2512,2491,2462,2462,2433,2414,2414,2414,2423,2395,2386,2386,2386,2395,2386,2358,2358,2349,2349,2367,2367,2367,2358,2332,2332,2332,2323,2323,2323,2323,2314,2314,2332,2323,2323,2323,2314,2314,2297,2297,2314,2297,2297,2305,2305,2305,2297,2297,2305,2288,2288,2288,2280,2280,2272,2255,2255,2247,2247,2231,2231,0,0,0,0,0,0,0,2280,2280,2280,2288,2297,2297,2305,2314,2314,2314,2314,2314,2314,2305,2305,2305,2305,2305,2305,2305,2305,2297,2288,2288,2272,2272,2263,2247,2247,2223,2223,2191,2153,2153,2123,2123,2102,2073,2073,2060,2039,2039,2026,2026,2013,2000,2000,1987,1987,1980,1968,1968,1955,1943,1943,1937,1937,1937,1937,1937,1937,1943,1943,1943,1949,1943,1943,1943,1925,1919,1919,1901,1901,1889,1878,1878,1867,1867,1861,1861,1861,1855,1850,1850,1850,1850,1850,1844,1844,1839,1839,1828,1817,1817,1807,1791,1791,1775,1775,1760,1731,1731,1697,1697,1665,1639,1639,1639,0,1584,1584,1560,1541,1541,1522,1522,1518,1511,1511,1507,1500,1500,1496,1496,1496,1492,1492,1489,1489,1489,1485,1485,1482,1482,1482,1478,1478,1478,1475,1475,1471,1471,1471,1471,1471,1471,1471,1475,1475,1478,1485,1485,1489,1503,1503,1522,1545,1545,1576,1601,1601,1639,1670,1670,1697,1726,1726,1736,1740,1736,1736,1731,1721,1721,1716,1716,1702,1684,1684,1684,0,0,0,0,1648,1643,1643,1643,1643,1643,1643,1648,1648,1639,1639,1635,1635,1626,1622,1622,1617,1601,1601,1592,1592,1576,1576,0,1556,1556,1541,1526,1526,1514,1514,1503,1503,1503,1503,1496,1496,1496,1496,1496,1496,3838,3838,3814,3791,3791,3767,3767,3745,3722,3722,3722,3722,3722,3722,3722,3722,3722,3722,3722,3745,3767,3767,3791,3791,3814,3814,3814,3814,3814
1605,1605,1609,1609,1617,1622,1622,1630,1639,1639,1648,1661,1661,1670,1670,1679,1693,1693,1702,1716,1716,1731,1740,1740,1750,1750,1760,1775,1775,1781,1786,1786,1796,1801,1801,1823,1839,1839,1861,1861,1884,1913,1913,1937,1961,1961,1980,1993,1993,2006,2019,2019,2019,2019,2032,2032,2032,2046,2060,2060,2087,2102,2102,2109,2109,2116,2131,2131,2138,2153,2153,2160,2168,2168,2183,2183,2199,2239,2239,2272,2349,2349,2386,2433,2433,2491,2512,2512,2574,2618,2618,2652,2686,2686,2722,2734,2758,2783,2783,2783,2796,2771,2771,2771,2771,2771,2771,2771,2771,2771,2771,2783,2783,2783,2783,2771,2771,2734,2722,2698,2663,2663,2618,2596,2596,2564,2564,2532,2512,2512,2491,2491,2481,2462,2462,2462,2462,2481,2481,2481,2481,2481,2491,2481,2481,2491,2481,2481,2471,2452,2452,2433,2423,2423,2404,2404,2395,2376,2376,2358,2358,2332,2323,2323,2305,2305,2280,2263,2263,2255,2239,2239,2231,2231,2223,2223,2223,2223,2231,2231,2231,2231,2223,2207,2207,2191,2191,2207,2207,0,2191,2138,2138,2138,2145,2145,2168,2207,2207,2272,2272,2272,2297,2349,2349,2386,2414,2414,2442,2442,2442,2452,2452,2452,2462,2462,2471,2471,2462,2462,2452,2452,2452,2452,2442,2442,2442,2442,2442,2442,2442,2442,2433,2433,2433,2433,2433,2433,2433,2433,2433,2442,2442,2442,2442,2442,2452,2452,2452,2462,2462,2481,2501,2501,2512,2512,2512,2522,2522,2522,2522,2522,2532,2532,2532,2532,2532,2522,2522,2522,2522,2522,2522,2532,2522,2512,2512,2512,2512,2501,2501,2501,2501,2522,2543,2543,2564,2574,2574,2596,2596,2607,2607,2596,2596,2596,2585,2585,2553,2543,2543,2543,2543,2553,2553,2564,2564,2574,2585,2585,2585,2585,2574,2574,2564,2543,2543,2512,2512,2481,2452,2452,2423,2404,2404,2404,0,2386,2376,2376,2367,2367,2358,2349,2349,2349,2349,0,0,0,0,2332,2332,2332,2323,2323,2323,2323,2314,2314,0,0,0,0,0,0,2297,2297,0,2297,2297,0,0,0,2297,2297,0,0,0,0,2280,2280,2272,2255,2255,2247,2247,2231,2231,0,0,0,0,0,0,0,2280,2280,2280,2288,2297,2297,2305,2314,2314,2314,2314,2314,2314,2305,2305,2305,2305,2305,2305,2305,2305,2297,2288,2288,2272,2272,2263,2247,2247,2215,2215,2183,2153,2153,2116,2116,2094,2073,2073,2053,2032,2032,2019,2019,2006,2000,2000,1993,1993,1980,1968,1968,1961,1949,1949,1943,1943,1943,1943,1943,1943,1943,1949,1949,1949,1949,1949,1949,1931,1919,1919,1907,1907,1895,1884,1884,1872,1872,1867,1861,1861,1861,1855,1855,1850,1850,1850,1844,1844,1839,1833,1828,1817,1817,1807,1791,1791,1775,1775,1755,1721,1721,1688,1688,1656,1639,1626,1626,0,1572,1572,1552,1533,1533,1518,1518,1514,1507,1507,1503,1496,1496,1496,1496,1492,1489,1489,1489,1485,1485,1485,1485,1482,1482,1482,1478,1478,1478,1475,1475,1471,1471,1471,1471,1471,1471,1471,1475,1475,1478,1485,1485,1489,1503,1503,1522,1545,1545,1576,1601,1601,1639,1670,1670,1697,1726,1726,1736,1740,1736,1736,1731,1721,1721,1716,1716,1702,1688,1688,1688,0,0,0,0,1648,1643,1643,1643,1643,1643,1643,1648,1643,1639,1639,1635,1635,1626,1622,1622,1617,1601,1601,1588,1588,1576,1564,1564,1552,1552,1541,1526,1526,1514,1514,1503,1503,1503,1503,1503,1503,1500,1500,1500,1500,3814,3814,3814,3791,3791,3767,3767,3745,3745,3745,3745,3745,3745,3745,3767,3767,3791,3791,3791,3814,3838,3838,3862,3862,3838,3838,3838,3814,3814
1605,1605,1609,1609,1617,1622,1622,1630,1639,1639,1648,1661,1661,1670,1670,1679,1693,1693,1702,1716,1716,1731,1740,1740,1750,1765,1765,1775,1775,1781,1791,1791,1796,1807,1807,1823,1839,1839,1861,1861,1884,1913,1913,1937,1961,1961,1980,1993,1993,2006,2019,2019,2019,2019,2032,2032,2032,2046,2060,2060,2087,2102,2102,2109,2109,2116,2131,2131,2138,2153,2153,2160,2168,2168,2183,2183,2199,2239,2239,2272,0,2314,2314,2349,2349,2414,2462,2462,2543,2564,2564,2618,2652,2652,2686,2686,2722,2783,2771,2771,2796,2771,2771,2771,2771,2771,2771,2771,2771,2771,2771,2783,2783,2796,2796,2783,2783,2758,2722,2722,2722,0,2640,2596,2596,2564,2564,2532,2512,2512,2491,2491,2481,2462,2462,2462,2462,2462,2462,2471,2471,2471,2471,2471,2471,2471,2471,2471,2452,2442,2442,2423,2414,2414,2395,2395,2386,2376,2376,2358,2358,2332,2323,2323,2305,2288,2280,2263,2263,2255,2239,2239,2239,2239,2231,2231,2231,2231,2239,2239,2239,2239,2239,2231,2231,2223,2207,2207,2207,2255,2191,2183,2183,2183,2199,2215,2215,2247,2280,2280,2305,2305,2332,2376,2376,2404,2423,2423,2452,2452,2452,2452,2452,2452,2462,2462,2471,2471,2462,2462,2452,2452,2452,2452,2442,2442,2442,2442,2442,2442,2442,2442,2433,2433,2433,2433,2433,2433,2433,2433,2433,2442,2442,2442,2442,2442,2452,2452,2452,2462,2462,2481,2501,2501,2512,2512,2512,2522,2522,2522,2522,2522,2532,2532,2532,2532,2522,2522,2522,2522,2522,2512,2512,2512,2512,2501,2501,2501,2501,2501,2501,2501,2501,2522,2553,2553,2574,2596,2596,2607,2607,2618,2618,2618,2607,2607,2585,2585,2564,2553,2553,2553,2553,2553,2553,2564,2564,2585,2585,2585,2585,2585,2574,2574,2564,2543,2543,2512,2512,2481,2452,2452,2423,2404,2404,2404,0,2386,2376,2376,2367,2367,2358,2349,2349,2349,2349,2349,2349,2349,2349,2332,2332,2323,2323,2323,2314,2314,2314,2305,2305,2305,2297,2297,2297,2297,2288,2288,2297,2297,2297,2297,2297,2297,2297,2297,2297,2297,2297,2297,2288,2288,2272,2272,0,2231,2231,0,0,0,0,0,0,0,0,0,2263,2263,2263,2288,2297,2297,2305,2323,2323,2349,2332,2332,2332,2323,2314,2314,2314,2314,2314,2314,2314,2305,2288,2288,2272,2272,2263,2263,0,2215,2215,2183,2153,2153,2116,2116,2094,2073,2073,2053,2032,2032,2019,2019,2006,2000,2000,1993,1993,1980,1968,1968,1961,1949,1949,1943,1943,1943,1943,1943,1943,1943,1949,1949,1949,1949,1949,1949,1931,1919,1919,1907,1907,1895,1884,1884,1872,1872,1867,1861,1861,1861,1855,1855,1850,1850,1850,1850,1850,1839,1833,1833,1817,1817,1807,1791,1791,1775,1775,1750,1716,1716,1684,1684,1648,1622,1622,1592,1592,1572,1572,1552,1533,1533,1518,1518,1514,1507,1507,1503,1496,1496,1496,1496,1492,1489,1489,1489,1485,1485,1485,1485,1482,1482,1482,1478,1478,1478,1475,1475,1471,1471,1471,1471,1471,1471,1471,1471,1471,1475,1482,1482,1485,1500,1500,1518,1541,1541,1564,1597,1597,1626,1661,1661,1693,1721,1721,1736,1736,1736,1736,1731,1721,1721,1716,1716,1702,1688,1688,1688,0,0,0,0,1652,1643,1643,1643,1643,1643,1643,1648,1643,1639,1639,1635,1635,1626,1622,1622,1617,1601,1601,1588,1588,1572,1564,1564,1552,1552,1541,1529,1529,1518,1518,1511,1507,1507,1507,1507,1507,1507,1507,1503,1503,3814,3814,3814,3814,3814,3791,3791,3745,3745,3767,3767,3791,3814,3814,3838,3838,3838,3862,3862,3886,3886,3886,3910,3862,3838,3838,3838,3814,3814
1605,1605,1609,1609,1617,1617,1617,1626,1639,1639,1648,1661,1661,1670,1670,1679,1693,1693,1702,1716,1716,1731,1740,1740,1750,1765,1765,1775,1775,1781,1791,1791,1796,1807,1807,1823,1839,1839,1861,1861,1884,1913,1913,1943,1968,1968,1993,2013,2013,2046,2053,2053,2066,0,0,0,0,0,0,0,0,0,0,0,0,0,0,0,0,0,0,0,0,0,0,0,0,0,0,0,0,2314,2314,2349,2349,2414,2462,2462,2543,2564,2564,2618,2652,2652,2686,2686,2722,2783,2771,2771,2796,2771,2771,2771,2771,2771,2771,2771,2771,2771,2771,2783,2783,2796,2796,2783,2783,2758,2722,2722,2698,2698,2640,2596,2596,2564,2564,2522,2501,2501,2481,2481,2462,2452,2452,2442,2442,2452,2452,2452,2452,2462,2462,2462,2471,2471,2462,2462,2442,2433,2433,2414,2404,2404,2395,2395,2386,2376,2376,2358,2358,2340,2332,2332,2314,2288,2288,2280,2280,2272,2255,2255,2255,2255,2247,2247,2247,2247,2247,2255,2255,2255,2263,2263,2263,2263,2263,2263,2255,2255,2263,2263,2280,2280,2297,2314,2247,2247,2280,2280,2305,2305,2332,2376,2376,2404,2423,2423,2452,2452,2452,2452,2452,2452,2462,2462,2471,2471,2462,2462,2452,2452,2452,2452,2442,2442,2442,2442,2442,2442,2442,2442,2433,2433,2433,2433,2433,2433,2433,2433,2433,2442,2442,2442,2442,2442,2452,2452,2452,2471,2471,2491,2501,2501,2512,2512,2512,2522,2522,2522,2522,2522,2532,2532,2532,2532,2522,2522,2522,2522,2522,2512,2512,2512,2512,2501,2501,2501,2501,2501,2501,2512,2512,2532,2553,2553,2585,2596,2596,2618,2618,2629,2629,2618,2618,2618,2585,2585,2564,2553,2553,2553,2553,2553,2553,2564,2564,2574,2585,2585,2574,2574,2564,2564,2543,2522,2522,2501,2501,2471,2442,2442,2414,2395,2395,2376,2376,2367,2367,2367,2358,2358,2349,2340,2340,2340,2340,2340,2340,2340,2340,2332,2332,2323,2314,2314,2314,2314,2314,2305,2305,2305,2297,2297,2297,2297,2288,2288,2297,2297,2297,2297,2297,2297,2297,2297,2297,2297,2297,2297,2288,2288,2272,2272,0,2231,2231,0,0,0,0,0,0,0,0,0,2263,2263,2263,2288,2314,2314,2323,2340,2340,2349,2332,2332,2332,2323,2314,2314,2314,2314,2314,2314,2314,2305,2288,2288,2272,2272,2263,2247,2247,2215,2215,2183,2153,2153,2116,2116,2087,2066,2066,2053,2032,2032,2019,2019,2000,1993,1993,1987,1987,1980,1974,1974,1961,1949,1949,1943,1943,1943,1943,1949,1949,1949,1949,1949,1955,1955,1949,1949,1937,1925,1925,1913,1913,1895,1889,1889,1878,1878,1867,1861,1861,1861,1855,1855,1850,1850,1850,1850,1850,1844,1833,1833,1817,1817,1807,1791,1791,1775,1775,1750,1716,1716,1684,1684,1648,1622,1622,1592,1592,1564,1564,1545,1529,1529,1518,1511,1511,1503,1503,1500,1496,1496,1492,1492,1492,1489,1489,1489,1485,1485,1485,1485,1482,1482,1482,1478,1478,1478,1475,1475,1471,1471,1471,1471,1468,1468,1468,1471,1471,1475,1478,1478,1485,1492,1492,1511,1529,1529,1556,1588,1588,1617,1652,1652,1684,1716,1716,1726,1736,1736,1736,1731,1721,1721,1716,1716,1707,1693,1693,1693,0,0,0,0,1652,1643,1643,1643,1643,1648,1648,1648,1643,1639,1639,1635,1635,1630,1622,1622,1617,1601,1601,1588,1588,1572,1564,1564,1552,1552,1541,1529,1529,1518,1518,1511,1507,1507,1507,1507,1507,1507,1507,1503,1503,1503,1503,3814,3814,3814,3791,3791,3745,3745,3767,3767,3791,3814,3814,3838,3838,3838,3862,3862,3886,3886,3886,3910,3886,3886,3886,3838,3838,3838
1601,1601,1609,1609,1613,1617,1617,1626,1639,1639,1648,1656,1656,1670,1670,1679,1693,1693,1702,1716,1716,1731,1740,1740,1750,1765,1765,1775,1775,1786,1796,1796,1801,1812,1812,1828,1844,1844,1867,1895,1895,1925,1925,1955,1987,1987,2006,2032,2032,2046,2053,2053,2066,0,0,0,0,0,0,0,0,0,0,0,0,2087,2087,2087,2109,2116,2116,2123,2131,2131,2138,2138,2153,2176,2176,2207,2239,2239,2263,2288,2288,2349,2404,2404,2491,2522,2522,2585,2640,2640,2686,2686,2722,2783,2771,2771,2821,2796,2796,2796,2796,2808,2808,2808,2808,2808,2808,2808,2808,2808,2808,2796,2796,2758,2722,2722,2663,2663,2618,2607,2607,2564,2564,2522,2501,2501,2481,2481,2462,2452,2452,2442,2442,2452,2452,2452,2452,2462,2462,2462,2471,2471,2462,2462,2442,2433,2433,2414,2404,2404,2395,2395,2386,2376,2376,2358,2358,2340,2332,2332,2314,2288,2288,2280,2280,2272,2255,2255,2255,2255,2247,2247,2247,2247,2247,2247,2247,2255,2263,2263,2263,2263,2263,2263,2255,2255,2263,2263,2280,2280,2297,2314,2314,2340,2367,2367,2395,2404,2404,2442,2442,2462,2481,2481,2481,2481,2481,2481,2481,2481,2481,2481,2481,2481,2471,2462,2462,2462,2462,2462,2452,2452,2452,2452,2452,2452,2452,2452,2452,2452,2452,2452,2442,2442,2442,2442,2462,2471,2471,2471,2471,2471,2481,2481,2491,2512,2512,2532,2543,2543,2543,2553,2553,2553,2553,2522,2522,2522,2532,2532,2532,2532,2522,2522,2522,2522,2522,2512,2512,2512,2512,2501,2501,2501,2501,2501,2501,2512,2512,2532,2553,2553,2585,2596,2596,2618,2618,2629,2629,2618,2618,2618,2596,2596,2574,2553,2553,2553,2553,2553,2553,2564,2564,2574,2585,2585,2574,2574,2564,2564,2543,2522,2522,2501,2501,2471,2442,2442,2414,2395,2395,2376,2376,2367,2367,2367,2358,2358,2349,2340,2340,2340,2340,2340,2340,2340,2340,2332,2332,2323,2314,2314,2314,2314,2314,2305,2305,2305,2297,2297,2297,2297,2288,2288,2297,2297,2297,2297,2297,2297,2297,2297,2297,2297,2297,2297,2288,2288,2272,2272,0,2231,2231,0,0,0,0,0,0,0,0,0,2263,2263,2263,2288,2314,2314,2323,2340,2340,2349,2358,2349,2349,2340,2332,2332,2332,2323,2323,2323,2323,2314,2297,2297,2280,2280,2263,2247,2247,2215,2191,2191,2153,2153,2116,2116,2087,2066,2066,2053,2032,2032,2019,2019,2000,1993,1993,1987,1987,1980,1974,1974,1961,1955,1955,1949,1949,1949,1949,1949,1949,1955,1955,1955,1955,1955,1949,1949,1943,1925,1925,1913,1913,1895,1889,1889,1878,1878,1867,1861,1861,1861,1855,1855,1850,1850,1850,1844,1844,1839,1828,1828,1817,1817,1807,1791,1791,1775,1775,1750,1712,1712,1674,1674,1643,1613,1613,1584,1584,1560,1560,1541,1526,1526,1514,1511,1511,1503,1503,1500,1496,1496,1492,1492,1492,1489,1489,1489,1485,1485,1485,1485,1482,1482,1482,1478,1478,1478,1475,1475,1471,1471,1471,1471,1468,1468,1468,1471,1471,1475,1478,1478,1485,1492,1492,1511,1529,1529,1556,1588,1588,1617,1652,1652,1684,1716,1716,1726,1736,1736,1736,1731,1721,1721,1716,1707,1707,1693,1693,1679,1679,0,0,0,1652,1643,1643,1643,1643,1648,1648,1648,1643,1639,1639,1635,1630,1630,1622,1622,1617,1597,1597,1584,1584,1572,1560,1560,1552,1552,1541,1533,1533,1526,1518,1514,1514,1514,1511,1511,1511,1511,1511,1507,1503,1503,1503,3838,3814,3814,3791,3791,3745,3745,3814,3814,3838,3886,3886,3910,3910,3935,3935,3935,3935,3935,3935,3935,3935,3910,3910,3862,3838,3838
1601,1601,1609,1609,1613,1622,1622,1630,1639,1639,1648,1656,1656,1670,1679,1679,1693,1693,1707,1716,1716,1731,1740,1740,1750,1765,1765,1775,1775,1786,1796,1796,1801,1812,1812,1828,1844,1844,1867,1895,1895,1925,1925,1955,1987,1987,2006,2032,2032,2046,2053,2053,2066,2073,2066,2066,2066,2066,0,0,0,0,2073,2073,2073,2073,2080,2080,2094,2102,2102,2109,2116,2116,2116,2116,2138,2160,2160,2183,2207,2207,2231,2247,2247,2305,2358,2358,2491,2522,2522,2585,2640,2640,2686,2758,2758,2821,2808,2808,2847,2821,2821,2821,2821,2834,2834,2821,2821,2808,2808,2808,2808,2808,2808,2796,2796,2758,2722,2722,2663,2663,2618,2574,2574,2532,2532,2501,2471,2471,2452,2452,2442,2433,2433,2433,2442,2442,2442,2452,2452,2452,2452,2452,2452,2452,2442,2442,2433,2414,2414,2395,2386,2386,2376,2376,2358,2349,2349,2332,2332,2323,2314,2314,2305,2288,2288,2288,2288,2280,2272,2272,2263,2263,2247,2247,2255,2255,2247,2247,2247,2255,2263,2263,2263,2263,2263,2263,2263,2280,2288,2288,2305,2305,2349,2358,2358,2386,2404,2404,2423,2442,2442,2471,2481,2481,2491,2491,2491,2491,2491,2491,2491,2491,2501,2501,2491,2491,2471,2462,2462,2462,2462,2462,2452,2452,2452,2452,2452,2452,2452,2452,2452,2452,2452,2452,2442,2442,2442,2442,2462,2471,2471,2471,2471,2471,2481,2481,2491,2512,2512,2532,2543,2543,2543,2553,2553,2553,2553,2553,2553,2553,2553,2553,2553,2553,2553,2553,2553,2553,2543,2543,2543,2543,2543,2543,2543,2543,2543,2543,2543,2553,2553,2574,2596,2596,2629,2640,2640,2663,2663,2663,2675,2663,2663,2663,2640,2640,2618,2607,2607,2596,2585,2585,2585,2596,2596,2607,2607,2596,2596,2596,2596,2596,2585,2564,2564,2543,2543,0,2481,2481,2414,2395,2395,2376,2376,2367,2367,2367,2358,2358,2349,2340,2340,2340,2340,2340,2340,2340,2340,2332,2332,2323,2314,2314,2314,2314,2314,2305,2305,2305,2297,2297,2297,2297,2288,2288,2297,2297,2297,2305,2305,2305,2305,2305,2305,2297,2297,2305,2305,2305,2288,2288,2376,2349,2340,2340,2340,2323,2323,2323,2332,2332,2332,2340,2263,2263,2263,2288,2323,2323,2340,2358,2358,2367,2376,2367,2367,2358,2349,2349,2340,2340,2340,2332,2332,2314,2305,2305,2280,2280,2263,2247,2247,2223,2191,2191,2153,2153,2116,2087,2087,2066,2066,2046,2026,2026,2013,2013,2000,1993,1993,1987,1980,1980,1974,1974,1961,1955,1955,1949,1949,1949,1949,1949,1949,1955,1955,1955,1955,1955,1949,1949,1943,1925,1925,1913,1913,1895,1889,1889,1878,1878,1872,1861,1861,1861,1850,1850,1850,1850,1850,1844,1844,1839,1828,1828,1817,1817,1807,1786,1786,1770,1770,1750,1712,1712,1674,1674,1643,1613,1613,1584,1584,1560,1560,1541,1526,1526,1514,1511,1511,1507,1507,1503,1496,1496,1496,1496,1496,1492,1492,1492,1489,1489,1485,1485,1485,1482,1482,1478,1478,1478,1475,1475,1471,1471,1471,1471,1468,1468,1468,1471,1471,1475,1478,1478,1482,1492,1492,1507,1522,1522,1549,1580,1580,1609,1648,1648,1679,1707,1707,1721,1736,1736,1736,1731,1726,1726,1716,1707,1707,1693,1693,1679,1679,0,0,0,1652,1648,1648,1643,1643,1648,1648,1648,1643,1639,1639,1635,1630,1630,1622,1622,1617,1597,1597,1584,1584,1572,1560,1560,1552,1552,1545,1537,1537,1526,1518,1518,1518,1518,1514,1511,1511,1511,1514,1511,1507,1507,1507,0,0,0,3814,3814,3814,3886,3886,3886,3886,3886,3886,3910,3910,3935,3935,3935,3935,3935,3935,3935,3935,3910,3910,3862,3838,3838
1601,1601,1609,1609,1613,1622,1622,1626,1639,1639,1648,1656,1656,1665,1679,1679,1688,1688,1702,1712,1712,1726,1740,1740,1755,1765,1765,1781,1781,1791,1796,1796,1801,1817,1817,1828,1844,1844,1872,1895,1895,1925,1925,1961,1993,1993,2013,2039,2039,2053,2066,2066,2066,2073,2066,2066,2066,2066,0,0,0,0,2073,2073,2073,2073,2080,2080,2094,2102,2102,2109,2116,2116,2116,2116,2138,2160,2160,2183,2207,2207,2231,2247,2247,2305,2358,2358,2442,2481,2481,2553,2618,2618,2686,2758,2758,2821,2808,2808,2847,2821,2821,2821,2821,2821,2834,2821,2821,2796,2796,2796,2796,2808,2808,2783,2783,2758,2710,2710,2652,2652,2607,2564,2564,2532,2532,2501,2471,2471,2452,2452,2442,2433,2433,2433,2442,2442,2442,2452,2442,2442,2442,2442,2433,2433,2423,2423,2404,2404,2414,2395,2386,2386,2376,2376,2358,2349,2349,2332,2332,2323,2314,2314,2305,2288,2288,2288,2288,2280,2272,2272,2263,2263,2263,2255,2255,2255,2255,2255,2255,2263,2263,2263,2272,2263,2263,2263,2263,2280,2288,2288,2305,2305,2349,2358,2358,2386,2404,2404,2423,2442,2442,2471,2481,2481,2491,2491,2491,2491,2491,2491,2491,2491,2491,2491,2481,2481,2471,2462,2462,2452,2452,2452,2452,2452,2452,2462,2462,2462,2471,2471,2471,2471,2471,2471,2471,2471,2481,2481,2491,2491,2491,2512,2512,2512,2522,2522,2532,2553,2553,2564,2574,2574,2585,2596,2596,2596,2596,2596,2596,2596,2596,2596,2596,2596,2596,2596,2596,2596,2585,2585,2585,2596,2596,2596,2596,2596,2596,2596,2596,2596,2596,2618,2652,2629,2629,2640,2640,2663,2663,2663,2675,2663,2663,2663,2640,2640,2618,2607,2607,2596,2585,2585,2585,2596,2596,2607,2607,2596,2596,2596,2596,2596,2585,2564,2564,2543,2543,0,2481,2481,2452,2433,2433,2414,2414,2404,2395,2395,2395,2395,2395,2395,2395,2395,2404,2404,2404,2414,2414,2404,2404,2386,2386,2386,2376,2367,2367,2358,2358,2358,2349,2349,2340,2332,2332,2332,2340,2332,2332,2340,2340,2349,2349,2349,2358,2349,2349,2376,2376,2386,2386,2376,2376,2349,2340,2340,2340,2323,2323,2323,2332,2332,2332,2340,2263,2263,2263,2288,2323,2323,2340,2358,2358,2367,2376,2367,2367,2358,2349,2349,2340,2340,2340,2332,2332,2314,2305,2305,2280,2280,2263,2247,2247,2223,2191,2191,2153,2153,2116,2087,2087,2066,2066,2046,2026,2026,2013,2013,2000,1987,1987,1980,1980,1980,1974,1974,1961,1955,1955,1949,1949,1949,1949,1955,1955,1955,1955,1955,1961,1955,1955,1955,1943,1925,1925,1913,1913,1907,1889,1889,1878,1878,1872,1861,1861,1861,1850,1850,1850,1850,1850,1844,1844,1839,1833,1833,1817,1817,1807,1786,1786,1770,1770,1745,1707,1707,1674,1674,1643,1609,1609,1580,1580,1556,1556,1537,1526,1526,1514,1511,1511,1507,1507,1503,1496,1496,1496,1496,1496,1492,1492,1492,1489,1489,1485,1485,1485,1485,1485,1482,1478,1478,1478,1478,1475,1471,1471,1471,1468,1468,1468,1471,1471,1475,1475,1475,1478,1485,1485,1503,1514,1514,1541,1572,1572,1609,1648,1648,1679,1707,1707,1721,1736,1736,1736,1731,1726,1726,1721,1712,1712,1697,1697,1684,1684,0,0,0,1652,1648,1648,1643,1643,1648,1648,1648,1643,1639,1639,1635,1630,1630,1622,1622,1617,1597,1597,1584,1584,1572,1560,1560,1549,1549,1541,1533,1533,1526,1518,1518,1518,1518,1514,1511,1511,1511,1511,1511,1507,1507,1507,0,0,0,3814,3814,3814,3886,3886,3886,3935,3986,3986,4012,4038,4038,4038,4012,4012,4012,4012,3961,3961,3935,3935,3886,3862,3862
1601,1601,1609,1609,1613,1622,1622,1626,1635,1635,1643,1656,1656,1665,1679,1679,1688,1688,1702,1712,1712,1726,1740,1740,1755,1765,1765,1781,1781,1791,1801,1801,1812,1823,1823,1839,1861,1861,1878,1907,1907,1943,1980,1980,2006,2032,2032,2039,2039,2053,2066,2066,2066,2066,2066,2066,2066,2066,2066,2066,2066,2066,2066,2066,2066,2073,2073,2073,2087,2087,2087,2094,2094,2094,2094,2094,2109,2123,2123,2145,2160,2160,2176,2191,2191,2231,2231,2358,2442,2386,2386,2553,2618,2618,0,0,0,0,0,0,0,0,2821,2821,2783,2783,2783,2796,2796,2771,2771,2771,2771,2808,2808,2783,2783,2758,2710,2710,2652,2652,2607,2564,2564,2532,2532,2501,2471,2471,2452,2452,2442,2442,2442,2442,2442,2442,2442,2452,2442,2442,2442,2442,2433,2433,2423,2423,2404,2386,2386,2367,2367,2349,2349,2349,2332,2323,2323,2314,2314,2305,2297,2297,2288,2280,2280,2272,2272,2272,2263,2263,2255,2255,2255,2247,2247,2247,2239,2239,2239,2247,2255,2255,2263,2263,2272,2297,2297,2323,2349,2349,2376,2414,2414,2442,2442,2442,2452,2452,2462,2462,2462,2462,2471,2471,2471,2471,2471,2471,2471,2471,2491,2491,2491,2491,2481,2481,2471,2462,2462,2452,2452,2452,2452,2452,2452,2462,2471,2471,2481,2481,2481,2491,2491,2491,2501,2501,2501,2501,2501,2501,2501,2512,2522,2522,2532,2532,2532,2553,2553,2564,2574,2574,2585,2596,2596,2596,2596,2596,2596,2596,2596,2596,2596,2596,2596,2596,2596,2596,2585,2585,2585,2596,2596,2596,2596,2596,2596,2596,2596,2596,2596,2618,2652,2652,2675,2686,2686,2698,2710,2710,2722,2710,2710,2710,2686,2675,2675,2652,2652,2640,2640,2640,2640,2640,2640,2640,2640,2629,2629,2629,2629,2618,2618,2607,2607,2585,2585,0,2532,2532,2491,2471,2471,2462,2462,2433,2423,2423,2423,2414,2414,2414,2414,2414,2423,0,2442,2442,2462,2462,2462,2442,2442,0,2376,2367,2367,2358,2358,2358,2349,2349,2340,2323,2323,2323,2340,2323,2323,2332,2332,2340,2340,2340,2358,2349,2349,2376,2376,2386,2386,2376,2376,2349,2340,2340,2340,2323,2323,2323,2332,2332,2332,2340,2340,2358,2376,2376,2404,2414,2414,2423,2423,2433,2442,2433,2423,2423,2404,2404,2395,2386,2386,2367,2367,2349,2332,2332,2314,2297,2297,2272,2272,2247,2215,2215,2176,2176,2131,2131,0,2066,2066,2046,2032,2032,2013,2013,2000,1987,1987,1980,1980,1980,1974,1974,1968,1961,1961,1955,1955,1955,1955,1961,1955,1955,1955,1955,1961,1955,1955,1955,1943,1925,1925,1913,1913,1907,1889,1889,1878,1872,1872,1861,1861,1855,1850,1850,1850,1850,1844,1839,1839,1833,1823,1823,1812,1812,1801,1781,1781,1765,1765,1740,1702,1702,1661,1661,1630,1605,1605,1576,1576,1552,1552,1533,1526,1526,1514,1511,1511,1507,1507,1503,1500,1500,1500,1500,1500,1496,1496,1496,1492,1492,1489,1489,1485,1485,1485,1482,1482,1482,1478,1478,1475,1471,1471,1471,1471,1471,1471,1471,1471,1475,1475,1475,1478,1485,1485,1503,1514,1514,1541,1572,1572,1601,1635,1635,1670,1697,1697,1716,1731,1731,1736,1731,1726,1726,1721,1712,1712,1697,1697,1684,1684,0,0,0,1652,1648,1648,1643,1643,1648,1643,1643,1643,1639,1639,1635,1630,1630,1622,1622,1617,1601,1601,1588,1588,1572,1560,1560,1549,1549,1541,1533,1533,1529,1522,1522,1518,1518,1514,1514,1514,1511,1511,1511,1507,1507,1507,0,0,0,0,0,0,0,0,0,0,0,0,4147,4147,4147,4147,4119,4092,4092,4092,4012,4012,3986,3986,3910,3886,3886
1601,1601,1609,1613,1613,1622,1622,1626,1635,1635,1643,1656,1656,1661,1674,1674,1684,1684,1697,1707,1707,1721,1740,1740,1750,1765,1765,1781,1781,1791,1801,1801,1812,1823,1823,1839,1861,1861,1878,1907,1907,1943,1980,1980,2006,2032,2032,2046,2046,2060,2060,2060,2060,2060,2060,2060,2060,2060,2060,2060,2066,2066,2066,2066,2066,2073,2073,2073,2080,2080,2080,2087,2087,2087,2094,2094,2109,2123,2123,2145,2160,2160,2176,2191,2191,2231,2231,0,0,2386,2386,0,0,0,0,0,0,0,0,0,0,0,0,0,2783,2783,2783,2796,2796,2771,2771,2771,2771,2796,2783,2771,2771,2734,2698,2698,2652,2652,2607,2564,2564,2532,2532,2501,2471,2471,2452,2452,2442,2442,2442,2442,2442,2442,2442,2452,2442,2442,2442,2442,2433,2433,2414,2414,2395,2376,2376,2358,2340,2340,2332,2332,2323,2314,2314,2305,2305,2297,2288,2288,2280,2280,2280,2272,2272,2272,2263,2263,2255,2255,2255,2247,2247,2247,2239,2239,2239,2247,2255,2255,2263,2263,2272,2297,2297,2323,2349,2349,2376,2414,2414,2442,2452,2452,2462,2462,2462,2462,2462,2462,2471,2471,2471,2471,2471,2471,2471,2471,2481,2481,2481,2481,2471,2471,2462,2442,2442,2442,2442,2442,2442,2442,2442,2452,2452,2452,2462,2462,2471,2481,2481,2481,2481,2481,2491,2491,2491,2491,2491,2501,2512,2512,2522,2543,2543,2564,2564,2574,2596,2596,2618,2629,2629,2629,2618,2618,2618,2618,2618,2618,2618,2629,2629,2629,2629,2629,2629,2629,2629,2640,2640,2640,2640,2629,2629,2629,2629,2629,2652,2652,2675,2675,2698,2710,2710,2722,2734,2734,2734,2734,2734,2734,2710,2698,2698,2675,2675,2675,2663,2663,2663,2663,2663,2663,2663,2652,2629,2629,2629,2618,2618,2607,2607,2585,2585,2585,2532,2532,2491,2471,2471,2462,2452,2433,2423,2423,2423,2414,2414,2414,2414,2414,2423,2442,2442,2442,2462,2462,2462,2442,2442,2491,2481,2414,2414,2395,2395,2386,2386,0,0,2323,2323,2323,0,2314,2314,2332,2332,2332,2332,2332,2340,2340,2358,0,0,2414,2414,2404,2404,2376,2376,0,0,0,0,2358,2358,2358,0,0,0,0,0,2462,2462,2462,2462,2481,2481,2491,2501,2501,2481,2481,2462,2462,2433,2423,2423,2404,2404,2376,2332,2332,2314,2288,2288,2272,2272,2247,2215,2215,2168,2168,2131,2094,2094,2066,2066,2046,2026,2026,2006,2006,1993,1987,1987,1980,1974,1974,1974,1974,1968,1961,1961,1955,1955,1955,1955,1961,1961,1961,1968,1968,1961,1961,1961,1961,1949,1937,1937,1919,1919,1907,1889,1889,1878,1872,1872,1861,1861,1855,1850,1850,1844,1844,1844,1839,1839,1833,1823,1823,1812,1812,1801,1781,1781,1765,1765,1740,1702,1702,1661,1661,1630,1605,1605,1576,1576,1552,1552,1533,1526,1526,1514,1511,1511,1511,1511,1503,1500,1500,1500,1500,1500,1496,1496,1496,1492,1492,1489,1489,1485,1485,1485,1482,1482,1482,1478,1478,1475,1471,1471,1471,1471,1471,1471,1471,1471,1471,1475,1475,1478,1482,1482,1496,1507,1507,1533,1564,1564,1597,1630,1630,1661,1693,1693,1712,1731,1731,1736,1731,1726,1726,1721,1712,1712,1697,1697,1688,1688,0,0,0,1656,1648,1648,1648,1648,1648,1643,1643,1643,1639,1639,1639,1630,1630,1626,1626,1617,1601,1601,1588,1588,1576,1564,1564,1556,1556,1549,1541,1541,1529,1526,1526,1518,1518,1518,1514,1514,1511,1511,1511,1507,1507,1507,0,0,0,0,0,0,0,0,0,0,0,0,4147,4147,4147,4147,4119,4092,4092,4092,4012,4012,3986,3986,3910,3886,3886
1601,1601,1605,1613,1613,1617,1617,1626,1635,1635,1643,1652,1652,1661,1665,1665,1679,1679,1693,1707,1707,1721,1736,1736,1750,1765,1765,1781,1796,1796,1801,1801,1817,1828,1828,1850,1872,1872,1895,1931,1931,1961,1993,1993,2026,2039,2039,2053,2053,2060,2060,2060,2060,2060,2060,2060,2060,2060,2060,2060,2066,2066,2066,2066,2066,2073,2073,2073,2080,2080,2080,2087,2087,2087,2087,2087,2094,2116,2116,2131,2145,2145,2176,2176,2176,2199,2199,0,0,2314,2314,0,2433,2433,0,0,0,0,0,0,0,0,0,0,2783,2783,2783,2758,2758,2746,2746,2746,2746,2758,2746,2734,2734,2698,2675,2675,2640,2640,2607,2574,2574,2543,2543,2512,2481,2481,2462,2462,2452,2452,2452,2452,2452,2462,2452,2452,2452,2442,2442,2442,2433,2433,2414,2414,2395,2376,2376,2358,2340,2340,2332,2332,2323,2314,2314,2305,2305,2297,2288,2288,2280,2280,2280,2272,2272,2272,2263,2263,2255,2255,2255,2247,2247,2247,2239,2239,2239,2247,2247,2247,2255,2255,2272,2297,2297,2323,2349,2349,2376,2414,2414,2442,2452,2452,2462,2462,2462,2462,2462,2462,2471,2471,2471,2471,2471,2471,2471,2471,2471,2471,2471,2471,2471,2471,2462,2442,2442,2442,2442,2433,2433,2433,2433,2442,2452,2452,2462,2462,2471,2481,2481,2481,2481,2481,2491,2491,2491,2491,2491,2501,2512,2512,2522,2543,2543,2564,2564,2574,2596,2596,2618,2629,2629,2629,2618,2618,2618,2618,2618,2618,2618,2629,2629,2629,2629,2629,2629,2629,2629,2640,2640,2640,2640,2629,2629,2629,2629,2629,2652,2652,2675,2675,2686,2698,2698,2710,2722,2722,2734,2734,2722,2722,2710,2698,2698,2675,2675,2675,2663,2663,2663,2663,2663,2652,2652,2640,2618,2618,2618,2618,2618,2596,2596,2585,2553,2553,2522,2522,2491,2471,2471,2462,2433,2433,2414,2414,2404,2404,2404,2404,2404,2404,2414,2442,2442,2462,2491,2491,2501,2501,2491,2491,2481,2462,2462,2442,2433,2433,2433,0,0,2332,2332,2332,0,2314,2314,0,0,2332,2332,2332,2340,2340,0,0,0,2414,2414,2404,2404,2376,2376,0,0,0,0,2358,2358,2358,0,0,2491,2491,2512,2462,2462,2462,2462,2481,2481,2491,2501,2501,2481,2481,2462,2462,2433,2423,2423,2404,2395,2376,2349,2349,2314,2288,2288,2272,2272,2247,2215,2215,2168,2168,2131,2094,2094,2094,0,2046,2026,2026,2006,2006,1993,1980,1980,1974,1974,1974,1974,1974,1968,1961,1961,1955,1955,1961,1961,1961,1961,1968,1968,1968,1968,1968,1961,1961,1955,1937,1937,1925,1925,1907,1895,1895,1884,1872,1872,1867,1867,1855,1850,1850,1844,1844,1844,1839,1839,1833,1817,1817,1807,1807,1796,1781,1781,1765,1765,1736,1693,1693,1652,1652,1630,1601,1601,1572,1572,1549,1549,1533,1522,1522,1514,1511,1511,1507,1507,1503,1500,1500,1500,1500,1500,1500,1503,1500,1496,1496,1492,1492,1492,1489,1489,1485,1485,1485,1478,1475,1475,1471,1471,1471,1471,1471,1471,1471,1471,1471,1475,1475,1478,1482,1482,1496,1507,1507,1533,1564,1564,1597,1630,1630,1661,1693,1693,1712,1731,1731,1736,1736,1726,1726,1721,1716,1716,1702,1702,1688,1688,0,0,0,1656,1648,1648,1643,1643,1643,1643,1643,1643,1639,1639,1635,1630,1630,1626,1626,1617,1601,1601,1588,1588,1576,1564,1564,1556,1549,1549,1537,1537,1529,1522,1522,1514,1514,1511,1507,1507,1507,1503,1503,1500,1500,1500,0,0,0,0,0,0,0,0,0,0,0,0,4232,4232,4232,4203,4203,4147,4147,4147,4065,4065,4012,4012,3935,3910,3910
1601,1601,1605,1613,1613,1617,1617,1626,1635,1635,1643,1652,1652,1661,1665,1665,1679,1679,1693,1707,1707,1721,1736,1736,1750,1765,1765,1781,1796,1796,1801,1801,1817,1839,1839,1850,1872,1872,1895,1931,1931,1961,1993,1993,2026,2039,2039,2046,2046,2053,2060,2060,2060,2060,2060,2060,2060,2060,2060,2060,2066,2066,2066,2066,2066,2073,2073,2073,2073,2080,2080,2080,2080,2080,2087,2087,2087,2087,2087,2094,2094,2094,2102,2102,2109,2123,2123,2131,2153,2153,2314,0,2433,2340,2340,2340,2433,2564,2564,2663,0,0,0,0,0,0,2783,2758,2758,2746,2746,2746,2746,2758,2746,2734,2734,2698,2675,2675,2640,2640,2618,2585,2585,2553,2553,2553,2501,2501,2481,2471,2471,2471,2471,2452,2452,2462,2452,2452,2452,2442,2442,2442,2423,2423,2404,2404,2395,2376,2376,2358,2340,2340,2332,2332,2323,2314,2314,2305,2305,2297,2288,2288,2280,2280,2280,2272,2272,2263,2255,2255,2247,2239,2239,2239,2247,2247,2247,2247,2247,2247,2247,2247,2255,2255,2272,2297,2297,2323,2349,2349,2376,2414,2414,2442,2452,2452,2471,2471,2471,2471,2462,2462,2471,2471,2471,2471,2471,2471,2471,2471,2471,2471,2471,2471,2471,2471,2462,2442,2442,2442,2442,2433,2433,2433,2433,2442,2452,2452,2462,2462,2471,2481,2481,2481,2481,2481,2491,2491,2491,2491,2491,2501,2512,2512,2522,2543,2543,2564,2564,2574,2596,2596,2618,2629,2629,2629,2618,2618,2618,2618,2618,2618,2618,2629,2629,2629,2629,2629,2629,2629,2629,2640,2640,2640,2640,2640,2629,2629,2629,2640,2652,2652,2675,2675,2686,2698,2698,2710,2722,2722,2734,2734,2722,2722,2710,2698,2698,2686,2686,2675,2675,2675,2663,2663,2663,2652,2652,2640,2618,2618,2618,2618,2618,2596,2596,2585,2553,2553,2522,2522,2491,2471,2471,2462,2433,2433,2414,2414,2404,2404,2404,2404,2404,2404,2414,2423,2423,2442,2471,2471,2471,2471,2462,2462,2452,2433,2433,2404,2404,2386,2386,0,0,2332,2263,2255,2255,2255,2314,0,2255,2255,2255,2263,2340,2340,0,0,0,0,0,0,0,0,0,0,0,0,0,0,0,0,2423,2423,2423,2442,2462,2462,2501,2512,2512,2522,2543,2543,2543,2532,2522,2522,2501,2501,2471,2452,2452,2423,2395,2395,2367,2367,2340,2314,2314,2288,2288,2255,2231,2231,2183,2183,2145,2102,2102,2102,0,2053,2026,2026,2006,2006,1993,1980,1980,1974,1974,1974,1974,1974,1968,1961,1961,1955,1955,1961,1961,1961,1961,1968,1968,1968,1968,1968,1961,1961,1955,1937,1937,1925,1925,1907,1895,1895,1884,1872,1872,1861,1861,1850,1844,1844,1844,1844,1839,1833,1833,1823,1812,1812,1801,1801,1791,1770,1770,1755,1755,1731,1684,1684,1652,1652,1622,1597,1597,1572,1572,1549,1549,1533,1522,1522,1514,1514,1514,1507,1507,1503,1503,1503,1503,1503,1507,1507,1507,1503,1503,1503,1496,1492,1492,1492,1492,1489,1485,1485,1478,1475,1475,1471,1471,1471,1471,1471,1471,1471,1471,1471,1475,1475,1475,1482,1482,1489,1503,1503,1529,1556,1556,1588,1622,1622,1652,1684,1684,1707,1726,1726,1736,1736,1726,1726,1721,1716,1716,1702,1702,1688,1688,0,0,0,1656,1648,1648,1643,1643,1643,1643,1643,1643,1639,1639,1635,1630,1630,1626,1626,1622,1605,1605,1592,1592,1576,1564,1564,1556,1549,1549,1537,1537,1529,1522,1522,1514,1514,1511,1507,1507,1507,1503,1503,1500,1500,1500,0,0,0,0,0,0,0,0,0,0,0,0,4351,4351,4321,4261,4261,4232,4232,4175,4119,4119,4012,4012,3935,3910,3910
1601,1601,1605,1613,1613,1617,1617,1626,1635,1635,1639,1648,1648,1656,1665,1665,1674,1674,1688,1697,1697,1716,1731,1731,1750,1765,1765,1781,1796,1796,1801,1801,1817,1839,1839,1855,1884,1884,1907,1937,1937,1961,2000,2000,2019,2032,2032,2046,2046,2053,2053,2053,2053,2053,2053,2060,2060,2060,2060,2060,2066,2066,2066,2073,2073,2073,2073,2073,2073,2080,2080,2080,2080,2080,2087,2087,2087,2087,2087,2094,2094,2094,2102,2102,2109,2123,2123,2131,2153,2153,0,0,0,2340,2340,2340,2433,2564,2564,2663,2821,2796,2796,2796,2783,2771,2771,2746,2746,2734,2734,2734,2734,2734,2722,2722,2722,2698,2675,2675,2640,2640,2618,2585,2585,2553,2553,2553,2501,2501,2481,2471,2471,2471,2471,2471,2471,2471,2462,2452,2452,2442,2442,2423,2414,2414,2395,2395,2376,2358,2358,2349,2332,2332,2323,2323,2323,2314,2314,2314,2305,2297,2297,2297,2288,2280,2280,2272,2272,2263,2255,2255,2247,2239,2239,2239,2247,2247,2247,2247,2247,2247,2255,2255,2263,2263,0,0,2332,2332,2358,2358,2386,2414,2414,2442,2452,2452,2471,2471,2462,2462,2462,2462,2462,2462,2462,2462,2462,2462,2462,2452,2452,2452,2452,2452,2452,2452,2452,2442,2442,2433,2433,2433,2433,2433,2433,2442,2452,2452,2462,2462,2471,2471,2471,2481,2481,2481,2481,2491,2491,2491,2491,2491,2501,2501,2522,2532,2532,2564,2564,2585,2596,2596,2618,2629,2629,2629,2629,2629,2629,2629,2629,2629,2629,2640,2640,2640,2652,2652,2663,2663,2663,2675,2675,2675,2675,2663,2663,2663,2652,2652,2663,2663,2675,2675,2698,2698,2698,2710,2722,2722,2734,2734,2734,2734,2722,2698,2698,2686,2686,2675,2675,2675,2663,2663,2663,2652,2652,2640,2618,2618,2618,2607,2607,2585,2585,2585,2553,2553,2522,2522,2491,2471,2471,2462,2433,2433,2404,2404,2404,2404,2404,2404,2404,2404,2404,2423,2423,2442,2471,2471,2471,2471,2462,2462,2452,2433,2433,2404,2404,2386,2386,0,0,0,2263,2255,2255,2255,0,0,2255,2255,2255,2263,0,0,0,0,0,0,0,0,0,0,0,0,0,0,0,0,0,0,2423,2423,2423,2442,2462,2462,2501,2512,2512,2522,2543,2543,2543,2532,2512,2512,2481,2481,2452,2423,2423,2395,2358,2358,2332,2332,2297,2280,2280,2263,2263,2239,2207,2207,2168,2168,2131,2094,2094,2094,0,2046,2019,2019,2000,2000,1980,1974,1974,1968,1968,1968,1968,1968,1961,1955,1955,1955,1955,1961,1961,1968,1968,1968,1974,1974,1974,1974,1968,1968,1955,1943,1943,1925,1925,1907,1895,1895,1884,1872,1872,1861,1861,1850,1844,1844,1844,1844,1839,1833,1833,1823,1812,1812,1801,1801,1791,1770,1770,1755,1755,1731,1684,1684,1652,1652,1622,1597,1597,1572,1572,1549,1529,1529,1522,1522,1514,1514,1514,1507,1507,1503,1503,1503,1503,1503,1507,1507,1507,1503,1503,1503,1496,1492,1492,1492,1492,1485,1485,1485,1478,1475,1475,1471,1471,1471,1471,1471,1471,1471,1475,1475,1475,1475,1475,1478,1478,1489,1500,1500,1526,1556,1556,1584,1617,1617,1652,1679,1679,1702,1726,1726,1736,1736,1731,1731,1726,1716,1716,1707,1707,1693,1693,0,0,0,1661,1652,1652,1648,1643,1643,1643,1643,1643,1639,1639,1635,1630,1630,1626,1626,1622,1609,1609,1592,1592,1580,1568,1568,1556,1549,1549,1537,1537,1529,1522,1522,1511,1511,1507,1503,1503,1503,1496,1496,1496,1496,1496,0,0,0,0,0,0,0,0,0,0,0,0,4351,4351,4321,4261,4261,4232,4232,4175,4119,4119,4038,4038,3961,3910,3910
1601,1601,1609,1613,1613,1617,1617,1626,1630,1630,1639,1643,1643,1652,1661,1661,1670,1670,1679,1693,1693,1712,1726,1726,1750,1765,1765,1786,1796,1796,1807,1807,1823,1844,1844,1867,1895,1895,1919,1937,1937,1961,2000,2000,2019,2032,2032,2046,2046,2053,2053,2053,2053,2053,2053,2060,2066,2066,2066,2066,2066,2066,2066,2073,2073,2073,2073,2073,2073,2080,2080,2080,2080,2080,2087,2087,2087,2087,2087,2094,2094,2094,2102,2102,2109,2123,2123,2131,2153,2153,2183,0,2280,2280,2340,2340,2433,2564,2564,2663,2821,2796,2796,2796,2783,2771,2771,2746,2746,2734,2734,2734,2734,2734,2722,2722,2722,2710,2686,2686,2663,2663,2640,2618,2618,2618,0,2553,2532,2532,2512,2491,2491,2481,2481,2481,2471,2471,2471,2452,2452,2442,2442,2423,2414,2414,2395,2395,2376,2358,2358,2349,2332,2332,2323,2323,2323,2314,2314,2314,2305,2297,2297,2297,2288,2272,2272,2263,2263,2263,2255,2255,2247,2239,2239,2239,2239,2239,2239,2239,2239,2247,2255,2255,2263,2263,2288,2288,2288,2314,2349,2349,2376,2404,2404,2433,2452,2452,2462,2462,2462,2462,2452,2452,2462,2452,2452,2452,2452,2452,2452,2452,2452,2452,2452,2452,2452,2452,2452,2442,2442,2433,2433,2433,2433,2433,2433,2442,2452,2452,2462,2462,2471,2471,2471,2481,2481,2481,2481,2491,2491,2491,2491,2491,2501,2501,2522,2532,2532,2564,2564,2585,2596,2596,2618,2629,2629,2629,2629,2629,2629,2629,2629,2629,2629,2640,2640,2640,2652,2652,2663,2663,2663,2675,2675,2675,2675,2663,2663,2663,2652,2652,2663,2663,2675,2675,2686,2698,2698,2710,2722,2722,2734,2734,2734,2734,2722,2710,2710,2698,2698,2686,2686,2686,2675,2675,2675,2663,2663,2640,2618,2618,2607,2596,2596,2585,2585,2585,2532,2532,2512,2512,2481,2481,0,0,2433,2433,2404,2404,2404,2404,0,0,0,2404,2404,2423,2423,2442,0,2491,2491,0,2471,2471,2452,2452,0,0,0,2386,2386,0,0,0,0,0,0,0,0,0,2255,2255,2255,2263,0,0,0,0,0,0,0,0,0,0,0,0,0,0,0,0,0,0,2423,2423,2423,2442,2462,2462,2501,2512,2512,2522,2543,2543,2543,2532,2512,2512,2481,2481,2452,2423,2423,2395,2358,2358,2323,2323,2288,2263,2263,2247,2247,2231,2207,2207,2160,2160,2131,2094,2094,2094,0,2046,2019,2019,2000,2000,1980,1974,1974,1968,1968,1968,1968,1968,1961,1955,1955,1955,1955,1961,1961,1968,1968,1974,1974,1974,1974,1974,1968,1968,1955,1943,1943,1925,1925,1907,1895,1895,1878,1872,1872,1855,1855,1850,1844,1844,1839,1839,1833,1828,1828,1823,1812,1812,1796,1796,1786,1770,1770,1755,1755,1731,1684,1684,1652,1652,1622,1597,1597,1572,1572,1549,1529,1529,1522,1522,1518,1514,1514,1514,1514,1511,1507,1507,1507,1507,1511,1507,1507,1503,1503,1503,1496,1492,1492,1489,1489,1485,1485,1485,1478,1478,1478,1475,1475,1475,1471,1471,1471,1475,1475,1475,1475,1475,1475,1478,1478,1489,1500,1500,1526,1556,1556,1584,1617,1617,1652,1679,1679,1702,1726,1726,1736,1736,1731,1731,1726,1716,1716,1707,1707,1693,1693,0,0,1661,1661,1652,1652,1648,1643,1643,1643,1643,1643,1639,1639,1635,1630,1630,1626,1626,1617,1605,1605,1592,1592,1580,1568,1568,1560,1549,1549,1541,1541,1529,1522,1522,1511,1511,1503,1500,1500,1496,1492,1492,1489,1489,1489,0,0,0,0,0,0,0,0,0,0,0,0,4477,4477,4413,4351,4351,4291,4291,4232,4147,4147,4092,4092,3986,3910,3910
1601,1601,1609,1613,1613,1617,1617,1626,1630,1630,1639,1643,1643,1652,1661,1661,1670,1670,1679,1693,1693,1712,1726,1726,1740,1760,1760,1775,1791,1791,1807,1807,1823,1844,1844,1867,1895,1895,1919,1937,1937,1961,2000,2000,2019,2026,2026,2039,2039,2046,2053,2053,2053,2053,2053,2060,2066,2066,2066,2066,2073,2080,2080,2080,2080,2080,2080,2080,2080,2080,2080,2080,2087,2087,2087,2087,2087,2087,2087,2102,2102,2102,2116,2116,2123,2138,2138,2138,2168,2168,2183,0,2280,2280,0,0,0,0,0,0,0,0,0,0,0,0,0,0,0,0,0,0,0,2771,2771,2758,2758,2734,2722,2722,2710,2710,2686,2618,2618,2618,2596,2553,2532,2532,2512,2491,2491,2481,2481,2481,2471,2471,2471,2452,2452,2433,2433,2423,2404,2404,2386,2386,2367,2349,2349,2340,2332,2332,2323,2323,2323,2314,2314,2314,2305,2305,2297,2297,2288,2272,2272,2263,2263,2263,2255,2255,2247,2247,2247,2239,2239,2239,2239,2239,2239,2247,2255,2255,2263,2263,2288,2288,2288,2314,2349,2349,2376,2404,2404,2433,2452,2452,2462,2462,2462,2462,2452,2452,2462,2452,2452,2452,2452,2452,2452,2452,2452,2452,2452,2452,2452,2452,2452,2442,2442,2442,2442,2433,2433,2433,2433,2442,2452,2452,2462,2462,2471,2471,2471,2481,2481,2481,2481,2491,2491,2491,2491,2491,2501,2501,2522,2532,2532,2564,2564,2585,2596,2596,2618,2629,2629,2629,2629,2629,2629,2629,2629,2629,2629,2652,2652,2652,2663,2663,2675,2675,2675,2686,2698,2698,2698,2686,2675,2675,2663,2663,2675,2675,2686,2686,2686,2698,2698,2710,2722,2722,2734,2734,2734,2734,2722,2722,2722,2710,2710,2698,2686,2686,2686,2675,2675,2663,2663,2640,2618,2618,2607,2596,2596,2596,0,0,2532,2532,2512,2512,2481,2462,2462,2462,2433,2433,2404,2404,2404,2404,0,0,0,2404,2404,2423,2423,2442,2462,2462,2471,2471,2471,2471,2442,2423,2423,2423,0,2386,2386,0,0,0,0,0,0,0,0,0,0,0,0,0,0,0,0,0,0,0,0,0,0,0,0,0,0,0,0,0,2471,2471,2423,2423,2423,2481,2481,2481,2512,2532,2532,2543,2564,2564,2574,2553,2532,2532,2491,2491,2452,2423,2423,2423,2358,2358,2323,2323,2288,2263,2263,2247,2247,2231,2207,2207,2160,2160,2131,2094,2094,2066,2066,2046,2019,2019,1993,1993,1980,1974,1974,1968,1961,1961,1961,1961,1961,1955,1955,1955,1955,1961,1961,1968,1968,1974,1974,1974,1974,1974,1968,1968,1955,1943,1943,1925,1913,1913,1895,1895,1878,1861,1861,1850,1850,1839,1833,1833,1828,1828,1823,1823,1823,1817,1807,1807,1796,1796,1786,1775,1775,1770,1770,1745,1712,1712,1674,1674,1648,1617,1617,1588,1588,1564,1545,1545,1529,1529,1522,1522,1522,1518,1518,1514,1514,1514,1514,1511,1511,1511,1511,1507,1503,1503,1496,1492,1492,1489,1489,1485,1485,1485,1478,1478,1478,1475,1475,1475,1471,1471,1471,1475,1475,1475,1475,1475,1475,1478,1478,1489,1500,1500,1526,1552,1552,1584,1617,1617,1648,1679,1679,1702,1726,1726,1736,1736,1731,1731,1726,1721,1721,1712,1712,1697,1697,0,0,1661,1661,1652,1652,1648,1643,1643,1643,1643,1639,1635,1635,1635,1630,1630,1626,1626,1617,1605,1605,1592,1592,1580,1572,1572,1560,1549,1549,1541,1541,1529,1522,1522,1511,1511,1503,1500,1500,1496,1492,1492,1489,1489,1489,0,0,0,0,0,0,0,0,0,0,0,0,4477,4477,4413,4351,4351,4291,4291,4232,4147,4147,4092,4012,3986,3910,3910
1601,1601,1605,1613,1613,1617,1617,1622,1630,1630,1635,1639,1639,1648,1656,1656,1665,1665,1674,1688,1688,1707,1721,1721,1736,1755,1755,1770,1786,1786,1801,1801,1823,1844,1844,1867,1895,1895,1919,1949,1949,1968,2000,2000,2019,2026,2026,2039,2039,2046,2053,2053,2060,2060,2060,2066,2073,2073,2073,2073,2080,2087,2080,2080,2080,2080,2080,2080,2080,2080,2080,2080,0,0,0,0,2087,2087,2087,2102,2102,2102,2116,2123,2123,2138,2138,2138,2168,2168,2183,2239,2239,2280,0,0,0,0,0,0,0,2887,2860,2860,2860,2847,2847,2821,2821,2796,2783,2783,2771,2771,2771,2758,2758,2734,2722,2722,2710,2710,2686,2652,2652,2629,2596,2596,2564,2564,2543,2522,2522,2501,2501,2491,2471,2471,2462,2442,2442,2423,2423,2404,2395,2395,2376,2376,2358,2349,2349,2340,2332,2332,2323,2323,2323,2323,2323,2323,2323,2323,2314,2314,2297,2288,2288,2280,2280,2272,2263,2263,2263,2255,2255,2255,2255,2255,2247,2247,2247,2263,2272,2272,2280,2288,2288,2288,2288,2314,2349,2349,2376,2404,2404,2433,2452,2452,2462,2462,2462,2462,2452,2452,2462,2452,2452,2442,2442,2442,2442,2442,2452,2452,2452,2452,2452,2452,2452,2442,2442,2442,2442,2442,2442,2442,2442,2452,2462,2462,2462,2462,2471,2481,2481,2481,2481,2481,2491,2491,2491,2491,2491,2501,2512,2512,2522,2543,2543,2564,2564,2585,2607,2607,2618,2640,2640,2640,2640,2640,2640,2640,2640,2652,2652,2686,2686,2686,2698,2698,2710,2710,2710,2722,2722,2722,2722,2710,2698,2698,2686,2675,2675,2675,2686,2686,2686,2698,2698,2710,2722,2722,2734,2734,2734,2734,2722,2722,2722,2710,2710,2698,2686,2686,2686,2675,2675,2663,2663,2640,2618,2618,2607,2596,2596,2596,0,0,2532,2532,2501,2501,2481,2452,2452,2452,2433,2433,2433,0,0,0,0,0,0,0,0,0,2423,2423,2452,2452,2471,2471,2471,2491,2442,2423,2423,2423,0,0,0,0,0,0,0,0,0,0,0,0,0,0,0,0,0,0,0,0,0,0,0,0,0,0,0,0,0,0,0,0,2471,2471,2423,2423,2423,2481,2481,2481,2512,2532,2532,2532,2543,2543,2543,2522,2491,2491,2452,2452,2414,2386,2386,2386,2358,2358,2323,2323,2263,2263,2263,2239,2239,2215,2191,2191,2153,2153,2123,2087,2087,2066,2066,2046,2019,2019,1993,1993,1980,1968,1968,1968,1961,1961,1961,1961,1955,1955,1955,1955,1955,1961,1961,1968,1968,1974,1980,1980,1974,1974,1974,1974,1961,1943,1943,1931,1913,1913,1895,1895,1878,1861,1861,1850,1850,1839,1833,1833,1828,1828,1823,1823,1823,1817,1807,1807,1801,1801,1791,1775,1775,1770,1770,1745,1712,1712,1674,1674,1648,1617,1617,1588,1588,1564,1545,1545,1529,1529,1522,1522,1522,1518,1518,1514,1514,1514,1514,1511,1511,1511,1511,1507,1503,1503,1496,1492,1492,1489,1489,1485,1485,1485,1482,1478,1478,1478,1478,1475,1475,1475,1475,1475,1475,1475,1475,1475,1478,1478,1478,1489,1500,1500,1526,1552,1552,1580,1617,1617,1648,1679,1679,1702,1726,1726,1740,1740,1731,1731,1726,1721,1721,1712,1712,1697,1697,0,0,0,0,1656,1656,1648,1643,1643,1643,1643,1639,1635,1635,1635,1630,1630,1622,1622,1617,1605,1605,1592,1592,1580,1572,1572,1560,1549,1549,1537,1537,1526,1514,1514,1503,1503,1496,1492,1492,1489,1489,1489,1485,1485,1485,0,0,0,0,0,0,0,0,0,0,0,0,4611,4611,4510,4413,4413,4351,4351,4291,4175,4175,4119,4012,4012,3935,3935
1601,1601,1605,1613,1613,1617,1617,1622,1626,1626,1635,1639,1639,1648,1656,1656,1665,1665,1674,1688,1688,1707,1721,1721,1736,1755,1755,1770,1786,1786,1801,1801,1823,1850,1850,1872,1901,1901,1925,1949,1949,1974,2000,2000,2019,2032,2032,2039,2046,2046,2053,2053,2053,2060,2060,2060,2073,2073,2073,2073,2080,2087,2080,2080,2080,2080,2080,2080,2080,2080,2080,2080,2080,2080,2080,2080,2080,2087,2087,2087,2094,2094,2109,2123,2123,2138,2138,2145,2176,2176,2191,2239,2239,0,0,0,0,0,0,0,0,2887,2860,2860,2860,2847,2847,2821,2821,2796,2746,2746,2734,2734,2771,2758,2758,2746,2734,2734,2710,2710,2698,2675,2675,2640,2607,2607,2574,2574,2553,2532,2532,2512,2512,2491,2471,2471,2462,2442,2442,2423,2423,2404,2395,2395,2376,2376,2358,2349,2349,2332,2323,2323,2314,2314,2314,2314,2314,2314,2323,2323,2314,2314,2297,2288,2288,2280,2272,2272,2263,2263,2255,2255,2255,2247,2247,2255,2247,2247,2247,2263,2272,2272,2280,2288,2288,2314,2314,2332,2358,2358,2376,2404,2404,2423,2442,2442,2452,2452,2452,2452,2452,2452,2452,2452,2452,2442,2433,2433,2433,2433,2452,2452,2452,2452,2462,2462,2452,2452,2452,2452,2452,2452,2452,2452,2452,2462,2471,2471,2471,2481,2481,2481,2481,2481,2481,2481,2491,2491,2491,2491,2491,2501,2512,2512,2522,2543,2543,2564,2564,2585,2607,2607,2618,2640,2640,2640,2640,2640,2640,2640,2640,2652,2652,2675,2686,2686,2698,2698,2710,2710,2710,2722,2722,2722,2722,2710,2698,2698,2686,2675,2675,2675,2686,2686,2698,2698,2698,2710,2722,2722,2734,2734,2734,2734,2722,2722,2722,2710,2710,2710,2698,2698,2698,2686,2686,2675,2675,2652,2629,2629,2607,2596,2596,2596,0,0,2532,2532,2501,2501,0,2452,2452,2452,2452,0,0,0,0,0,0,0,0,0,0,0,2423,2423,2452,2452,0,0,2491,2491,2481,2423,2423,2423,2512,0,0,0,0,0,0,0,0,0,0,0,0,0,0,0,0,0,0,0,0,0,0,0,0,0,0,0,0,0,0,2491,2471,2471,2471,2491,2501,2501,2512,2512,2532,2532,2532,2532,2543,2543,2543,2522,2481,2481,2452,2452,2386,2349,2349,2314,2314,2288,2255,2255,2223,2223,0,2239,2239,2215,2191,2191,2153,2153,2123,2087,2087,2066,2066,2046,2046,0,1993,1993,0,1968,1968,1968,1961,1961,1961,1961,1955,1955,1955,1955,1955,1961,1961,1968,1968,1974,1980,1980,1974,1974,1974,1974,1961,1943,1943,1931,1913,1913,1895,1895,1878,1861,1861,1850,1850,1839,1833,1833,1828,1828,1823,1817,1817,1817,1807,1807,1796,1796,1786,1760,1760,1750,1750,1731,1702,1702,1674,1674,1652,1622,1622,1597,1597,1572,1549,1549,1541,1541,1529,1529,1529,1529,1526,1526,1522,1522,1518,1518,1518,1514,1511,1511,1503,1503,1500,1492,1492,1489,1489,1485,1485,1485,1482,1478,1478,1478,1478,1478,1475,1475,1475,1478,1478,1478,1478,1478,1478,1482,1482,1489,1500,1500,1526,1552,1552,1580,1613,1613,1648,1679,1679,1702,1726,1726,1740,1740,1731,1731,1726,1721,1721,1712,1712,1697,1697,0,0,1665,1665,1656,1656,1648,1643,1643,1639,1639,1639,1630,1630,1626,1622,1622,1617,1617,1613,1601,1601,1592,1580,1580,1572,1572,1560,1549,1549,1537,1537,1526,1511,1511,1500,1500,1492,1489,1489,1485,1485,1489,1485,1485,1485,0,0,0,0,0,0,0,0,0,0,0,0,4646,4646,4510,4413,4413,4351,4351,4291,4203,4203,4119,4012,4012,3935,3935
1601,1601,1609,1613,1613,1617,1617,1622,1626,1626,1635,1639,1639,1643,1652,1652,1661,1661,1670,1679,1679,1697,1712,1712,1731,1745,1745,1765,1781,1781,1796,1796,1823,1850,1850,1872,1901,1901,1925,1949,1949,1974,2000,2000,2019,2032,2032,2039,2046,2046,2053,2053,2053,2060,2060,2060,2073,2073,2073,2073,2080,2087,2087,2087,2087,2087,2087,2087,2080,2080,2080,2080,2080,2080,2080,2080,2080,2087,2087,2087,2094,2094,2109,2123,2123,2145,2145,2153,2176,2176,2199,2247,2247,0,0,0,0,0,0,0,0,0,0,0,0,0,0,0,0,0,2746,2746,2734,2710,2710,2698,2698,2675,2675,2675,2652,2652,2640,2629,2629,2607,2585,2585,2564,2564,2532,2512,2512,2501,2501,2481,2462,2462,2442,2423,2423,2404,2404,2395,2376,2376,2358,2358,2340,2332,2332,2323,2314,2314,2314,2314,2314,2314,2314,2314,2305,2305,2305,2305,2297,2280,2280,2272,2272,2272,2263,2263,2255,2255,2255,2247,2247,2255,2255,2263,2263,2272,2288,2288,2288,2297,2297,2314,2314,2340,2358,2358,2376,2404,2404,2423,2442,2442,2452,2452,2452,2452,2452,2452,2452,2452,2452,2442,2433,2433,2433,2433,2442,2442,2442,2442,2452,2462,2452,2452,2452,2452,2452,2452,2452,2452,2452,2462,2471,2471,2471,2481,2481,2481,2481,2481,2481,2481,2491,2491,2491,2491,2491,2491,2501,2501,2522,2532,2532,2553,2574,2574,2596,2596,2618,2629,2629,2640,2640,2640,2640,2640,2640,2663,2663,2675,2698,2698,2710,2722,2722,2722,2722,2734,2734,2734,2722,2722,2698,2698,2686,2686,2686,2686,2686,2698,2698,2698,2698,2710,2722,2722,2734,2734,2734,2734,2722,2722,2722,2710,2710,2710,2710,2710,2698,2686,2686,2675,2675,2652,2629,2629,2607,2596,2596,2574,2574,2553,2532,2532,2501,2501,2471,2452,2452,2452,2442,2442,2423,2423,2414,2414,2423,2423,0,0,0,0,2423,2423,2452,2452,2481,2481,2481,2481,2481,2452,2452,2340,2340,2314,2314,0,0,0,0,0,0,0,0,0,0,0,0,0,0,0,0,0,0,0,0,0,0,0,0,0,0,0,0,2491,2491,2491,2491,2491,2501,2501,2512,2512,2532,2532,2532,2543,2553,2553,2553,2522,2481,2481,2481,0,2386,2349,2349,2314,2314,2288,2255,2255,2223,2215,2215,2207,2207,2183,2168,2168,2131,2131,2109,2080,2080,2053,2053,2032,2013,2013,1993,1993,1974,1968,1968,1968,1961,1961,1961,1961,1955,1955,1955,1955,1955,1961,1961,1968,1968,1974,1980,1980,1980,1980,1980,1980,1961,1949,1949,1931,1913,1913,1895,1895,1878,1861,1861,1861,1861,1844,1828,1828,1817,1817,1801,1801,1817,1817,1812,1812,1796,1796,1786,1760,1760,1750,1750,1731,1702,1702,1702,0,0,0,0,1597,1597,1576,1556,1556,1545,1545,1541,1533,1533,1533,1529,1529,1526,1526,1518,1518,1518,1514,1511,1511,1503,1503,1500,1492,1492,1489,1489,1485,1485,1485,1478,1478,1478,1478,1478,1478,1475,1475,1475,1478,1478,1478,1478,1478,1478,1482,1482,1489,1500,1500,1526,1552,1552,1580,1613,1613,1648,1679,1679,1702,1726,1726,1740,1740,1731,1731,1726,1721,1721,1712,1697,1697,1688,1688,1688,1665,1665,1656,1656,1648,1643,1643,1639,1639,1639,1630,1630,1626,1622,1622,1617,1617,1613,1601,1601,1592,1580,1580,1572,1572,1560,1549,1549,1537,1537,1526,1511,1511,1500,1500,1492,1489,1489,1485,1482,1482,1478,1478,1478,1478,0,0,0,0,0,0,0,0,0,0,0,4646,4646,4510,4413,4413,4351,4351,4291,4203,4203,4119,4012,4012,3935,3935
