2675,2652,2652,0,0,0,0,0,0,0,0,0,0,0,0,0,0,0,0,0,2574,2574,2574,2585,2596,2596,2607,2629,2629,2663,2698,2698,2746,2746,2771,2796,2796,2808,2821,2821,2847,2847,2847,2860,2860,2847,2847,2834,2834,2834,2834,2834,2821,2808,2808,2796,2796,2771,2758,2758,2746,2734,2734,2710,2710,2686,2675,2675,2663,2640,2640,2629,2629,2618,2618,2618,2607,2607,2596,2596,2596,2596,2596,2596,2596,2607,2607,2607,2607,2607,2607,2618,2618,2618,0,2640,2640,2640,2652,2663,2663,2675,2686,2686,2686,2686,2710,2710,2710,2722,2722,2710,2710,2710,2722,2722,2710,2686,2686,2652,2652,2652,2652,2652,2652,2652,2652,2652,2663,2663,2675,2686,2686,2698,2722,2722,2746,2771,2771,2796,2796,2808,2821,2821,2834,2860,2860,2874,2860,2860,2860,2860,2860,2874,2874,2901,2928,2928,2942,2942,2956,2985,2985,3029,3059,3059,3105,3105,3105,3105,3089,3074,3074,3059,3059,3029,3014,3014,2985,2956,2956,2928,2928,2914,2901,2901,2887,2887,2887,2887,2887,2887,2901,2914,2914,2928,2942,2942,2956,2956,2956,2985,2985,3014,3044,3044,3044,3044,3044,3044,3044,3044,3044,3029,3029,3029,3014,3014,2999,2985,2985,2970,2970,2970,2970,2970,2970,2970,2970,2956,2956,2956,2956,2956,2928,2928,2928,2928,2928,2928,2914,2914,2914,2914,0,0,0,0,0,0,0,0,0,0,0,0,0,0,0,0,0,0,0,0,0,0,0,0,0,0,0,0,3376,3376,3376,3376,3376,3358,3358,3358,3358,3358,3376,3376,3376,3395,3395,3433,3433,3452,3471,3471,3491,3511,3511,3511,3491,3491,0,0,0,0,0,0,3414,3395,3395,3340,3340,3304,3269,3269,3218,3185,3185,3152,3152,3105,3059,3059,3029,3029,3014,2999,2999,2985,2985,2985,2970,2970,2970,2970,2970,2970,2985,2999,2999,2999,2999,2999,3014,3014,0,0,0,0,0,0,0,0,0,0,0,0,0,0,0,0,0,0,3074,3074,3074,3074,0,3074,3074,3074,3059,3059,3059,3059,0,0,0,0,0,0,0,0,0,0,3152,3152,3152,3168,3168,3168,3168,3152,3136,3136,3105,3089,3089,3074,3074,3059,3059,3059,3059,3044,3044,3044,3059,3059,3059,3059,3059,3074,3089,3074,3074,3059,3044,3044,3029,3029,3014,2999,2999,2970,2942,2942,2914,2914,2901,2874,2874,2847,2821,2821,2796,2796,2771,2746,2746,2710,2710,2686,2663,2663,2640,2640,2607,2585,2585,2564,2532,2532,2512,2512,2481,2462,2462,2442,2442,2414,2395,2395,2367,2367,2340,2314,2314,2280,2280,2255,2231,2231,2207,2183,2183,2160,2160,2145,2131,2131,2102,2102,2080,2060,2060,2039,2039,2019,2000,2000,1987,1974,1974,1968,1968,1961,1937,1937,1919,1919,1919,0,0,1844,1844,1812,1791,1791,1775,1775,1765,1750,1750,1736,1736,1726,1712,1712,1697,1684,1684,1674,1674,1661,1648,1648,1635,1635,1622,1609,1609,1601,1601,1588,1576,1576,1564,1556,1556,1549,1549,1541,1533,1533,1526,1526,1518,1514,1514,1511,1507,1507,1507,1507,1507,1507,1507,1507,1511,1514,1514,1522,1522,1541,1560,1560,1584,1609,1609,1639,1665,1665,1688,1707,1707,1716,1716,1707,1707,1702,1688,1688,1679,1670,1670,1665,1665,1656,1652,1652,1648,1648,1643,1639,1639,1635,1630,1630,1626,1626,1622,1613,1613,1601,1601,1576,1556,1556,1537,1537,1522,1503,1503,1492,1482,1482,1478,1478,1478,1482,1485,1485,1485,1485,1482,1482,1482,1485,1489,1489,1489,1489,1489,1492,1492,1496,1496,1496,1503,1507,1507,1511
2663,2652,2652,0,0,0,0,0,0,0,0,0,0,0,0,0,0,0,0,0,2596,2596,2596,2596,2607,2607,2618,2640,2640,2686,2722,2722,2758,2783,2783,2796,2796,2808,2834,2834,2847,2847,2847,2860,2860,2847,2847,2834,2821,2821,2821,2821,2821,2796,2796,2783,2771,2771,2758,2758,2746,2722,2722,2710,2710,2686,2675,2675,2652,2640,2640,2629,2629,2618,2607,2607,2596,2596,2596,2596,2596,2585,2585,2596,2596,2596,2607,2607,2607,2607,2607,2618,2618,2618,0,2640,2640,2640,2652,2663,2663,2675,2686,2686,2698,2698,2710,2710,2710,2722,2722,2710,2710,2710,0,0,0,0,0,2652,2652,2652,2652,2652,2652,2652,2652,2652,2663,2663,2675,2686,2686,2698,2722,2722,2746,2771,2771,2796,2796,2808,2821,2821,2834,2834,2834,2847,2834,2834,2834,2834,2834,2847,2847,2874,2901,2901,2914,2914,2928,2956,2956,2999,3029,3029,3059,3074,3074,3074,3059,3044,3044,3029,3029,3014,2985,2985,2956,2942,2942,2914,2914,2914,2887,2887,2887,2887,2887,2887,2887,2887,2901,2914,2914,2928,2942,2942,2956,2956,2956,2985,2985,3014,3029,3029,3044,3044,3044,3044,3044,3044,3044,3029,3029,3029,3014,3014,2999,2985,2985,2970,2970,2970,2970,2970,2970,2970,2970,2956,2956,2956,2956,2956,2928,2928,2928,2928,2928,2928,2914,2914,2914,2914,2914,2901,2901,2901,2887,2887,2887,2874,2874,2874,2874,2874,2887,2901,2901,2928,2970,2970,3029,3074,3074,3136,3235,3235,3286,3286,3286,3322,3322,3322,3322,3322,3322,3322,3340,3340,3340,3340,3358,3358,3358,3376,3376,3414,3414,3433,3433,3433,3452,3471,3471,3491,3471,3471,3471,3452,3433,3433,3414,3414,3376,3376,3395,3340,3340,3304,3269,3269,3218,3185,3185,3152,3152,3105,3059,3059,3029,3029,3014,2999,2999,2985,2985,2985,2970,2970,2970,2970,2970,2970,2985,2999,2999,2999,2999,2999,3014,3014,0,0,0,0,0,3059,3059,3059,3059,3059,3059,3059,3074,3074,3074,3074,3074,3074,3074,3074,3074,3059,3059,3059,3044,3044,3044,3044,3029,3029,3029,3014,3014,3014,3014,3029,3044,3044,3059,3059,3074,3105,3105,3105,3105,3105,3120,3089,3074,3074,3044,3029,3029,3029,3029,3014,3014,3014,3014,3014,3014,3014,3014,3014,3059,3059,3059,3074,3089,3074,3074,3059,3044,3044,3029,3029,3014,2999,2999,2970,2942,2942,2914,2914,2901,2874,2874,2847,2821,2821,2796,2796,2771,2746,2746,2710,2710,2686,2663,2663,2629,2629,2607,2585,2585,2564,2532,2532,2501,2501,2481,2462,2462,2442,2442,2414,2395,2395,2367,2367,2340,2314,2314,2280,2255,2255,2231,2231,2199,2183,2183,2160,2160,2145,2131,2131,2102,2102,2080,2060,2060,2039,2039,2019,2006,2006,1987,1974,1974,1974,1974,1961,1943,1943,1919,1919,1919,0,0,1839,1839,1812,1791,1791,1775,1775,1765,1750,1750,1736,1736,1726,1712,1712,1697,1684,1684,1674,1674,1661,1648,1648,1635,1635,1622,1609,1609,1601,1601,1588,1576,1576,1564,1556,1556,1549,1549,1541,1533,1533,1526,1526,1518,1514,1514,1511,1507,1507,1507,1507,1507,1507,1507,1507,1507,1514,1514,1522,1522,1541,1560,1560,1584,1609,1609,1639,1665,1665,1688,1707,1707,1716,1716,1712,1712,1707,1697,1697,1684,1674,1674,1670,1670,1661,1656,1656,1652,1648,1648,1639,1639,1635,1630,1630,1626,1626,1622,1613,1613,1601,1601,1576,1556,1556,1541,1541,1522,1503,1503,1492,1482,1482,1478,1478,1478,1482,1485,1485,1485,1485,1485,1485,1485,1485,1489,1489,1489,1489,1489,1492,1492,1496,1496,1496,1503,1507,1507,1511
2663,2652,2652,0,0,0,0,0,0,0,0,0,0,0,0,0,0,0,2596,2596,2596,2596,2596,2596,2607,2607,2618,2640,2640,2686,2722,2722,2758,2783,2783,2796,2796,2808,2834,2834,2847,2847,2847,2860,2847,2834,2834,2821,2821,2821,2808,2808,2796,2796,2796,2771,2758,2758,2746,2746,2734,2722,2722,2710,2710,2686,2675,2675,2652,2640,2640,2640,0,2618,2607,2607,2596,2596,2596,2596,2596,2585,2585,2596,2596,2596,0,0,0,2607,2607,0,2618,2618,0,0,0,2663,2663,2686,2686,2698,2698,2698,2698,2710,2710,2710,2710,2722,2722,2710,2710,2710,2686,2686,2675,2663,2663,2652,2652,2652,2652,2652,2652,2652,2652,2652,2663,2663,2675,2686,2686,2698,2722,2722,2746,2771,2771,2783,2783,2796,2808,2808,2821,2821,2821,2834,2821,2821,2821,2821,2821,2834,2834,2860,2874,2874,2887,2887,2914,2928,2928,2956,2999,2999,3029,3044,3044,3044,3044,3044,3044,3029,3029,3014,2985,2985,2956,2942,2942,2914,2914,2914,2887,2887,2887,2887,2887,2887,2887,2887,2901,2928,2928,2928,2942,2942,2956,2956,2970,2999,2999,3014,3029,3029,3044,3044,3044,3044,3044,3044,3044,3029,3014,3014,3014,3014,2999,2985,2985,2970,2970,2970,2970,2970,2956,2956,2956,2942,2942,2942,2928,2928,2914,2901,2901,2901,2901,2901,2901,2901,2901,2901,2901,2901,2901,2887,2887,2887,2874,2874,2874,2874,2874,2874,2874,2901,2901,2928,2956,2956,3014,3044,3044,3105,3201,3201,3235,3235,3286,3322,3322,3322,3322,3322,3322,3322,3340,3340,3340,3340,3358,3358,3358,3376,3376,3414,3414,3433,3433,3433,3452,3471,3471,3491,3471,3471,3471,3452,3433,3433,3414,3414,3376,3340,3340,3304,3304,3269,3218,3218,3168,3136,3136,3105,3105,3074,3044,3044,3014,3014,2985,2985,2985,2970,2970,2970,2970,2970,2970,2970,2970,2970,2985,2999,2999,2999,2999,2999,3014,3014,3029,3029,3029,3044,3059,3059,3059,3059,3059,3059,3059,3059,3074,3074,3074,3074,3074,3074,3074,3074,3074,3059,3059,3059,3044,3044,3044,3044,3029,3029,3029,3014,3014,3014,3014,3029,3044,3044,3059,3059,3074,3105,3105,3105,3105,3105,3120,3089,3074,3074,3044,3029,3029,3029,3029,3014,3014,3014,3014,3014,3014,3014,3014,3014,3029,3029,3029,3044,3044,3029,3029,3029,3014,3014,2999,2999,2999,2970,2970,2956,2928,2928,2914,2914,2887,2860,2860,2847,2821,2821,2796,2796,2771,2746,2746,2710,2710,2686,2663,2663,2629,2629,2607,2585,2585,2553,2532,2532,2501,2501,2481,2462,2462,2442,2442,2414,2386,2386,2367,2367,2340,2314,2314,2280,2255,2255,2231,2231,2199,2183,2183,2160,2160,2145,2131,2131,2102,2102,2080,2060,2060,2039,2039,2019,2006,2006,1993,1980,1980,1974,1974,1968,1943,1943,1925,1925,1925,0,0,1839,1839,1812,1791,1791,1775,1775,1765,1750,1750,1736,1726,1726,1712,1712,1697,1684,1684,1674,1674,1661,1648,1648,1635,1635,1622,1609,1609,1597,1597,1584,1572,1572,1564,1556,1556,1549,1549,1541,1533,1533,1529,1529,1522,1514,1514,1514,1511,1511,1507,1507,1507,1507,1507,1507,1507,1514,1514,1522,1522,1545,1560,1560,1584,1613,1613,1639,1670,1670,1693,1712,1712,1721,1721,1716,1712,1712,1702,1702,1688,1679,1679,1670,1670,1661,1656,1656,1652,1648,1648,1639,1639,1635,1630,1630,1626,1626,1622,1613,1613,1597,1576,1576,1556,1556,1541,1526,1522,1503,1503,1492,1482,1482,1478,1478,1478,1482,1485,1485,1485,1485,1485,1485,1485,1485,1489,1489,1489,1489,1489,1492,1492,1496,1496,1496,1500,1507,1507,1511
2663,2652,2652,0,0,0,0,0,0,0,0,0,0,0,0,0,0,0,2596,2596,2596,2607,2618,2618,2618,2618,2629,2663,2663,2698,2734,2734,2771,2783,2783,2808,2808,2808,2834,2834,2847,2847,2847,2860,2847,2834,2834,2821,2821,2821,2808,2808,2796,2796,2796,2771,2758,2758,2746,2746,2734,2722,2722,2710,2710,2686,2675,2675,2652,2640,2640,2618,2618,2607,2607,2607,2596,2585,2585,2585,2585,2585,2585,2585,2585,2596,2607,2607,0,2607,2607,2618,2618,2618,0,0,0,2663,2663,2686,2686,2698,2698,2698,2698,2710,2710,2722,2722,2710,2710,2698,2698,2686,2675,2675,2663,2652,2652,2652,2652,2652,2652,2652,2652,2652,2652,2652,2663,2663,2675,2686,2686,2710,2734,2734,2746,2771,2771,2783,2783,2796,2808,2808,2821,2821,2821,2834,2821,2821,2821,2821,2821,2834,2834,2860,2874,2874,2887,2887,2914,2928,2928,2956,2999,2999,3029,3044,3044,3044,3044,3029,3029,2999,2999,2985,2970,2970,2942,2928,2928,2914,2914,2901,2887,2887,2887,2887,2887,2887,2887,2887,2901,2928,2928,2928,2942,2942,2956,2956,2970,2999,2999,3014,3029,3029,3044,3044,3044,3044,3044,3044,3044,3029,3014,3014,3014,3014,2999,2985,2985,2970,2970,2970,2970,2970,2956,2942,2942,2942,2942,2942,2928,2928,2914,2901,2901,2901,2901,2901,2901,2901,2901,2901,2901,2901,2901,2887,2887,2887,2874,2874,2874,2874,2874,2874,2874,2901,2901,2928,2956,2956,3014,3044,3044,3105,3201,3201,3235,3235,3252,3286,3286,3304,3304,3304,3304,3322,3322,3322,3322,3322,3322,3322,3340,3358,3358,3358,3358,3395,3414,3414,3414,3433,3433,3433,3433,3395,3395,3395,3376,3376,3340,3340,3322,3286,3286,3252,3252,3218,3185,3185,3152,3105,3105,3074,3074,3044,3014,3014,2999,2999,2970,2970,2970,2956,2956,2956,2956,2956,2956,2956,2970,2970,2985,2999,2999,2999,2999,3014,3014,3014,3029,3029,3029,3044,3059,3059,3059,3059,3059,3059,3059,3059,3074,3074,3074,3074,3074,3074,3074,3074,3074,3074,3074,3074,3044,3044,3044,3029,3029,3014,3014,3014,3014,3014,3014,3014,3029,3029,3044,3044,3044,3074,3074,3074,3074,3074,3074,3059,3029,3029,3014,3014,2985,2985,2985,2985,2970,2970,2970,2970,2970,2970,2985,2985,2985,2985,2985,2985,2985,2985,2985,2985,2985,2985,2970,2970,2970,2942,2942,2942,2914,2914,2901,2901,2874,2860,2860,2834,2821,2821,2796,2796,2771,2746,2746,2710,2710,2686,2663,2663,2629,2629,2607,2585,2585,2553,2532,2532,2501,2501,2481,2462,2462,2442,2442,2414,2386,2386,2367,2367,2340,2314,2314,2280,2255,2255,2231,2231,2199,2183,2183,2160,2160,2145,2131,2131,2102,2102,2080,2060,2060,2039,2026,2019,2006,2006,1993,1980,1980,1974,1974,1968,1943,1943,1925,1925,1925,0,0,1839,1839,1807,1791,1791,1775,1775,1765,1750,1750,1736,1726,1726,1712,1712,1697,1684,1684,1674,1674,1661,1648,1648,1635,1635,1622,1609,1609,1597,1597,1584,1572,1572,1564,1556,1556,1549,1549,1541,1537,1537,1529,1529,1522,1514,1514,1514,1511,1511,1511,1511,1511,1511,1511,1511,1511,1514,1514,1522,1522,1545,1560,1560,1584,1613,1613,1639,1670,1670,1693,1712,1712,1716,1716,1716,1712,1712,1702,1702,1688,1679,1679,1670,1670,1661,1656,1656,1648,1643,1643,1639,1639,1630,1630,1630,1622,1622,1622,1609,1609,1597,1576,1576,1556,1556,1541,1526,1526,1503,1503,1492,1485,1485,1478,1478,1478,1482,1485,1485,1489,1489,1485,1485,1485,1489,1489,1489,1489,1492,1492,1492,1492,1496,1496,1496,1500,1507,1507,1511
2663,2652,2652,0,0,0,0,0,0,0,0,0,0,0,0,0,0,0,0,0,2640,2640,2652,2652,2652,2652,2663,0,0,2758,2758,2758,2771,2783,2783,2808,2808,2808,2834,2834,2834,2847,2847,2847,2847,2821,2821,2808,2808,2808,2796,2796,2796,2783,2783,2771,2746,2746,2734,2734,2734,2710,2710,2698,2698,2686,2675,2675,2652,2640,2640,2618,2618,2607,2596,2596,2596,2585,2585,2585,2585,2574,2574,2585,2585,2596,2607,2607,2618,2618,2618,2618,2618,0,0,0,0,2686,2686,2698,2698,2710,2710,2710,2710,2722,2722,2722,2722,2710,2710,2698,2698,2686,2675,2675,2663,2652,2652,2652,2652,2652,2652,2652,2652,2652,2652,2652,2663,2675,2675,2686,2686,2710,2734,2734,2746,2771,2771,2783,2783,2796,2808,2808,2808,2821,2821,2821,2808,2808,2808,2808,2808,2821,2821,2847,2860,2860,2860,2860,2874,2887,2887,2914,2956,2956,2985,2999,2999,2999,2999,2999,2999,2985,2985,2985,2970,2970,2942,2928,2928,2914,2914,2901,2901,2901,2901,2887,2887,2887,2901,2901,2914,2928,2928,2942,2942,2942,2956,2970,2970,2999,2999,3014,3029,3029,3044,3044,3044,3044,3044,3044,3044,3029,3029,3029,3014,3014,3014,2985,2985,2985,2970,2970,2970,2970,2956,2942,2942,2942,2942,2914,2914,2914,2901,2887,2887,2887,2887,2887,2887,2887,2887,2887,2887,2874,2874,2874,2874,2874,2874,2860,2860,2860,2860,2860,2874,2901,2901,2914,2956,2956,2985,3029,3029,3074,3168,3168,3201,3201,3218,3252,3252,3269,3286,3286,3286,3304,3304,3304,3304,3304,3322,3322,3322,3340,3340,3340,3340,3358,3376,3376,3376,3395,3395,3433,3433,3395,3395,3395,3376,3376,3340,3340,3322,3286,3286,3252,3252,3218,3185,3185,3152,3105,3105,3074,3074,3044,3014,3014,2999,2999,2970,2970,2970,2956,2956,2956,2956,2956,2956,2956,2970,2970,2985,2985,2985,2999,2999,2999,3014,3014,3014,3029,3029,3044,3044,3044,3059,3059,3059,3059,3059,3059,3059,3059,3074,3074,3074,3074,3074,3074,3074,3059,3059,3059,3059,3059,3029,3029,3029,3014,3014,3014,3014,3014,3014,3014,3029,3029,3029,3029,3044,3059,3059,3059,3059,3044,3044,3029,3014,3014,3014,3014,2985,2985,2985,2985,2970,2970,2970,2970,2970,2970,2985,2985,2985,2985,2985,2985,2985,2985,2985,2985,2985,2985,2970,2970,2970,2942,2942,2942,2914,2914,2901,2901,2874,2860,2860,2834,2808,2808,2783,2783,2758,2734,2734,2710,2710,2686,2663,2663,2629,2629,2607,2585,2585,2553,2532,2532,2501,2501,2481,2462,2462,2442,2442,2414,2386,2386,2367,2340,2340,2314,2314,2280,2255,2255,2231,2231,2207,2183,2183,2160,2160,2145,2123,2123,2102,2102,2080,2060,2060,2039,2026,2026,2006,2006,1993,1980,1980,1974,1974,1968,1943,1943,1943,0,0,0,0,1839,1839,1807,1791,1791,1775,1775,1765,1750,1750,1736,1726,1726,1712,1712,1697,1684,1684,1674,1674,1661,1648,1648,1635,1635,1622,1609,1609,1597,1597,1584,1572,1572,1564,1556,1556,1549,1549,1541,1537,1537,1529,1529,1522,1514,1514,1514,1511,1511,1511,1511,1511,1511,1511,1511,1511,1514,1514,1522,1522,1545,1564,1564,1588,1613,1613,1648,1674,1674,1697,1712,1712,1716,1716,1716,1712,1712,1697,1697,1688,1674,1674,1665,1665,1656,1652,1652,1648,1643,1643,1639,1639,1630,1630,1630,1622,1622,1622,1609,1609,1601,1576,1576,1556,1556,1541,1526,1526,1507,1507,1492,1489,1489,1482,1482,1482,1485,1485,1485,1492,1492,1489,1489,1489,1489,1489,1489,1489,1492,1492,1492,1492,1496,1496,1496,1500,1507,1507,1507
2652,2640,2640,0,0,0,0,0,0,0,0,0,0,0,0,0,0,0,0,0,2640,2640,2652,2652,2652,2652,2663,0,0,2758,2758,2758,2783,2808,2808,2821,2821,2821,2834,2834,2834,2834,2834,2834,2821,2808,2808,2796,2796,2796,2783,2783,2771,2771,2771,2758,2746,2746,2734,2734,2734,2710,2710,2698,2698,2686,2675,2675,2652,2640,2640,2618,2618,2607,2596,2596,2596,2596,0,2585,2585,2574,2574,2585,2585,2596,2618,2618,2618,2618,0,0,0,0,0,0,2698,2686,2686,2698,2698,2710,2710,2710,2710,2722,2722,2722,2722,2710,2710,2698,2698,2686,2675,2675,2663,2652,2652,2652,2652,2652,2652,2652,2652,2652,2652,2652,2663,2675,2675,2686,2686,2710,2734,2734,2746,2771,2771,2783,2783,2796,2796,2796,2808,2808,2808,2808,2808,2796,2796,2796,2796,2821,2821,2821,2834,2834,2860,2860,2874,2887,2887,2914,2956,2956,2985,2999,2999,2999,2999,2999,2999,2985,2985,2985,2970,2970,2942,2928,2928,2914,2914,2914,2901,2901,2901,2901,2901,2901,2901,2901,2914,2928,2928,2942,2942,2942,2956,2970,2970,2999,2999,3014,3029,3029,3044,3044,3044,3044,3044,3044,3044,3029,3029,3029,3014,3014,3014,2985,2985,2985,2970,2970,2956,2956,2956,2942,2942,2928,2928,2914,2887,2887,2887,2874,2874,2860,2860,2860,2860,2874,2874,2860,2860,2860,2874,2874,2860,2860,2860,2860,2860,2860,2860,2860,2874,2901,2901,2914,2956,2956,2985,3029,3029,3074,3168,3168,3201,3201,3218,3252,3252,3269,3286,3286,3286,3304,3304,3304,3304,3304,3322,3322,3322,3340,3340,3340,3340,3358,3376,3376,3376,3395,3376,3376,3358,3358,3358,3340,3322,3322,3286,3286,3252,3235,3235,3201,3201,3168,3136,3136,3105,3074,3074,3044,3044,3014,2985,2985,2970,2970,2956,2942,2942,2942,2956,2956,2956,2956,2956,2956,2970,2970,2985,2985,2985,2999,2999,2999,3014,3014,3014,3029,3029,3044,3044,3044,3059,3059,3059,3059,3059,3059,3059,3059,3074,3074,3074,3074,3074,3074,3074,3059,3059,3059,3059,3059,3029,3029,3029,3029,3029,3014,3014,3014,3014,3014,3029,3029,3029,3029,3044,3059,3059,3059,3059,3044,3044,3029,3014,3014,2985,2985,2970,2956,2956,2942,2928,2928,2928,2928,2928,2914,2914,2914,2928,2942,2942,2956,2956,2942,2942,2942,2928,2928,2928,2928,2942,2928,2928,2914,2901,2901,2887,2887,2874,2847,2847,2834,2808,2808,2783,2783,2758,2734,2734,2710,2710,2686,2652,2652,2629,2607,2607,2585,2585,2553,2532,2532,2501,2501,2481,2462,2462,2442,2442,2414,2395,2395,2367,2340,2340,2314,2314,2280,2263,2263,2231,2231,2207,2183,2183,2160,2160,2145,2123,2123,2102,2102,2080,2060,2060,2046,2026,2026,2006,2006,1993,1980,1980,1974,1974,1968,1943,1943,1943,0,0,0,0,1839,1839,1807,1791,1791,1775,1775,1765,1750,1750,1736,1726,1726,1712,1712,1697,1684,1684,1674,1674,1661,1648,1648,1635,1635,1622,1609,1609,1597,1584,1584,1572,1572,1564,1552,1552,1549,1549,1541,1533,1533,1529,1526,1526,1518,1518,1514,1514,1514,1511,1511,1511,1511,1511,1511,1511,1514,1514,1526,1545,1545,1564,1564,1588,1617,1617,1648,1674,1674,1697,1716,1716,1721,1721,1716,1712,1712,1697,1697,1688,1674,1674,1665,1665,1656,1652,1652,1648,1639,1639,1635,1635,1630,1626,1626,1617,1617,1617,1609,1609,1597,1576,1576,1556,1556,1541,1526,1526,1507,1507,1492,1489,1489,1482,1482,1482,1485,1485,1485,1492,1492,1489,1489,1489,1489,1489,1489,1489,1492,1492,1496,1496,1496,1496,1496,1500,1503,1503,1507
2652,2640,2640,0,0,0,0,0,0,0,0,0,0,0,0,0,0,0,0,0,2675,2675,2686,2686,2686,2686,0,0,0,0,0,2808,2808,2821,2821,2821,2821,2834,2834,2834,2834,2834,2834,2834,2821,2808,2808,2796,2796,2796,2783,2783,2771,2771,2771,2758,2746,2746,2734,2734,2734,2710,2710,2686,2686,2675,2675,2675,2652,2640,2640,2618,2618,2607,2596,2596,2596,2596,0,2585,2585,2574,2574,2574,2574,2596,2618,2618,2618,2618,2629,0,0,0,0,0,2698,2698,2698,2710,2710,2722,2722,2722,2722,2722,2722,2722,2722,2698,2698,2686,2686,0,0,0,2652,2652,2652,2652,2652,2652,2652,2652,2652,2652,2652,2652,2663,2675,2675,2698,2698,2710,2734,2734,2746,2771,2771,2783,2783,2796,2796,2796,2808,2808,2808,2808,2808,2796,2796,2796,2796,2821,2821,2821,2834,2834,2860,2860,2860,2874,2874,2901,2928,2928,2956,2985,2985,2985,2985,2999,2999,2985,2985,2985,2970,2970,2942,2928,2928,2914,2914,2914,2901,2901,2901,2901,2901,2901,2901,2901,2914,2942,2942,2942,2942,2942,2970,2970,2970,2999,2999,3014,3029,3029,3044,3044,3044,3044,3044,3044,3044,3029,3029,3029,3014,3014,2999,2985,2985,2985,2970,2970,2956,2956,2956,2942,2942,2928,2928,2914,2887,2887,2887,2874,2874,2860,2860,2860,2860,2874,2874,2860,2860,2860,2874,2874,2860,2860,2860,2860,2860,2860,2860,2860,2874,2887,2887,2914,2942,2942,2970,3029,3029,3074,3136,3136,3168,3168,3201,3218,3218,3218,3235,3235,3252,3269,3269,3269,3269,3269,3286,3286,3286,3304,3304,3322,3322,3322,3340,3340,3340,3340,3340,3340,3322,3304,3304,3286,3269,3269,3235,3235,3201,3185,3185,3152,3152,3120,3089,3089,3074,3044,3044,3014,3014,2999,2985,2985,2970,2970,2956,2942,2942,2942,2956,2956,2956,2956,2956,2956,2970,2970,2985,2985,2985,2999,2999,2999,3014,3014,3014,3029,3029,3044,3044,3044,3059,3059,3059,3059,3059,3059,3059,3059,3074,3074,3074,3074,3074,3074,3074,3059,3059,3059,3059,3059,3029,3029,3029,3029,3029,2999,2985,2985,2985,2999,2999,2999,3014,3014,3029,3029,3029,3029,3029,3029,3029,3014,2985,2985,2956,2956,2942,2914,2914,2914,2901,2901,2887,2887,2887,2887,2901,2901,2901,2914,2914,2928,2928,2928,2928,2928,2928,2928,2914,2914,2942,2928,2928,2914,2901,2901,2887,2887,2874,2847,2847,2834,2808,2808,2783,2783,2758,2734,2734,2710,2710,2686,2652,2652,2629,2607,2607,2585,2585,2564,2532,2532,2501,2501,2481,2462,2462,2442,2442,2414,2395,2395,2367,2340,2340,2314,2314,2280,2263,2263,2231,2231,2207,2183,2183,2160,2160,2145,2123,2123,2102,2102,2080,2060,2060,2039,2026,2026,2006,2006,1993,1980,1980,1974,1974,1961,1943,1943,1943,0,0,0,0,1833,1833,1807,1791,1791,1781,1770,1765,1750,1750,1740,1726,1726,1712,1712,1697,1684,1684,1674,1674,1661,1648,1648,1635,1635,1622,1609,1609,1597,1584,1584,1572,1572,1564,1552,1552,1549,1549,1541,1533,1533,1529,1526,1526,1522,1522,1518,1514,1514,1511,1511,1511,1511,1511,1511,1511,1514,1514,1526,1545,1545,1564,1564,1584,1613,1613,1648,1670,1670,1693,1712,1712,1716,1716,1716,1702,1702,1697,1697,1684,1674,1674,1665,1665,1656,1652,1652,1643,1639,1639,1630,1630,1626,1622,1622,1617,1613,1613,1605,1605,1597,1572,1572,1556,1556,1541,1526,1526,1507,1507,1496,1489,1489,1482,1482,1482,1485,1489,1489,1492,1492,1489,1489,1489,1489,1492,1492,1492,1496,1496,1496,1496,1496,1496,1496,1500,1503,1503,1507
2652,2652,0,0,0,0,0,0,0,0,0,0,0,0,0,0,0,0,0,0,2675,2675,2686,2686,2686,2686,2722,0,0,0,0,2808,2808,2821,2821,2821,2821,2834,2834,2834,2834,2834,2834,2834,2808,2796,2796,2783,2771,2771,2771,2771,2758,2746,2746,2734,2722,2722,2722,2734,2710,2698,2698,2686,2675,2675,2663,2663,2652,2640,2640,2618,2618,2607,2596,2596,2596,2585,2585,2585,0,2574,2574,2574,2574,2596,2618,2618,2629,2629,2629,0,0,0,0,0,0,0,0,0,2734,2722,2722,2722,2722,2722,2722,2734,2722,2698,2698,2686,2686,0,0,0,2652,2652,2652,2640,2640,2652,2652,2652,2652,2652,2652,2652,2663,2675,2675,2698,2698,2710,2734,2734,2746,2771,2771,2783,2783,2796,2796,2796,2796,2796,2796,2796,2796,2796,2796,2796,2796,2808,2808,2821,2834,2834,2847,2847,2860,2874,2874,2901,2928,2928,2956,2985,2985,2985,2985,2999,2999,2999,2985,2985,2970,2970,2956,2928,2928,2914,2914,2914,2914,2914,2914,2901,2901,2901,2901,2901,2928,2942,2942,2942,2956,2956,2970,2985,2985,2999,2999,3014,3029,3029,3044,3059,3044,3044,3044,3044,3044,3029,3029,3029,3014,3014,2999,2985,2985,2985,2970,2970,2956,2956,2956,2928,2928,2914,2901,2901,2874,2874,2874,2860,2860,2847,2847,2847,2847,2860,2860,2860,2860,2860,2860,2860,2860,2860,2860,2860,2860,2860,2860,2860,2874,2887,2887,2914,2942,2942,2970,3014,3014,3059,3120,3120,3152,3152,3168,3201,3201,3218,3218,3218,3235,3252,3252,3252,3252,3252,3286,3286,3286,3304,3304,3322,3322,3322,3340,3340,3340,3340,3340,3340,3322,3304,3304,3286,3269,3269,3235,3235,3201,3185,3185,3152,3152,3120,3089,3089,3074,3044,3044,3014,3014,2999,2985,2985,2956,2956,2942,2942,2942,2942,2942,2942,2942,2956,2956,2956,2970,2970,2985,2985,2985,2999,2999,2999,3014,3014,3014,3029,3029,3029,3044,3044,3044,3044,3044,3044,3044,3059,3059,3059,3059,3059,3059,3059,3059,3059,3059,3059,3059,3044,3044,3044,3029,3014,3014,3014,3014,2999,2985,2985,2985,2999,2999,2999,3014,3014,3029,3029,3029,3029,3029,3029,3029,3014,2985,2985,2956,2956,2942,2914,2914,2914,2901,2901,2887,2887,2887,2887,2901,2901,2901,2914,2914,2928,2928,2928,2928,2928,2928,2928,2914,2914,2928,2914,2914,2901,2887,2887,2874,2874,2860,2847,2847,2821,2796,2796,2771,2771,2746,2722,2722,2698,2698,2675,2652,2652,2629,2607,2607,2585,2585,2564,2532,2532,2501,2501,2481,2462,2462,2442,2442,2414,2395,2395,2367,2340,2340,2314,2314,2280,2263,2263,2231,2231,2207,2183,2183,2160,2160,2145,2123,2123,2102,2102,2080,2060,2060,2039,2026,2026,2006,2006,1993,1980,1980,1974,1974,1961,1943,1943,1943,0,0,0,0,1833,1833,1807,1791,1791,1781,1770,1770,1755,1755,1740,1726,1726,1712,1712,1697,1684,1684,1674,1674,1661,1648,1648,1635,1635,1622,1609,1609,1597,1584,1584,1572,1572,1560,1552,1552,1549,1549,1541,1533,1533,1529,1526,1526,1522,1522,1518,1514,1514,1514,1514,1511,1511,1514,1514,1514,1518,1518,1529,1545,1545,1564,1584,1584,1605,1605,1639,1665,1670,1688,1707,1707,1712,1712,1707,1702,1702,1697,1697,1684,1674,1674,1665,1665,1656,1652,1652,1643,1639,1639,1630,1630,1626,1622,1622,1617,1613,1613,1605,1605,1597,1572,1572,1556,1556,1541,1541,0,1507,1507,1496,1489,1489,1482,1482,1482,1485,1489,1489,1492,1492,1489,1489,1489,1489,1492,1492,1492,1492,1492,1496,1496,1492,1492,1492,1500,1503,1503,1507
2640,2640,0,0,0,0,0,0,0,0,0,0,0,0,0,0,0,0,0,0,2698,2698,2710,2710,2722,2722,2722,2783,2783,0,0,2847,2834,2834,2834,2834,2834,2834,2834,2834,2821,2821,2821,2821,2796,2796,2796,2783,2771,2771,2771,2771,2758,2746,2746,2734,2722,2722,2722,0,2710,2698,2698,2686,2675,2675,2663,2663,2652,2640,2640,2618,2618,2607,2596,2596,2596,2585,2585,2585,0,2574,2574,2574,2574,2596,2618,2618,2629,2629,2629,0,0,0,0,0,0,0,0,0,2734,2722,2722,2722,2722,2722,2722,2722,2710,2698,2698,2686,2686,0,0,0,2652,2652,2652,2640,2640,2652,2652,2652,2652,2652,2652,2652,2663,2675,2675,2698,2698,2710,2734,2734,2746,2771,2771,2783,2796,2796,2796,2796,2796,2796,2796,2796,2796,2796,2796,2796,2796,2808,2808,2821,2834,2834,2847,2847,2860,2874,2874,2901,2942,2942,2956,2985,2985,2999,2999,2999,2999,2999,2999,2999,2985,2985,2970,2956,2956,2914,2914,2914,2914,2914,2914,2901,2901,2901,2901,2901,2928,2942,2942,2942,2956,2956,2970,2985,2985,2999,2999,3014,3029,3029,3044,3059,3044,3044,3044,3044,3044,3029,3029,3029,3014,3014,2999,2985,2985,2985,2970,2970,2956,2956,2956,2928,2928,2914,2901,2901,2874,2874,2860,2847,2847,2834,2834,2834,2847,2847,2847,2847,2860,2860,2860,2860,2860,2860,2860,2860,2860,2860,2860,2874,2874,2887,2887,2914,2956,2956,2985,3014,3014,3059,3120,3120,3152,3152,3168,3201,3201,3218,3218,3218,3235,3252,3252,3252,3252,3252,3269,3269,3269,3269,3269,3269,3269,3286,3286,3286,3304,3304,3286,3286,3286,3269,3269,3235,3218,3218,3185,3185,3168,3136,3136,3105,3105,3074,3059,3059,3029,3014,3014,2985,2985,2970,2942,2942,2942,2942,2928,2928,2928,2928,2928,2928,2928,2942,2942,2942,2956,2956,2970,2970,2970,2985,2999,2999,3014,3014,3014,3029,3029,3029,3044,3044,3044,3044,3044,3044,3044,3059,3059,3059,3059,3059,3059,3059,3059,3059,3059,3059,3059,3044,3044,3044,3029,3014,3014,3014,3014,3014,2999,2999,2999,2999,2999,2999,3014,3014,3014,3014,3014,3014,3014,3014,3014,2985,2970,2970,2942,2942,2914,2901,2901,2887,2874,2874,2860,2860,2860,2860,2860,2860,2860,2887,2887,2901,2914,2914,2914,2914,2914,2928,2914,2914,2914,2901,2901,2901,2874,2874,2860,2860,2847,2834,2834,2808,2783,2783,2758,2758,2734,2722,2722,2698,2698,2675,2652,2652,2629,2607,2607,2585,2585,2564,2532,2532,2501,2501,2481,2462,2462,2442,2442,2414,2395,2395,2376,2340,2340,2314,2314,2280,2263,2263,2231,2231,2207,2183,2183,2160,2160,2145,2123,2123,2102,2102,2073,2060,2060,2039,2026,2026,2006,2006,1993,1980,1980,1968,1968,1961,1937,1937,1937,0,0,0,0,1833,1833,1807,1791,1791,1781,1765,1765,1755,1755,1740,1726,1726,1712,1712,1697,1684,1684,1674,1674,1661,1648,1648,1635,1635,1622,1609,1609,1597,1584,1584,1572,1572,1560,1552,1552,1549,1549,1541,1533,1533,1529,1526,1526,1522,1522,1518,1514,1514,1514,1514,1514,1514,1514,1514,1514,1518,1518,1529,1545,1545,1564,1584,1584,1605,1605,1639,1665,1688,1688,1707,1707,1712,1712,1707,1702,1702,1693,1693,1684,1674,1674,1661,1661,1656,1648,1648,1643,1639,1639,1630,1630,1626,1622,1622,1617,1613,1613,1605,1605,1597,1568,1568,1556,1556,1541,1541,0,1507,1507,1500,1489,1489,1485,1485,1485,1489,1489,1489,1496,1496,1492,1492,1492,1492,1492,1492,1492,1492,1492,1496,1496,1492,1492,1492,1500,1503,1503,1507
2640,2640,0,0,0,0,0,0,0,0,0,0,0,0,0,0,0,0,0,0,0,0,0,2746,2746,2758,2758,2783,2783,0,0,2847,2847,0,2847,2847,2834,2834,2834,2834,2821,2821,2821,2821,2796,2783,2783,2771,2758,2758,2758,2758,2746,2734,2734,2722,2710,2710,2710,2710,2710,2698,2698,2686,2675,2675,2663,2663,2652,2640,2640,2618,2618,2607,2596,2596,2596,2585,2585,2585,0,0,2574,2574,2574,2596,2629,2629,2640,2652,2652,2675,2675,0,0,0,0,0,0,0,2734,2734,2734,2722,2722,2722,2710,2710,2710,2698,2698,2698,0,0,0,0,2652,2652,0,2640,2640,2652,2652,2652,2652,2652,2652,2652,2675,2686,2686,2698,2698,2722,2734,2734,2758,2771,2771,2783,2796,2796,2796,2796,2796,2796,2796,2796,2796,2796,2796,2796,2796,2808,2808,2821,2834,2834,2847,2847,2860,2874,2874,2901,2942,2942,2956,2985,2985,2999,2999,2999,2999,2999,2999,2999,2985,2985,2970,2956,2956,2928,2928,2928,2928,2928,2928,2928,2928,2928,2928,2942,2942,2942,2942,2970,2970,2970,2985,2999,2999,3014,3014,3029,3044,3044,3044,3059,3059,3059,3059,3059,3059,3044,3044,3044,3044,3044,3029,3029,3029,3014,2999,2999,2999,2999,2970,2942,2942,2914,2901,2901,2874,2874,2860,2847,2847,2834,2834,2834,2847,2847,2847,2847,2860,2860,2860,2860,2860,2860,2860,2860,2860,2860,2860,2874,2874,2887,2887,2914,2956,2956,2985,3014,3014,3059,3105,3105,3136,3136,3168,3185,3185,3201,3218,3218,3235,3252,3252,3252,3252,3252,3269,3269,3269,3269,3269,3269,3269,3286,3286,3286,3286,3286,3286,3286,3269,3235,3235,3218,3185,3185,3168,3168,3136,3105,3105,3105,3105,3074,3059,3059,3029,3014,3014,2985,2985,2970,2942,2942,2942,2942,2928,2928,2928,2928,2928,2928,2928,2942,2942,2942,2956,2956,2970,2970,2970,2985,2999,2999,3014,3014,3014,3029,3029,3029,3044,3044,3044,3044,3044,3044,3044,3059,3059,3059,3059,3059,3059,3059,3059,3059,3059,3059,3059,3044,3044,3044,3029,3014,3014,3014,3014,3014,2999,2999,2999,2999,2999,2999,2999,2999,2999,3014,3014,2999,2999,2985,2985,2970,2956,2956,2928,2901,2901,2887,2887,2874,2860,2860,2860,2860,2847,2847,2847,2847,2860,2887,2887,2901,2914,2914,2914,2914,2914,2928,2928,2914,2914,2901,2901,2901,2874,2874,2860,2860,2847,2834,2834,2808,2783,2783,2758,2758,2734,2722,2722,2698,2698,2675,2652,2652,2629,2607,2607,2585,2585,2564,2532,2532,2501,2501,2481,2452,2452,2433,2414,2414,2395,2395,2367,2340,2340,2314,2314,2280,2263,2263,2231,2231,2207,2183,2183,2160,2160,2145,2123,2123,2102,2073,2073,2060,2060,2039,2026,2026,2006,2006,1993,1980,1980,1961,1961,1955,1931,1931,1931,0,0,0,0,1833,1833,1812,1796,1796,1781,1765,1765,1755,1755,1740,1726,1726,1712,1712,1697,1684,1684,1674,1674,1661,1648,1648,1635,1635,1622,1609,1609,1597,1584,1584,1572,1572,1560,1552,1552,1549,1549,1541,1533,1533,1529,1526,1526,1522,1522,1518,1514,1514,1514,1514,1514,1514,1514,1514,1514,1518,1518,1529,1541,1541,1556,1572,1572,1597,1597,1630,1656,1679,1679,1693,1693,1702,1702,1702,1693,1693,1688,1688,1679,1670,1670,1656,1656,1648,1643,1643,1643,1635,1635,1626,1626,1622,1617,1617,1613,1609,1609,1601,1601,1597,1568,1568,1556,1556,1541,1541,0,1511,1511,1500,1492,1492,1489,1489,1489,1489,1496,1496,1496,1496,1492,1492,1492,1492,1492,1492,1492,1496,1496,1496,1496,1496,1496,1496,1500,1503,1503,1507
2640,2640,0,0,0,0,0,0,0,0,0,0,0,0,0,0,0,0,0,0,0,0,0,2746,2746,2758,2758,2783,2783,2821,0,2847,2847,2847,2847,2834,2834,2834,2834,2821,2808,2808,2808,2808,2796,2771,2771,2746,2746,2746,2734,2734,2734,2722,2722,2710,2698,2698,2698,2698,2698,2698,0,2686,2675,2675,2663,2663,2652,2640,2640,2629,2629,2618,2607,2607,2596,2585,2585,2585,0,0,0,0,2596,2596,2629,2629,2652,2663,2663,2675,2675,0,0,0,0,0,0,0,2746,2734,2734,2722,2722,2722,2710,2710,2710,2686,2686,2686,2652,2652,2652,2652,2640,2640,0,2640,2640,2640,2640,2652,2652,2652,2652,2652,2675,2686,2686,2698,2698,2722,2734,2734,2758,2771,2771,2783,2783,2783,2796,2796,2796,2796,2796,2796,2796,2796,2796,2796,2808,2808,2808,2821,2834,2834,2847,2847,2860,2874,2874,2901,2942,2942,2970,2985,2985,3014,3014,3014,3014,3014,3014,3014,3014,3014,2985,2970,2970,2942,2942,2942,2942,2942,2928,2928,2942,2942,2942,2956,2956,2970,2970,2985,2985,2985,2999,3014,3014,3014,3014,3044,3044,3044,3044,3059,3059,3059,3059,3059,3059,3044,3044,3044,3044,3044,3029,3029,3029,3014,2999,2999,2999,2999,2970,2942,2942,2914,2901,2901,2860,2860,2860,2834,2834,2834,2834,2834,2834,2834,2834,2847,2847,2847,2847,2860,2860,2860,2860,2860,2860,2860,2860,2860,2860,2887,2887,2914,2942,2942,2970,2999,2999,3029,3074,3074,3120,3120,3168,3185,3185,3201,3218,3218,3235,3252,3252,3252,3252,3269,3269,3269,3269,3286,3269,3269,3269,3286,3286,3286,3286,3286,3286,3286,3269,3235,3235,3218,3185,3185,3168,3168,3136,3105,3105,3074,3074,3044,3029,3029,3014,2985,2985,2985,2985,2970,2942,2942,2942,2942,2928,2928,2928,2928,2928,2928,2928,2942,2942,2942,2956,2956,2970,2970,2970,2985,2999,2999,3014,3014,3014,3029,3029,3044,3044,3044,3059,3059,3059,3059,3059,3059,3074,3074,3074,3074,3074,3074,3059,3059,3059,3059,3059,3044,3044,3044,3029,3014,3014,3014,3014,3014,2999,2999,2999,2999,2999,2999,2999,2999,2999,3014,3014,2999,2999,2985,2985,2970,2956,2956,2928,2901,2901,2887,2887,2874,2860,2860,2860,2860,2847,2847,2847,2847,2860,2887,2887,2887,2887,2887,2901,2901,2901,2914,2914,2914,2914,2901,2901,2901,2874,2874,2860,2860,2847,2821,2821,2808,2783,2783,2758,2758,2734,2710,2710,2686,2686,2663,2640,2640,2618,2596,2596,2574,2574,2553,2532,2532,2501,2501,2481,2452,2452,2433,2414,2414,2386,2386,2367,2340,2340,2305,2305,2280,2263,2263,2231,2231,2207,2183,2183,2160,2160,2145,2123,2123,2102,2073,2073,2060,2060,2039,2026,2026,2006,2006,1993,1980,1980,1961,1961,1955,1931,1931,1931,0,0,0,0,1833,1833,1812,1796,1796,1781,1765,1765,1755,1755,1740,1726,1726,1712,1712,1697,1684,1684,1674,1674,1661,1648,1648,1635,1622,1622,1609,1609,1597,1584,1584,1572,1572,1560,1552,1552,1545,1545,1541,1533,1533,1529,1526,1526,1522,1522,1518,1514,1514,1514,1514,1514,1514,1514,1514,1514,1518,1518,1526,1541,1541,1552,1564,1564,1597,1597,1630,1656,1679,1679,1693,1693,1702,1702,1702,1693,1693,1688,1688,1679,1670,1670,1656,1656,1648,1643,1643,1643,1635,1635,1626,1626,1622,1617,1617,1613,1609,1609,1601,1601,1588,1568,1568,1556,1556,1541,1541,0,1511,1511,1500,1492,1492,1489,1489,1489,1489,1496,1496,1496,1496,1492,1492,1492,1492,1492,1492,1492,1496,1496,1496,1496,1492,1492,1492,1500,1503,1503,1507
2629,2629,0,0,0,0,0,0,0,0,0,0,0,0,0,0,0,0,0,0,0,0,0,2771,2771,2783,2783,2808,2821,2821,2847,2847,2847,2847,2847,2834,2834,2834,2834,2821,2808,2808,2808,2808,2796,2771,2771,2746,2746,2746,2734,2734,2734,2722,2722,2710,2698,2698,2698,2698,2698,2698,0,0,2675,2675,2663,2663,2652,2640,2640,2629,2629,2618,2607,2607,2596,2585,2585,2585,0,0,0,0,2596,2596,2629,2629,2652,2663,2663,2675,2675,2686,0,0,0,0,0,0,2746,2722,2722,2722,2710,2710,2698,2698,2698,2675,2675,2675,2652,2652,2640,2640,2640,2640,0,2640,2640,2640,2640,2652,2652,2652,2663,2663,2675,2686,2686,2710,2710,2722,2746,2746,2758,2771,2771,2783,2783,2783,2796,2796,2796,2796,2796,2796,2796,2796,2796,2796,2808,2821,2821,2834,2847,2847,2860,2860,2874,2887,2887,2901,2942,2942,2970,2999,2999,3014,3014,3014,3014,3014,3014,3014,3014,3014,2985,2970,2970,2942,2942,2942,2942,2942,2928,2928,2942,2942,2942,2956,2956,2970,2970,2985,2985,2985,2999,3014,3014,3014,3014,3029,3044,3044,3044,3074,3059,3059,3059,3059,3059,3059,3059,3059,3044,3044,3059,3044,3044,3029,3014,3014,2999,2999,2970,2928,2928,2914,2887,2887,2860,2860,2860,2834,2834,2834,2834,2834,2834,2834,2834,2847,2847,2847,2847,2860,2860,2860,2860,2860,2860,2860,2860,2860,2860,2887,2887,2914,2942,2942,2970,2999,2999,3029,3074,3074,3120,3120,3136,3168,3168,3185,3201,3201,3218,3235,3235,3235,3235,3252,3252,3252,3252,3252,3252,3269,3269,3269,3269,3269,3269,3269,3252,3252,3218,3201,3201,3168,3168,3136,3105,3105,3089,3059,3059,3044,3044,3014,2999,2999,2970,2970,2970,2956,2956,2942,2928,2928,2914,2914,2914,2914,2914,2914,2928,2928,2928,2942,2942,2942,2970,2970,2970,2985,2985,2999,3014,3014,3014,3014,3029,3044,3044,3059,3059,3059,3074,3074,3074,3074,3074,3074,3074,3074,3089,3074,3074,3074,3074,3089,3089,3074,3074,3074,3044,3044,3029,3014,3014,3014,3014,3014,2999,2999,2999,2999,2999,2999,2999,2999,2999,3014,3014,2999,2999,2985,2985,2970,2956,2956,2928,2901,2901,2887,2887,2874,2860,2860,2860,2860,2847,2847,2847,2847,2860,2887,2887,2887,2887,2887,2901,2901,2901,2914,2914,2914,2914,2914,2914,2901,2874,2874,2860,2847,2847,2821,2821,2796,2783,2783,2758,2758,2734,2710,2710,2686,2686,2663,2640,2640,2618,2596,2596,2574,2574,2553,2532,2532,2501,2501,2481,2452,2452,2433,2414,2414,2386,2386,2367,2340,2340,2305,2305,2280,2263,2263,2231,2231,2207,2183,2183,2160,2160,2145,2116,2116,2094,2073,2073,2060,2060,2039,2019,2019,2006,2006,1987,1974,1974,1961,1961,1943,1925,1925,1901,1901,1878,1855,1855,1833,1817,1812,1801,1801,1786,1770,1770,1760,1760,1745,1731,1731,1716,1716,1697,1688,1688,1674,1674,1661,1648,1648,1635,1622,1622,1609,1609,1597,1584,1584,1572,1572,1560,1552,1552,1545,1545,1541,1533,1533,1529,1526,1526,1522,1522,1518,1514,1514,1514,1514,1514,1514,1514,1514,1514,1518,1518,1526,1541,1541,1552,1564,1564,1584,1584,1617,1648,1670,1670,1679,1679,1684,1693,1688,1688,1688,1684,1684,1674,1665,1665,1652,1652,1648,1643,1643,1639,1630,1630,1626,1626,1622,1617,1617,1613,1609,1609,1601,1601,1588,1568,1568,1556,1556,1537,1522,1522,1511,1511,1503,1496,1496,1489,1489,1492,1492,1500,1500,1500,1500,1492,1492,1496,1492,1492,1492,1492,1496,1496,1496,1496,1492,1492,1492,1500,1503,1503,1507
2629,2629,0,0,0,0,0,0,0,0,0,0,0,0,0,0,0,0,0,0,0,0,0,2796,2796,2796,2796,2821,2834,2834,2847,2847,2847,2847,2847,2834,2834,2821,2821,2821,2808,2808,2796,2796,2783,2758,2758,2734,2734,2734,2722,2722,2722,2710,2710,2698,2686,2686,2686,2686,2686,2686,2686,2686,2675,2675,2663,2663,2652,2640,2640,2629,2618,2618,2607,2607,2596,2585,2585,2585,2585,2585,0,0,0,0,0,2652,2652,2663,2663,2675,2675,2686,2698,2698,0,0,0,0,0,2722,2722,2722,2710,2710,2698,2698,2698,2675,2675,2675,0,0,2640,2640,2640,2640,0,2640,2640,2652,2652,2652,2652,2652,2663,2663,2675,2698,2698,2710,2710,2722,2746,2746,2758,2771,2771,2783,2783,2783,2796,2796,2796,2796,2796,2796,2796,2796,2796,2796,2808,2821,2821,2834,2847,2847,2860,2860,2874,2887,2887,2901,2942,2942,2970,2999,2999,3014,3014,3029,3029,3014,3014,3014,3014,3014,2985,2985,2985,2970,2956,2956,2942,2942,2942,2942,2956,2956,2956,2970,2970,2985,2985,2985,2999,2999,2999,3014,3014,3029,3029,3029,3044,3044,3059,3074,3074,3059,3059,3059,3074,3074,3059,3059,3059,3059,3059,3044,3044,3029,3014,3014,3014,3014,2970,2928,2928,2914,2887,2887,2860,2860,2834,2834,2834,2821,2821,2808,2808,2834,2834,2834,2834,2834,2847,2847,2847,2860,2860,2860,2860,2860,2860,2860,2860,2887,2887,2914,2942,2942,2970,2985,2985,3029,3074,3074,3105,3105,3136,3152,3152,3168,3185,3185,3201,3235,3235,3235,3235,3235,3235,3235,3252,3252,3252,3252,3252,3235,3235,3235,3218,3218,3218,3252,3218,3201,3201,3168,3168,3136,3105,3105,3089,3059,3059,3044,3044,3014,2999,2999,2970,2970,2970,2956,2956,2942,2928,2928,2914,2914,2914,2914,2914,2914,2928,2928,2928,2942,2942,2942,2970,2970,2970,2985,2985,2999,3014,3014,3014,3014,3029,3044,3044,3059,3059,3059,3074,3074,3074,3074,3074,3074,3074,3074,3089,3074,3074,3074,3074,3089,3089,3074,3074,3074,3074,3074,3059,3044,3044,3029,3029,3014,3014,3014,2999,2999,2999,2999,2999,2999,3014,3014,3014,3014,3014,2999,2999,2985,2956,2956,2942,2914,2914,2887,2887,2887,2874,2874,2860,2860,2860,2860,2860,2860,2874,2887,2887,2901,2901,2901,2914,2914,2914,2928,2914,2914,2914,2914,2914,2901,2887,2887,2860,2847,2847,2821,2821,2796,2771,2771,2746,2746,2722,2698,2698,2675,2675,2663,2640,2640,2618,2596,2596,2574,2574,2553,2532,2532,2501,2501,2481,2452,2452,2423,2404,2404,2386,2386,2358,2332,2332,2305,2305,2280,2255,2255,2231,2231,2199,2183,2183,2160,2160,2138,2116,2116,2094,2073,2073,2053,2053,2039,2019,2019,2000,2000,1987,1968,1968,1961,1961,1943,1925,1925,1901,1901,1878,1855,1855,1833,1817,1817,1801,1801,1786,1770,1770,1760,1760,1745,1731,1731,1716,1716,1702,1688,1688,1679,1679,1665,1652,1652,1635,1622,1622,1609,1609,1597,1584,1584,1572,1572,1560,1552,1552,1545,1545,1541,1533,1533,1529,1526,1526,1522,1522,1518,1514,1514,1514,1514,1514,1514,1514,1514,1514,1518,1518,1526,1537,1537,1545,1560,1560,1572,1572,1601,1626,1626,1648,1661,1661,1670,1670,1670,1674,1674,1674,1674,1670,1656,1656,1648,1643,1643,1639,1639,1635,1630,1630,1626,1626,1622,1617,1617,1613,1609,1609,1601,1601,1588,1568,1568,1556,1556,1537,1522,1522,1511,1511,1503,1496,1496,1492,1492,1492,1492,1500,1500,1500,1500,1492,1492,1496,1492,1492,1492,1492,1496,1496,1496,1496,1492,1492,1492,1500,1503,1503,1507
2629,2629,0,0,0,0,0,0,0,0,0,0,0,0,0,0,0,0,0,0,0,0,0,2796,2796,2796,2796,2821,2834,2834,2847,2847,2847,2847,2834,2821,2821,2821,2821,2808,2796,2796,2783,2771,2771,2746,2746,2722,2710,2710,2710,2710,2698,2698,2698,2686,2686,2686,2686,2686,2686,2686,2686,2686,2675,2675,2663,2663,2652,2640,2640,2629,2618,2618,2607,2607,2607,2607,0,2585,2585,2585,0,0,0,0,0,2663,2663,2675,2675,2675,2675,2686,2698,2698,0,0,0,0,0,2710,2710,2698,2698,2698,2686,2686,2686,2675,2675,2675,0,0,2640,2640,2640,2640,2640,2640,2640,2652,2652,2652,2652,2652,2663,2663,2675,2698,2698,2710,2710,2734,2746,2746,2758,2771,2771,2783,2796,2796,2796,2796,2796,2796,2796,2796,2796,2796,2808,2808,2821,2834,2834,2834,2847,2847,2860,2874,2874,2887,2887,2901,2942,2942,2970,2999,2999,3014,3014,3029,3029,3029,3044,3044,3044,3044,3014,3014,3014,2999,2985,2985,2985,2985,2970,2970,2970,2970,2970,2985,2985,2985,2985,2985,2999,2999,2999,3014,3014,3029,3029,3029,3044,3044,3059,3074,3074,3059,3059,3059,3074,3074,3059,3059,3059,3059,3059,3044,3044,3029,3014,3014,3014,3014,2970,2928,2928,2901,2874,2874,2860,2860,2834,2821,2821,2808,2808,2808,2808,2821,2821,2821,2834,2834,2834,2847,2847,2847,2847,2860,2860,2860,2860,2874,2874,2887,2887,2914,2942,2942,2970,2985,2985,3029,3074,3074,3105,3105,3136,3152,3152,3168,3185,3185,3201,3235,3235,3235,3235,3235,3235,3235,3252,3252,3252,3252,3252,3235,3235,3235,3218,3218,3201,3201,3185,3152,3152,3136,3136,3105,3074,3074,3059,3029,3029,3014,3014,2999,2970,2970,2956,2942,2942,2942,2942,2928,2914,2914,2914,2914,2914,2914,2914,2914,2928,2928,2928,2942,2956,2956,2970,2970,2985,2999,2999,3014,3029,3029,3029,3029,3029,3044,3044,3059,3074,3074,3074,3074,3074,3074,3074,3074,3074,3074,3089,3074,3074,3074,3074,3089,3089,3074,3074,3074,3074,3074,3059,3044,3044,3029,3029,3014,3014,3014,2999,2999,2999,2999,2999,2999,3014,3014,3014,3014,3014,2999,2999,2985,2970,2970,2942,2914,2914,2887,2887,2887,2874,2874,2860,2860,2860,2860,2860,2860,2874,2887,2887,2901,2901,2901,2914,2914,2914,2928,2914,2914,2914,2914,2914,2901,2887,2887,2860,2834,2834,2821,2821,2796,2758,2758,2734,2734,2710,2686,2686,2663,2652,2652,2629,2629,2607,2585,2585,2564,2564,2543,2522,2522,2501,2501,2471,2452,2452,2423,2404,2404,2386,2386,2358,2332,2332,2305,2305,2280,2255,2255,2231,2231,2199,2183,2183,2160,2160,2138,2116,2116,2094,2073,2073,2053,2053,2039,2019,2019,2000,2000,1987,1968,1968,1955,1955,1937,1919,1919,1895,1872,1872,1855,1855,1833,1817,1817,1801,1801,1786,1770,1770,1760,1760,1745,1731,1731,1716,1716,1702,1688,1688,1679,1665,1665,1652,1652,1635,1622,1622,1609,1609,1597,1584,1584,1572,1572,1560,1552,1552,1545,1545,1537,1533,1533,1529,1522,1522,1518,1518,1518,1514,1514,1514,1514,1514,1514,1518,1518,1518,1518,1518,1529,1537,1537,1545,1560,1560,1572,1572,1601,1626,1626,1648,1661,1661,1670,1670,1670,1674,1674,1674,1674,1670,1656,1656,1648,1643,1643,1639,1639,1635,1630,1630,1626,1626,1622,1617,1617,1613,1609,1609,1601,1601,1588,1568,1568,1556,1556,1537,1522,1522,1511,1511,1503,1496,1496,1492,1492,1492,1492,1500,1500,1500,1500,1492,1492,1496,1496,1496,1492,1492,1496,1496,1496,1496,1492,1492,1492,1500,1503,1503,1507
2629,0,0,0,0,0,0,0,0,0,0,0,0,0,0,0,0,0,0,0,0,0,0,0,0,0,2834,2834,2834,2834,2847,2847,2847,2847,2834,2821,2821,2821,2821,2808,2796,2796,2783,2771,2771,2746,2746,2722,2710,2710,2710,2710,2698,2698,2698,2686,2686,2686,2675,2675,2675,2686,2686,2675,2675,2675,2663,2663,2652,2640,2640,2629,2618,2618,2607,2607,2607,2607,2607,2585,2585,2585,0,0,0,0,0,2663,2652,2652,2652,2675,2663,2663,2663,2663,2686,0,0,0,0,2710,2710,2686,2686,2686,2675,2675,2675,2663,2663,2652,2640,2640,2640,0,2640,2640,2640,2640,2640,2652,2652,2652,2652,2652,2663,2663,2675,2698,2698,2710,2734,2734,2746,2746,2758,2783,2783,2783,2796,2796,2808,2808,2808,2808,2808,2808,2808,2808,2821,2821,2821,2834,2834,2847,2847,2847,2860,2874,2874,2887,2887,2901,2942,2942,2970,2999,2999,3014,3014,3029,3029,3029,3044,3044,3044,3044,3014,3014,3014,2999,2985,2985,2985,2985,2970,2970,2970,2970,2970,2985,2985,2985,2985,2985,2999,2999,3014,3014,3014,3029,3029,3029,3059,3059,3059,3074,3074,3074,3074,3074,3074,3074,3059,3059,3059,3059,3059,3044,3044,3044,3014,3014,3014,3014,2970,2928,2928,2901,2874,2874,2860,2860,2834,2821,2821,2808,2808,2808,2808,2821,2821,2821,2834,2834,2834,2847,2847,2847,2847,2860,2860,2860,2874,2874,2874,2887,2887,2914,2942,2942,2970,2985,2985,3029,3074,3074,3105,3105,3120,3136,3136,3152,3168,3168,3185,3218,3218,3218,3218,3235,3235,3235,3235,3235,3218,3218,3218,3218,3218,3201,3185,3185,3185,3185,3152,3120,3120,3105,3105,3059,3044,3044,3014,2999,2999,2970,2970,2956,2942,2942,2942,2928,2928,2928,2928,2914,2914,2914,2914,2914,2914,2914,2914,2914,2928,2942,2942,2956,2970,2970,2985,2985,2985,3014,3014,3029,3029,3029,3044,3044,3044,3059,3059,3074,3074,3074,3074,3074,3074,3074,3074,3074,3074,3074,3089,3074,3074,3074,3074,3089,3089,3074,3074,3074,3074,3074,3059,3044,3044,3029,3029,3014,3014,3014,2999,2999,2999,2999,2999,2999,3014,3014,3014,3014,3014,2999,2999,2985,2970,2970,2942,2914,2914,2901,2901,2901,2887,2887,2874,2874,2887,2887,2887,2887,2887,2901,2901,2914,2914,2914,2914,2914,2928,2928,2928,2914,2914,2914,2914,2901,2887,2887,2860,2834,2834,2821,2821,2796,2758,2758,2734,2734,2710,2686,2686,2663,2652,2652,2629,2629,2607,2585,2585,2564,2564,2543,2522,2522,2501,2501,2471,2452,2452,2423,2404,2404,2376,2376,2358,2323,2323,2305,2305,2272,2255,2255,2223,2223,2199,2183,2183,2160,2138,2138,2116,2116,2094,2073,2073,2053,2053,2039,2019,2019,2000,2000,1980,1961,1961,1949,1949,1937,1913,1913,1895,1872,1872,1855,1855,1833,1817,1817,1801,1801,1786,1775,1775,1760,1760,1745,1731,1731,1716,1716,1702,1688,1688,1679,1665,1665,1652,1652,1639,1626,1626,1609,1609,1597,1584,1584,1572,1572,1560,1552,1552,1545,1545,1537,1533,1533,1529,1522,1522,1518,1518,1518,1514,1514,1514,1514,1514,1514,1514,1514,1514,1518,1518,1526,1533,1533,1541,1552,1552,1564,1564,1584,1613,1613,1630,1643,1643,1652,1656,1656,1665,1665,1665,1665,1665,1652,1652,1643,1639,1639,1639,1639,1635,1630,1630,1626,1626,1622,1617,1617,1613,1609,1609,1601,1601,1588,1568,1568,1552,1552,1537,1522,1522,1514,1514,1507,1496,1496,1496,1496,1496,1496,1500,1500,1503,1503,1496,1496,1496,1496,1496,1496,1496,1496,1496,1496,1496,1492,1492,1492,1500,1503,1503,1507
0,0,0,0,0,0,0,0,0,0,0,0,0,0,0,0,0,0,0,0,0,0,0,0,0,0,2834,2834,2834,2834,2847,2847,2847,2847,2834,2821,2821,2808,2808,2808,2796,2796,2783,2758,2758,2734,2734,2710,2698,2698,2698,2698,2686,2686,2686,2675,2675,2675,2675,2675,2675,2675,2675,2675,2663,2663,2663,2663,2652,2640,2640,2629,2618,2618,2618,2618,2618,2607,2607,2607,2618,0,0,0,0,0,0,0,2652,2652,2652,0,2663,2663,2663,2663,2686,0,0,0,0,0,0,2686,2686,2686,2675,2675,2675,2663,2663,2652,2640,2640,2640,0,0,0,0,2640,2640,2652,2652,2652,2652,2652,2663,2663,2675,2698,2698,2710,2734,2734,2746,2746,2758,2783,2783,2783,2796,2796,2808,2808,2808,2808,2808,2808,2808,2808,2821,2821,2821,2834,2834,2847,2860,2860,2874,2887,2887,2887,2887,2914,2942,2942,2970,2999,2999,3029,3029,3029,3044,3044,3044,3059,3059,3044,3044,3029,3029,3014,2999,2999,2985,2985,2985,2985,2985,2985,2985,2985,2985,2999,2999,2999,3014,3014,3014,3029,3029,3029,3044,3044,3059,3059,3074,3089,3089,3089,3089,3089,3089,3074,3074,3089,3074,3059,3059,3044,3044,3044,3014,3014,3014,2970,2970,2928,2928,2901,2874,2874,2847,2847,2821,2808,2808,2808,2808,2808,2808,2808,2808,2821,2821,2821,2834,2847,2847,2847,2847,2860,2860,2860,2874,2874,2874,2887,2887,2914,2942,2942,2985,2999,2999,3029,3074,3074,3105,3105,3120,3136,3136,3152,3168,3168,3185,3201,3201,3218,3218,3235,3235,3235,3235,3235,3218,3218,3218,3218,3218,3201,3185,3185,3185,3185,3152,3120,3120,3105,3105,3059,3044,3044,3014,2999,2999,2970,2970,2956,2942,2942,2942,2928,2928,2928,2928,2914,2914,2914,2914,2914,2914,2914,2914,2914,2928,2942,2942,2956,2970,2970,2985,2985,2985,3014,3014,3029,3029,3029,3044,3044,3044,3059,3059,3074,3074,3074,3074,3074,3074,3074,3074,3074,3074,3074,3089,3089,3089,3089,3089,3089,3089,3089,3074,3074,3074,3074,3059,3044,3044,3029,3029,3029,3014,3014,3014,3014,3014,3014,3014,3014,3014,3029,3029,3029,3029,3014,3014,2999,2970,2970,2942,2942,2942,2914,2914,2901,2887,2887,2887,2901,2901,2901,2901,2901,2914,2914,2914,2914,2914,2914,2928,2928,2928,2942,2928,2914,2914,2914,2914,2901,2887,2887,2860,2834,2834,2808,2808,2783,2746,2746,2722,2722,2698,2675,2675,2652,2640,2640,2618,2618,2596,2585,2585,2564,2564,2543,2522,2522,2491,2491,2471,2442,2442,2423,2395,2395,2367,2367,2349,2323,2323,2297,2297,2272,2247,2247,2223,2223,2199,2176,2176,2153,2131,2131,2109,2109,2094,2073,2073,2053,2053,2039,2019,2019,2000,2000,1980,1961,1961,1949,1949,1937,1913,1913,1895,1872,1872,1855,1855,1833,1817,1817,1807,1807,1786,1775,1775,1760,1760,1745,1731,1731,1716,1716,1702,1688,1688,1679,1665,1665,1652,1652,1639,1626,1626,1609,1609,1597,1584,1584,1572,1572,1560,1552,1552,1545,1537,1537,1533,1533,1526,1518,1518,1514,1514,1514,1511,1511,1511,1514,1514,1514,1514,1514,1514,1518,1518,1522,1529,1529,1537,1549,1549,1556,1556,1576,1601,1601,1622,1635,1635,1643,1652,1652,1656,1665,1665,1665,1665,1652,1652,1643,1639,1639,1639,1639,1635,1630,1630,1626,1626,1622,1617,1617,1613,1609,1609,1601,1601,1588,1572,1572,1552,1552,1537,1522,1522,1514,1514,1507,1496,1496,1496,1496,1496,1496,1500,1500,1503,1503,1496,1496,1496,1496,1496,1496,1496,1496,1496,1496,1496,1492,1492,1492,1500,1503,1503,1507
0,0,0,0,0,0,0,0,0,0,0,0,0,0,0,0,0,0,0,0,0,0,0,0,0,0,0,2834,2834,2834,2847,2847,2847,2847,2834,2821,2821,2808,2808,2796,2783,2783,2771,2746,2746,2734,2734,2710,2698,2698,2698,2698,2686,2686,2686,2675,2675,2675,2675,2675,2675,2675,2675,2675,2663,2663,2663,0,2652,2640,2640,2640,2629,2629,2629,2629,2629,2629,2629,2618,2618,0,0,0,0,0,0,0,2652,2652,2652,0,2663,2663,2663,2663,2675,0,0,0,0,2686,2686,2675,2675,2675,2675,2675,2663,2652,2652,2652,2640,2640,2640,2640,2640,2640,2640,2640,2640,2652,2652,2652,2652,2652,2663,2663,2686,2698,2698,2710,2734,2734,2746,2746,2758,2783,2783,2796,2808,2808,2808,2808,2808,2808,2808,2808,2821,2821,2834,2847,2847,2847,2847,2860,2874,2874,2874,2887,2887,2901,2901,2914,2956,2956,2970,2999,2999,3029,3029,3029,3059,3059,3059,3059,3059,3059,0,0,0,3014,2999,2999,2985,2985,2985,2985,2985,2985,2985,2985,2985,2999,2999,2999,3014,3014,3014,3029,3029,3029,3044,3044,3059,3059,3074,3089,3089,3089,3089,3089,3089,3074,3074,3089,3074,3074,3089,3074,3074,3044,3044,3044,3014,2970,2970,2942,2942,2901,2874,2874,2847,2847,2821,2808,2808,2808,2808,2808,2808,2808,2808,2821,2821,2821,2834,2847,2847,2847,2847,2860,2860,2860,2874,2874,2874,2901,2901,2928,2956,2956,2985,3014,3014,3044,3074,3074,3105,3136,3136,3136,3136,3152,3185,3185,3185,3201,3201,3235,3235,3218,3218,3218,3218,3218,3218,3218,3201,3185,3185,3185,3168,3168,3152,3152,3120,3089,3089,3059,3059,3029,3014,3014,2999,2970,2970,2942,2942,2942,2928,2928,2928,2914,2914,2914,2928,2914,2914,2914,2914,2914,2928,2928,2928,2928,2942,2942,2942,2956,2970,2970,2985,2985,3014,3029,3029,3029,3044,3044,3044,3044,3044,3059,3059,3089,3089,3089,3089,3089,3089,3089,3089,3089,3089,3089,3089,3089,3089,3089,3089,3105,3105,3089,3089,3089,3074,3074,3074,3059,3059,3044,3029,3029,3029,3029,3014,3014,3014,3014,3014,3014,3014,3029,3029,3029,3029,3014,3014,2999,2970,2970,2942,2942,2942,2914,2914,2901,2887,2887,2887,2901,2901,2901,2901,2901,2914,2914,2914,2914,2914,2914,2928,2928,2928,2942,2928,2928,2928,2914,2914,2901,2887,2887,2860,2834,2834,2808,2808,2771,2746,2746,2722,2722,2698,2675,2675,2652,2629,2629,2607,2607,2596,2585,2585,2564,2564,2543,2522,2522,2491,2491,2471,2442,2442,2423,2395,2395,2367,2367,2349,2323,2323,2297,2297,2272,2247,2247,2223,2223,2199,2176,2176,2153,2131,2131,2109,2109,2094,2066,2066,2053,2053,2039,2019,2019,2000,2000,1980,1961,1961,1943,1937,1937,1913,1913,1889,1872,1872,1855,1855,1833,1817,1817,1807,1807,1786,1775,1775,1760,1760,1745,1731,1731,1716,1716,1702,1688,1688,1679,1665,1665,1652,1652,1639,1626,1626,1613,1613,1601,1584,1584,1572,1572,1564,1552,1552,1545,1537,1537,1533,1533,1526,1518,1518,1514,1514,1514,1511,1511,1511,1514,1514,1514,1514,1514,1514,1518,1518,1522,1529,1529,1537,1549,1549,1556,1556,1576,1601,1601,1622,1635,1635,1643,1652,1652,1656,1665,1661,1661,1656,1652,1652,1643,1639,1639,1639,1639,1635,1630,1630,1626,1626,1622,1617,1617,1613,1609,1609,1601,1601,1588,1572,1572,1552,1552,1537,1518,1518,1514,1514,1507,1500,1500,1496,1496,1500,1500,1503,1503,1503,1503,1496,1496,1496,1496,1496,1496,1496,1496,1496,1496,1496,1492,1492,1492,1496,1503,1503,1507
0,0,0,0,0,0,0,0,0,0,0,0,0,0,0,0,0,0,0,0,0,0,0,0,0,0,0,2834,2834,2834,2847,2847,2847,2847,2834,2821,2821,2808,2808,2796,2783,2783,2771,2746,2746,2722,2722,2698,2698,2698,2686,2686,2675,2675,2675,2675,2663,2663,2663,2675,2675,2675,2675,2663,2663,2663,2663,2675,2652,2640,2640,2640,2629,2629,2629,2629,2629,2629,2629,2618,2618,2640,2640,0,2652,2652,0,0,0,0,0,0,0,0,0,2675,2675,0,2675,2675,2663,2663,2686,2663,2663,2663,2663,2663,2663,2652,2652,2652,2640,2640,2640,2640,2640,2640,2640,2640,2640,2652,2652,2652,2652,2652,2675,2675,2686,2698,2698,2722,2734,2734,2746,2746,2758,2783,2783,2796,2808,2808,2821,2808,2808,2808,2808,2808,2821,2821,2834,2847,2847,2847,2847,2860,2874,2874,2874,2887,2887,2901,2901,2914,2956,2956,2970,2999,2999,3029,3029,3029,3059,3059,3059,3059,3059,3059,0,0,0,0,0,0,0,0,0,0,0,0,0,0,0,0,0,0,0,0,0,0,0,0,0,0,0,0,0,0,0,0,0,0,0,0,0,0,0,0,0,0,0,0,0,0,0,0,0,0,0,0,0,0,0,0,0,0,0,0,0,0,0,0,0,2821,2821,2821,2834,2847,2847,2847,2847,2860,2860,2860,2874,2874,2874,2901,2901,2928,2956,2956,2985,3014,3014,3044,3074,3074,3105,3136,3136,3136,3136,3152,3185,3185,3185,3201,3201,3235,3235,3218,3218,3218,3218,3218,3218,3218,3201,3185,3185,3185,3168,3168,3152,3152,3120,3089,3089,3059,3059,3029,3014,3014,2999,2970,2970,2942,2942,2942,2928,2928,2928,2914,2914,2914,2928,2914,2914,2914,2914,2914,2928,2928,2942,2942,2942,2956,2956,2970,2985,2985,2999,2999,3014,3029,3029,3044,3044,3044,3044,3044,3044,3059,3059,3074,3074,3074,3074,3089,3089,3089,3089,3089,3089,3089,3089,3089,3059,3059,3059,3074,3074,3059,3059,3059,3044,3044,3029,3029,3029,3029,3029,3029,3029,3029,2999,2999,2999,2999,2999,3014,3014,3014,3014,3014,3014,3014,3014,3014,2985,2985,2970,2942,2942,2928,2928,2928,2928,2928,2928,2928,2928,2914,2914,2914,2914,2914,2914,2928,2928,2928,2928,2928,2928,2942,2928,2928,2928,2914,2914,2901,2887,2887,2860,2834,2834,2808,2808,2771,2746,2746,2722,2722,2698,2675,2675,2652,2629,2629,2607,2607,2596,2574,2574,2553,2553,2532,2512,2512,2491,2462,2462,2442,2442,2414,2395,2395,2367,2367,2340,2314,2314,2288,2288,2272,2247,2247,2223,2223,2191,2176,2176,2153,2131,2131,2109,2109,2094,2066,2066,2053,2053,2039,2019,2019,2000,2000,1980,1961,1961,1943,1937,1937,1913,1913,1889,1872,1872,1855,1855,1839,1817,1817,1807,1807,1791,1775,1775,1760,1760,1745,1731,1731,1716,1716,1702,1693,1693,1679,1670,1670,1656,1656,1639,1626,1626,1613,1613,1601,1588,1588,1576,1576,1564,1552,1552,1545,1537,1537,1533,1533,1526,1518,1518,1514,1514,1511,1507,1507,1507,1511,1511,1511,1511,1511,1514,1514,1514,1518,1526,1526,1533,1541,1541,1552,1552,1564,1592,1592,1609,1622,1622,1635,1643,1643,1648,1656,1656,1661,1656,1652,1652,1643,1639,1639,1639,1639,1635,1630,1630,1626,1626,1622,1617,1617,1613,1609,1609,1601,1601,1592,1572,1572,1552,1552,1537,1518,1518,1514,1514,1507,1503,1503,1500,1500,1500,1500,1503,1511,1507,1507,1496,1496,1496,1496,1496,1496,1496,1496,1496,1496,1496,1492,1492,1492,1496,1503,1503,1507
0,0,0,0,0,0,0,0,0,0,0,0,0,0,0,0,0,0,0,0,0,0,0,0,0,0,0,2834,2834,2834,2847,2834,2834,2834,2821,2808,2808,2796,2796,2783,2771,2771,2771,2746,2746,2722,2722,2698,2686,2686,2675,2675,2663,2663,2663,2663,2663,2663,2663,2663,2663,2663,2663,2663,2663,2663,2663,2675,2663,2663,0,2652,2640,2640,2640,2640,2640,2640,2640,2640,2640,2640,2640,0,2652,2652,0,0,0,0,0,0,0,0,0,0,0,0,2675,2675,2663,2663,0,2663,2663,2663,2663,2663,2663,2652,2652,2652,2640,2640,2640,2640,2640,2640,2640,2640,2640,2652,2652,2652,2652,2652,2663,2663,2686,2698,2698,2710,2734,2734,2746,2746,2758,2783,2783,2796,2808,2808,2821,2821,2821,2821,2821,2834,2847,2847,2847,2860,2860,2874,2874,2887,2887,2887,2901,2914,2914,2914,2914,2928,2956,2956,2985,2999,2999,0,0,0,0,0,0,0,0,0,0,0,0,0,0,0,0,0,0,0,0,0,0,0,0,0,0,0,0,0,0,0,0,0,0,0,0,0,0,0,0,0,0,0,0,0,0,0,0,0,0,0,0,0,0,0,0,0,0,0,0,0,0,0,0,0,0,0,0,0,0,0,0,0,0,0,0,0,0,0,0,0,0,0,0,0,0,0,0,0,0,0,0,0,0,0,0,0,0,0,0,0,0,0,0,0,0,0,0,0,0,0,0,0,0,0,0,0,0,0,0,0,0,0,0,0,0,0,0,0,0,0,0,0,0,0,0,2970,2970,2942,2942,2942,2928,2928,2928,2914,2914,2914,2928,2914,2914,2914,2914,2914,2928,2928,2942,2942,2942,2956,2956,2970,2985,2985,2999,2999,3014,3029,3029,3044,3044,3044,3044,3044,3044,3059,3059,3074,3074,3074,3074,3089,3089,3089,3089,0,0,0,0,0,3059,3059,3059,3074,3074,3059,3059,3059,3044,3044,3029,3029,3029,3029,3029,0,0,0,2999,2999,2999,2999,2999,3014,3014,3014,3014,3014,3014,3014,3014,3014,3014,3014,2985,2970,2970,2956,2956,2956,2942,2942,2942,2928,2928,2928,2928,2914,2914,2914,2914,2928,2928,2914,2914,2914,2914,2928,2928,2914,2914,2914,2914,2901,2874,2874,2860,2821,2821,2796,2796,2758,2734,2734,2710,2710,2686,2663,2663,2640,2618,2618,2607,2607,2585,2564,2564,2553,2553,2532,2512,2512,2481,2462,2462,2433,2433,2414,2386,2386,2358,2358,2340,2305,2305,2288,2288,2263,2247,2247,2223,2223,2191,2176,2176,2153,2131,2131,2109,2109,2094,2066,2066,2053,2053,2039,2019,2019,2000,2000,1980,1961,1961,1943,1937,1937,1913,1913,1889,1872,1872,1855,1855,1839,1817,1817,1807,1807,1791,1775,1775,1760,1760,1745,1731,1731,1716,1702,1702,1688,1688,1679,1670,1670,1656,1656,1639,1626,1626,1613,1613,1601,1588,1588,1576,1576,1564,1552,1552,1545,1533,1533,1529,1529,1522,1518,1518,1511,1511,1511,1507,1507,1507,1507,1507,1507,1507,1507,1511,1511,1511,1518,1526,1526,1529,1537,1537,1552,1552,1564,1592,1592,1609,1622,1622,1635,1643,1643,1648,1656,1656,1661,1656,1652,1652,1643,1643,1643,1639,1639,1635,1635,1635,1626,1626,1626,1622,1622,1617,1609,1609,1601,1601,1592,1572,1572,1552,1552,1537,1518,1518,1514,1511,1507,1503,1503,1500,1500,1500,1500,1503,1511,1507,1507,1496,1496,1496,1496,1496,1496,1496,1496,1496,1496,1496,1492,1492,1492,1496,1503,1503,1507
0,0,0,0,0,0,0,0,0,0,0,0,0,0,0,0,0,0,0,0,0,0,0,0,0,0,0,0,0,0,0,2834,2821,2821,2821,2808,2808,2796,2796,2783,2771,2771,2771,2746,2746,2722,2722,2698,2686,2686,2675,2675,2663,2663,2663,2663,2663,2663,2663,2663,2663,2663,2663,2663,2663,2663,2663,2675,2663,2663,0,2652,2640,2640,2640,2640,2640,2640,2640,2640,2640,2640,2640,0,2652,2652,2675,2629,2629,0,0,0,0,0,0,0,0,0,2675,2675,2574,2574,2629,2629,2663,2663,2652,2652,2652,2652,2652,2652,2629,2629,2629,2640,2640,2640,2640,2640,2652,2652,2652,2652,2663,2663,2663,2663,2686,2698,2698,2710,2722,2722,2746,2746,2758,2783,2783,2796,2808,2808,2821,2834,2834,2834,2834,2834,2847,2847,2847,2874,2874,2874,2874,2887,2901,2901,2914,2914,2914,2928,2928,0,0,0,0,0,0,0,0,0,0,0,0,0,0,0,0,0,0,0,0,0,0,0,0,0,0,0,0,0,0,0,0,0,0,0,0,0,0,0,0,0,0,0,0,0,0,0,0,0,0,0,0,0,0,0,0,0,0,0,0,0,0,0,0,0,0,0,0,0,0,0,0,0,0,0,0,0,0,0,0,0,0,0,0,0,0,0,0,0,0,0,0,0,0,0,0,0,0,0,0,0,0,0,0,0,0,0,0,0,0,0,0,0,0,0,0,0,0,0,0,0,0,0,0,0,0,0,0,0,0,0,0,0,0,0,0,0,0,0,0,0,0,0,0,0,0,0,0,0,0,0,0,0,0,0,0,0,0,0,0,0,0,0,0,0,0,0,0,0,0,0,0,0,0,0,0,0,0,0,0,0,0,0,0,0,0,0,0,0,0,0,0,0,0,0,0,0,0,0,0,0,0,0,0,0,3029,3029,3029,3029,3029,0,0,0,2999,2999,2999,2999,2999,3014,3014,3014,3014,3014,3014,3014,3014,3014,2999,2999,2985,2970,2970,2956,2956,2956,2942,2942,2942,2928,2928,2928,2928,2914,2914,2928,2914,2914,2928,2914,2914,2914,2914,2914,2914,2914,2914,2901,2901,2887,2874,2874,2847,2821,2821,2796,2796,2758,2734,2734,2710,2710,2686,2663,2663,2640,2618,2618,2607,2607,2585,2564,2564,2553,2553,2532,2512,2512,2481,2462,2462,2433,2433,2414,2386,2386,2358,2358,2340,2305,2305,2288,2288,2263,2247,2247,2223,2199,2191,2176,2176,2153,2131,2131,2109,2109,2094,2066,2066,2053,2053,2039,2019,2019,2000,2000,1980,1961,1961,1943,1937,1937,1913,1913,1889,1872,1872,1855,1855,1839,1823,1823,1807,1807,1791,1775,1775,1760,1760,1745,1731,1731,1716,1702,1702,1688,1688,1679,1670,1670,1656,1656,1643,1626,1626,1613,1613,1601,1588,1588,1576,1576,1564,1552,1552,1545,1533,1533,1529,1529,1522,1518,1518,1511,1511,1511,1507,1507,1507,1507,1507,1507,1507,1507,1511,1511,1511,1518,1526,1526,1529,1537,1537,1549,1549,1560,1588,1588,1605,1617,1617,1626,1635,1635,1648,1656,1656,1656,1656,1652,1652,1643,1643,1643,1639,1639,1635,1635,1635,1626,1626,1626,1622,1622,1617,1609,1609,1605,1605,1597,1572,1572,1556,1556,1537,1522,1522,1514,1511,1511,1507,1507,1503,1503,1503,1503,1507,1514,1507,1507,1503,1500,1500,1496,1496,1496,1496,1496,1496,1496,1496,1492,1492,1496,1496,1503,1503,1507
0,0,0,0,0,0,0,0,0,0,0,0,0,0,0,0,0,0,0,0,0,0,0,0,0,0,0,0,0,0,0,2834,2821,2821,2821,2808,2808,2796,2796,2783,2771,2771,2758,2734,2734,2710,2710,2686,2675,2675,2663,2663,2663,2663,2663,2652,2652,2652,2652,2652,2652,2663,2663,2663,2663,2663,2663,2675,2663,2663,2675,2675,2663,2663,2652,2652,2652,2663,2663,2663,2663,2663,2663,2675,2675,2675,2675,2629,2629,0,0,0,0,0,0,0,0,0,0,0,2574,2574,2629,2629,0,0,2652,2652,2652,2652,0,0,2629,2629,2629,0,0,0,0,2652,2652,2652,2652,2652,2663,2663,2675,2675,2686,2698,2698,2710,2722,2722,2746,2746,2758,2771,2771,2783,2808,2808,2808,2821,2821,2834,2834,2834,2847,2847,2847,2874,2874,2874,2874,2887,2901,2901,2914,2914,2914,2928,2928,0,0,0,0,0,0,0,0,0,0,0,0,0,0,0,0,0,0,0,0,0,0,0,0,0,0,0,0,0,0,0,0,0,0,0,0,0,0,0,0,0,0,0,0,0,0,0,0,0,0,0,0,0,0,0,0,0,0,0,0,0,0,0,0,0,0,0,0,0,0,0,0,0,0,0,0,0,0,0,0,0,0,0,0,0,0,0,0,0,0,0,0,0,0,0,0,0,0,0,0,0,0,0,0,0,0,0,0,0,0,0,0,0,0,0,0,0,0,0,0,0,0,0,0,0,0,0,0,0,0,0,0,0,0,0,0,0,0,0,0,0,0,0,0,0,0,0,0,0,0,0,0,0,0,0,0,0,0,0,0,0,0,0,0,0,0,0,0,0,0,0,0,0,0,0,0,0,0,0,0,0,0,0,0,0,0,0,0,0,0,0,0,0,0,0,0,0,0,0,0,0,0,0,0,0,0,0,0,0,0,0,0,0,0,0,0,0,0,0,3029,3029,3029,3044,3044,3029,3029,3029,2999,2999,2999,2999,2999,2985,2970,2970,2956,2956,2942,2928,2928,2928,2928,2928,2928,2928,2914,2914,2928,2914,2914,2914,2914,2914,2914,2914,2914,2901,2901,2887,2874,2874,2847,2821,2821,2796,2796,2758,2722,2722,2698,2698,2675,2652,2652,2629,2618,2618,2596,2596,2574,2564,2564,2543,2543,2522,2501,2501,2481,2452,2452,2433,2433,2404,2386,2386,2358,2358,2332,2305,2305,2280,2280,2263,2239,2239,2223,2199,2199,2176,2176,2153,2131,2131,2109,2109,2094,2066,2066,2053,2053,2039,2019,2019,2000,2000,1980,1961,1961,1949,1937,1937,1913,1913,1889,1872,1872,1855,1855,1839,1823,1823,1807,1807,1791,1775,1775,1760,1760,1745,1731,1731,1716,1702,1702,1693,1693,1684,1670,1670,1656,1656,1643,1626,1626,1613,1613,1601,1588,1588,1576,1576,1564,1552,1552,1545,1533,1533,1529,1529,1522,1514,1514,1511,1511,1507,1507,1507,1503,1503,1503,1503,1507,1507,1507,1511,1511,1514,1522,1522,1529,1537,1537,1545,1545,1556,1584,1584,1601,1613,1613,1622,1635,1635,1648,1652,1652,1656,1656,1652,1652,1648,1643,1643,1643,1643,1639,1635,1635,1630,1626,1626,1626,1626,1617,1617,1617,1609,1609,1597,1580,1580,1560,1560,1541,1541,0,1514,1511,1511,1507,1507,1503,1503,1507,1507,1511,1514,1511,1511,1503,1500,1500,1496,1496,1496,1496,1496,1496,1496,1496,1492,1492,1496,1496,1503,1503,1507
0,0,0,0,0,0,0,0,0,0,0,0,0,0,0,0,0,0,0,0,0,0,0,0,0,0,0,0,0,0,0,2821,2808,2808,2796,2783,2783,2771,2771,2758,2758,2758,2746,2722,2722,2698,2698,2675,2663,2663,2652,2652,2652,2652,2652,2640,2640,2640,2640,2652,2652,0,0,0,2675,2675,2675,2675,0,2675,2675,2675,0,0,2675,2675,2675,2675,2675,2675,2675,2675,2675,2675,2675,2675,2675,2675,0,0,0,0,0,0,0,0,0,0,0,0,2574,2574,2629,2629,0,0,2652,2652,2652,2652,0,0,2629,2629,2629,0,0,0,0,2652,2652,2652,2652,2652,2663,2663,2675,2675,2686,2698,2698,2710,2722,2722,2734,2734,2746,2758,2758,2783,2796,2796,2808,2821,2821,2821,2821,2834,2847,2847,2847,2874,2874,2887,2874,2874,2901,2901,2914,2928,2928,2928,0,0,0,0,0,0,0,0,0,0,0,0,0,0,0,0,0,0,0,0,0,0,0,0,0,0,0,0,0,0,0,0,0,0,0,0,0,0,0,0,0,0,0,0,0,0,0,0,0,0,0,0,0,0,0,0,0,0,0,0,0,0,0,0,0,0,0,0,0,0,0,0,0,0,0,0,0,0,0,0,0,0,0,0,0,0,0,0,0,0,0,0,0,0,0,0,0,0,0,0,0,0,0,0,0,0,0,0,0,0,0,0,0,0,0,0,0,0,0,0,0,0,0,0,0,0,0,0,0,0,0,0,0,0,0,0,0,0,0,0,0,0,0,0,0,0,0,0,0,0,0,0,0,0,0,0,0,0,0,0,0,0,0,0,0,0,0,0,0,0,0,0,0,0,0,0,0,0,0,0,0,0,0,0,0,0,0,0,0,0,0,0,0,0,0,0,0,0,0,0,0,0,0,0,0,0,0,0,0,0,0,0,0,0,0,0,0,0,0,0,3029,3029,3029,3044,3044,3044,3044,3044,3044,3044,2999,2999,2999,2985,2970,2970,2956,2956,2942,2928,2928,2928,2928,2928,2928,2928,2914,2914,2914,2914,2901,2901,2901,2914,2914,2901,2901,2887,2887,2874,2860,2860,2847,2808,2808,2796,2796,2746,2710,2710,2686,2686,2663,2640,2640,2618,2607,2607,2585,2585,2574,2553,2553,2543,2543,2522,2501,2501,2471,2452,2452,2423,2423,2404,2386,2386,2358,2358,2332,2305,2305,2280,2280,2263,2239,2239,2223,2199,2199,2176,2176,2153,2131,2131,2109,2109,2094,2073,2073,2060,2060,2039,2019,2019,2000,2000,1980,1961,1961,1949,1937,1937,1913,1913,1889,1872,1872,1855,1855,1839,1823,1823,1807,1807,1791,1775,1775,1760,1760,1745,1731,1731,1716,1702,1702,1693,1693,1684,1670,1670,1656,1656,1643,1630,1630,1617,1617,1601,1588,1588,1576,1564,1564,1552,1552,1545,1533,1533,1529,1529,1522,1514,1514,1511,1507,1507,1503,1503,1503,1503,1503,1503,1507,1507,1507,1511,1511,1514,1522,1522,1529,1537,1537,1545,1545,1556,1584,1584,1601,1613,1613,1622,1635,1635,1648,1652,1652,1656,1656,1652,1652,1648,1643,1643,1643,1643,1639,1635,1635,1630,1626,1626,1626,1626,1617,1617,1617,1609,1601,1597,1580,1580,1560,1560,1541,1541,0,1514,1511,1511,1503,1503,1503,1503,1507,1507,1511,1514,1511,1511,1500,1500,1500,1496,1496,1496,1496,1496,1496,1496,1496,1492,1492,1496,1496,1503,1503,1507
0,0,0,0,0,0,0,0,0,0,0,0,0,0,0,0,0,0,0,0,0,0,0,0,0,0,0,0,0,0,0,2821,2808,2808,2796,2783,2783,2771,2771,2758,2758,2758,2746,2722,2722,2698,2698,2675,2663,2663,2652,2652,2652,2652,2652,2640,2640,2640,2640,2640,2652,2652,0,0,2675,2675,2675,2675,2686,2675,2675,2675,2686,0,2675,2675,2675,2675,2675,2675,2675,2675,2675,2675,2675,2675,2675,2675,0,0,0,0,0,0,0,0,0,0,0,0,0,0,0,0,0,0,0,0,0,0,0,0,0,0,0,0,0,2640,2640,2640,2640,2652,2652,2652,2663,2663,2675,2675,2686,2698,2698,2710,2722,2722,2734,2734,2746,2758,2758,2783,2796,2796,2808,2821,2821,2821,2821,2834,2847,2847,2847,2874,2874,2887,2874,2874,2901,2901,2914,2914,2914,2928,0,0,0,0,0,0,0,0,0,0,0,0,0,0,0,0,0,0,0,0,0,0,0,0,0,0,0,0,0,0,0,0,0,0,0,0,0,0,0,0,0,0,0,0,0,0,0,0,0,0,0,0,0,0,0,0,0,0,0,0,0,0,0,0,0,0,0,0,0,0,0,0,0,0,0,0,0,0,0,0,0,0,0,0,0,0,0,0,0,0,0,0,0,0,0,0,0,0,0,0,0,0,0,0,0,0,0,0,0,0,0,0,0,0,0,0,0,0,0,0,0,0,0,0,0,0,0,0,0,0,0,0,0,0,0,0,0,0,0,0,0,0,0,0,0,0,0,0,0,0,0,0,0,0,0,0,0,0,0,0,0,0,0,0,0,0,0,0,0,0,0,0,0,0,0,0,0,0,0,0,0,0,0,0,0,0,0,0,0,0,0,0,0,0,0,0,0,0,0,0,0,0,0,0,0,0,0,0,0,0,0,0,0,0,0,0,0,0,0,0,3029,3029,3029,3044,3044,3044,3044,3044,3044,3044,3029,3029,3029,3014,2999,2999,2985,2985,2970,2956,2956,2942,2942,2942,2928,2928,2928,2914,2914,2914,2901,2901,2901,2914,2914,2887,2887,2887,2887,2874,2860,2860,2847,2808,2808,2796,2796,2746,2710,2710,2686,2686,2663,2640,2640,2618,2607,2607,2585,2585,2574,2553,2553,2543,2543,2522,2501,2501,2471,2452,2452,2423,2423,2395,2376,2376,2349,2349,2323,2297,2297,2280,2280,2263,2239,2239,2223,2199,2199,2176,2176,2153,2131,2131,2109,2109,2094,2073,2073,2060,2060,2039,2019,2019,2000,1987,1980,1961,1961,1949,1937,1937,1913,1913,1895,1872,1872,1855,1855,1839,1823,1823,1807,1807,1791,1775,1775,1760,1745,1745,1731,1731,1716,1702,1702,1693,1693,1684,1670,1670,1656,1656,1643,1630,1630,1617,1617,1605,1588,1588,1576,1564,1564,1556,1556,1545,1533,1533,1529,1529,1522,1514,1514,1511,1507,1507,1503,1503,1503,1503,1503,1503,1503,1507,1507,1511,1511,1514,1522,1522,1526,1533,1533,1541,1541,1556,1580,1580,1597,1613,1613,1622,1635,1635,1648,1652,1652,1656,1656,1652,1652,1648,1643,1643,1643,1643,1639,1635,1635,1635,1630,1630,1626,1626,1622,1617,1617,1613,1601,1601,1580,1580,1560,1545,1541,1541,0,1514,1511,1511,1503,1503,1503,1503,1507,1507,1511,1514,1511,1511,1500,1500,1500,1500,1496,1496,1496,1496,1496,1496,1496,1492,1492,1496,1496,1503,1503,1507
0,0,0,0,0,0,0,0,0,0,0,0,0,0,0,0,0,0,0,0,0,0,0,0,0,0,0,0,0,0,0,2821,2808,2808,2796,2783,2783,2771,2771,2746,2746,2746,2734,2710,2710,2686,2686,2675,2663,2663,2652,2652,2640,2640,2640,2640,2629,2629,2629,2640,2652,2652,2652,2652,2675,2675,2675,2686,2686,2686,2698,2686,2686,2698,2698,2686,2686,2686,2686,2675,2675,2675,2675,2675,2675,2675,0,0,0,0,0,0,0,0,0,0,0,0,0,0,0,0,0,0,0,0,0,0,0,0,0,0,0,0,0,0,0,2640,2640,2640,2640,2652,2652,2652,2663,2663,2663,2663,2686,2686,2686,2710,2722,2722,2734,2734,2746,2758,2758,2771,2796,2796,2796,2821,2821,2821,2821,2834,2847,2847,2847,2874,2874,2874,2874,2874,2887,2887,2901,2914,2914,2928,0,0,0,0,0,0,0,0,0,0,0,0,0,0,0,0,0,0,0,0,0,0,0,0,0,0,0,0,0,0,0,0,0,0,0,0,0,0,0,0,0,0,0,0,0,0,0,0,0,0,0,0,0,0,0,0,0,0,0,0,0,0,0,0,0,0,0,0,0,0,0,0,0,0,0,0,0,0,0,0,0,0,0,0,0,0,0,0,0,0,0,0,0,0,0,0,0,0,0,0,0,0,0,0,0,0,0,0,0,0,0,0,0,0,0,0,0,0,0,0,0,0,0,0,0,0,0,0,0,0,0,0,0,0,0,0,0,0,0,0,0,0,0,0,0,0,0,0,0,0,0,0,0,0,0,0,0,0,0,0,0,0,0,0,0,0,0,0,0,0,0,0,0,0,0,0,0,2847,2847,2847,2860,2874,2874,2887,2901,2901,2901,2901,2901,2914,2914,2914,2914,2914,2914,2914,2914,2914,2914,2928,2928,2928,2928,2928,2928,2928,2928,2928,2942,2942,2942,2942,2942,2942,2942,2956,2970,2970,2970,2999,2999,0,0,0,0,0,0,0,0,0,0,0,0,0,0,0,0,0,0,0,0,2970,2956,2956,2956,2956,2942,2928,2928,2914,2901,2901,2901,2914,2914,2887,2887,2874,2874,2860,2834,2834,2821,2796,2796,2771,2771,2734,2698,2698,2686,2686,2652,2629,2629,2607,2596,2596,2585,2585,2564,2553,2553,2532,2532,2512,2491,2491,2471,2442,2442,2423,2423,2395,2367,2367,2349,2349,2323,2297,2297,2280,2280,2263,2239,2239,2223,2199,2199,2176,2176,2153,2131,2131,2109,2109,2094,2073,2073,2060,2060,2039,2026,2026,2000,1987,1987,1968,1968,1949,1937,1937,1919,1919,1895,1878,1878,1855,1855,1839,1823,1823,1812,1812,1796,1775,1775,1760,1745,1745,1731,1731,1716,1702,1702,1693,1693,1684,1670,1670,1656,1656,1643,1630,1630,1617,1617,1605,1588,1588,1576,1564,1564,1556,1556,1545,1533,1533,1529,1529,1522,1514,1514,1507,1503,1503,1503,1503,1500,1500,1500,1500,1503,1503,1503,1507,1507,1511,1518,1518,1526,1533,1533,1541,1541,1556,1580,1580,1597,1613,1613,1622,1635,1635,1648,1656,1656,1661,1661,1656,1656,1652,1648,1648,1643,1643,1643,1639,1639,1635,1635,1635,1630,1630,1626,1622,1622,1613,1609,1609,1588,1588,1564,1545,1545,1545,0,1514,1511,1511,1503,1503,1503,1503,1507,1507,1511,1514,1511,1511,1500,1500,1500,1500,1496,1496,1496,1496,1496,1496,1496,1492,1492,1496,1496,1503,1503,1507
0,0,0,0,0,0,0,0,0,0,0,0,0,0,0,0,0,0,0,0,0,0,0,0,0,0,0,0,0,0,0,0,0,0,2783,2758,2758,2758,2758,2734,2734,2734,2722,2698,2698,2686,2686,2686,0,0,2652,2652,2640,2640,2640,2640,2629,2629,2629,0,0,2652,2652,2652,2675,2675,2675,2686,0,2698,2698,2698,2698,2698,2698,0,0,0,0,2698,2686,2686,2675,2675,2675,2675,0,0,0,0,0,0,0,0,0,0,0,0,0,0,0,0,0,0,0,0,0,0,0,0,0,0,0,0,0,0,0,2640,2640,2640,2640,2652,2652,2652,2663,2663,2663,2663,2686,2686,2686,2710,2710,2710,2722,2734,2734,2746,2746,2758,2783,2783,2796,2808,2808,2821,2821,2834,2847,2847,2847,2874,2874,2874,2874,2874,2887,2887,2901,2914,2914,0,0,0,0,0,0,0,0,0,0,0,0,0,0,0,0,0,0,0,0,0,0,0,0,0,0,0,0,0,0,0,0,0,0,0,0,0,0,0,0,0,0,0,0,0,0,0,0,0,0,0,0,0,0,0,0,0,0,0,0,0,0,0,0,0,0,0,0,0,0,0,0,0,0,0,0,0,0,0,2901,2887,2887,2887,2887,2887,0,0,0,0,0,0,0,0,0,0,0,0,0,0,0,0,0,0,0,0,0,0,0,0,0,0,0,0,0,0,0,0,0,0,0,0,0,0,0,0,0,0,0,0,0,0,0,0,0,0,0,0,0,3074,3074,3089,3089,3089,3074,3074,3074,3029,3014,3014,2985,2985,2970,2956,2956,2914,2914,2874,2821,2821,2796,2771,2771,2771,0,0,0,0,2710,2710,2710,2710,2710,2710,2734,2746,2746,2771,2771,2771,2796,2796,2821,2821,2821,2887,2901,2901,2901,2901,2901,2914,2914,2914,2914,2914,2914,2914,2914,2914,2914,2928,2928,2928,2928,2928,2928,2928,2928,2928,2942,2942,2942,2942,2942,2942,2942,2956,2970,2970,2970,2999,2999,2999,2999,3014,3029,3029,3029,3029,3029,3029,3029,3029,3029,3029,3014,3014,2999,2999,2985,2970,2970,2956,2956,2956,2942,2942,2942,2928,2928,2914,2901,2901,2901,2901,2887,2874,2874,2860,2847,2847,2821,2821,2808,2783,2783,2758,2758,2722,2698,2698,2675,2675,2640,2618,2618,2607,2585,2585,2574,2574,2564,2553,2553,2532,2532,2512,2491,2491,2471,2442,2442,2423,2423,2395,2367,2367,2349,2349,2323,2297,2297,2280,2280,2263,2239,2239,2223,2199,2199,2176,2176,2153,2138,2138,2116,2116,2094,2073,2073,2060,2060,2039,2026,2026,2000,1987,1987,1968,1968,1949,1937,1937,1919,1919,1895,1878,1878,1855,1855,1839,1823,1823,1812,1812,1796,1775,1775,1760,1745,1745,1731,1731,1716,1707,1707,1693,1693,1684,1674,1674,1661,1661,1643,1630,1630,1617,1605,1605,1588,1588,1576,1564,1564,1556,1556,1545,1533,1533,1529,1529,1522,1514,1514,1507,1503,1503,1503,1503,1500,1500,1500,1500,1503,1503,1503,1507,1507,1511,1518,1518,1526,1533,1533,1545,1556,1556,1584,1584,1601,1613,1613,1626,1639,1639,1648,1656,1656,1661,1661,1656,1656,1652,1648,1648,1643,1643,1643,1639,1639,1635,1635,1635,1630,1630,1626,1622,1622,1613,1609,1609,1588,1588,1564,1545,1545,1545,0,1514,1511,1511,1507,1507,1503,1503,1507,1507,1511,1514,1511,1511,1503,1503,1503,1500,1500,1500,1496,1496,1496,1496,1496,1492,1492,1496,1496,1503,1503,1507
0,0,0,0,0,0,0,0,0,0,0,0,0,0,0,0,0,0,0,0,0,0,0,0,0,0,0,0,0,0,0,0,0,0,2783,2758,2758,2758,2758,2734,2734,2734,2722,2698,2698,2675,2675,2675,0,0,2652,2640,2640,2629,2629,2629,2629,2629,2629,0,0,2652,2652,2652,2675,2675,2675,2686,2698,2698,2698,2698,2698,2698,2698,2710,2722,2722,0,2698,2686,2686,2686,2675,2675,2663,2663,2663,0,0,0,0,0,2340,2340,2340,2358,2358,2323,2323,2323,0,0,0,0,0,0,0,0,0,0,0,0,0,0,0,0,2640,2640,2640,2640,2652,2652,2663,0,2675,2675,2675,2686,2686,2686,2710,2710,2710,2722,2734,2734,2746,2746,2758,2783,2783,2796,2808,2808,2821,2821,2821,2834,2834,2847,2874,2874,2874,2874,2874,2874,2874,2887,2901,2901,2901,2901,2901,2901,2901,2887,2887,2887,2887,2887,2887,2887,2887,2901,2901,2901,2901,2901,2901,2914,2914,2914,2928,2928,0,0,0,0,2985,2985,2999,2999,3014,3044,3044,3044,3059,3059,3059,3059,3059,3059,3059,3044,3044,3044,3044,3044,0,0,0,0,0,0,0,0,0,0,0,0,0,0,0,0,0,0,0,0,0,0,0,0,0,0,0,0,0,0,0,2901,2887,2887,2887,2887,2887,2901,2914,2914,2914,2914,2914,2914,2914,2928,2928,2928,2928,2928,2928,2942,2942,2942,2942,2928,2928,2928,2928,2928,2928,2928,2928,2914,2914,2914,2914,2914,2914,2928,2942,2942,2956,2970,2970,2985,2999,2999,3014,3014,3029,3044,3044,3044,3044,3044,3059,3044,3044,3059,3044,3044,3059,3044,3044,3044,3029,3029,3029,3014,3014,2985,2985,2970,2956,2956,2914,2914,2874,2821,2821,2796,2771,2771,2771,0,0,0,0,2710,2710,2710,2710,2710,2710,2734,2746,2746,2771,2771,2771,2796,2796,2821,2821,2821,2834,2847,2847,2860,2860,2860,2874,2874,2874,2874,2874,2874,2874,2874,2874,2874,2874,2887,2887,2887,2887,2887,2887,2887,2887,2901,2901,2914,2914,2914,2914,2914,2928,2928,2928,2942,2956,2956,2970,2970,2985,2985,2985,2999,2999,2999,2999,2999,2985,2985,2970,2970,2970,2970,2970,2956,2956,2956,2942,2942,2942,2942,2942,2942,2928,2928,2914,2901,2901,2901,2901,2887,2874,2874,2860,2847,2847,2821,2821,2808,2783,2783,2758,2758,2722,2698,2698,2675,2675,2640,2618,2618,2607,2585,2585,2574,2574,2564,2543,2543,2522,2512,2512,2481,2481,2462,2442,2442,2414,2414,2386,2367,2367,2340,2340,2323,2297,2297,2280,2263,2263,2239,2239,2223,2199,2199,2176,2176,2153,2138,2138,2116,2116,2102,2080,2080,2060,2046,2046,2026,2026,2006,1987,1987,1974,1974,1955,1943,1943,1919,1919,1901,1878,1878,1861,1861,1839,1823,1823,1812,1812,1796,1775,1775,1765,1745,1745,1731,1731,1716,1707,1707,1693,1693,1684,1674,1674,1661,1661,1648,1635,1635,1617,1605,1605,1592,1592,1576,1564,1564,1556,1556,1545,1533,1533,1529,1529,1522,1514,1514,1507,1503,1503,1503,1503,1500,1500,1500,1500,1500,1503,1503,1507,1507,1511,1514,1514,1522,1533,1533,1545,1556,1556,1584,1584,1601,1613,1613,1626,1639,1639,1652,1661,1661,1661,1661,1656,1656,1652,1648,1648,1648,1648,1643,1639,1639,1639,1635,1635,1635,1635,1626,1622,1622,1617,1613,1613,1597,1597,1572,1552,1552,1552,0,1522,1514,1514,1507,1507,1507,1507,1507,1507,1514,1514,1511,1511,1503,1503,1503,1500,1500,1500,1496,1496,1496,1496,1496,1492,1492,1496,1496,1503,1503,1507
0,0,0,0,0,0,0,0,0,0,0,0,0,0,0,0,0,0,0,0,0,0,0,0,0,0,0,0,0,0,0,0,0,0,2758,2746,2746,2734,2734,2722,2710,2710,2698,2686,2686,2663,2663,2652,2652,0,0,2640,2640,2629,2629,2618,2618,2618,2618,0,0,0,0,0,0,0,2686,2686,2698,2686,2686,2686,2710,0,2710,2710,2722,2722,0,0,2698,2698,2686,2686,2686,2663,2663,2663,0,0,0,0,0,2340,2340,2340,2358,2358,2323,2323,2323,0,0,0,0,0,0,0,0,0,0,0,0,0,0,2629,2629,2629,2640,2640,2640,2652,2652,2663,0,2675,2675,2675,2686,2686,2686,2698,2710,2710,2722,2734,2734,2746,2746,2758,2783,2783,2796,2808,2808,2821,2821,2821,2834,2834,2847,2860,2860,2860,2860,2860,2874,2874,2887,2887,2887,2901,2901,2901,2901,2901,2887,2887,2887,2887,2887,2887,2887,2887,2901,2901,2901,2901,2901,2901,2914,2914,2914,2928,2928,0,0,0,0,2985,2985,2999,2999,3014,3044,3044,3044,3059,3059,3059,3059,3059,3059,3059,3044,3044,3044,3044,3014,2999,2999,2985,2985,2970,2942,2942,2928,2914,2914,2887,2887,2860,2860,2860,2834,2821,2821,2821,2821,2821,2821,2834,2834,2847,2860,2860,2860,2860,2860,2860,2860,2874,2874,2860,2860,2860,2887,2887,2887,2887,2887,2887,2901,2901,2901,2914,2914,2914,2914,2914,2914,2914,2914,2914,2914,2914,2914,2914,2928,2914,2914,2928,2914,2914,2914,2914,2914,2914,2928,2942,2942,2956,2970,2970,2985,2999,2999,3014,3014,3029,3044,3044,3044,3044,3044,3059,3044,3044,3059,3044,3044,3059,3044,3044,3044,3029,3029,2999,2985,2985,2956,2956,2928,2914,2914,2874,2874,2834,2796,2796,2771,2758,2758,2734,2734,2722,2722,2722,2710,2710,2698,2698,2710,2710,2734,2746,2746,2758,2771,2771,2796,2796,2808,2821,2821,2834,2847,2847,2860,2860,2860,2874,2874,2874,2874,2874,2874,2874,2874,2874,2874,2874,2887,2887,2887,2887,2887,2887,2887,2887,2901,2901,2914,2914,2914,2914,2914,2928,2928,2928,2942,2956,2956,2970,2970,2985,2985,2985,2999,2999,2999,2999,2999,2985,2985,2970,2970,2970,2970,2970,2956,2956,2956,2942,2942,2942,2928,2928,2928,2914,2914,2901,2887,2887,2887,2887,2874,2847,2847,2834,2821,2821,2808,2808,2783,2758,2758,2746,2746,2710,2686,2686,2663,2663,2629,2618,2618,2596,2585,2585,2574,2574,2553,2532,2532,2522,2501,2501,2481,2481,2462,2433,2433,2414,2414,2386,2358,2358,2340,2340,2314,2297,2297,2280,2263,2263,2239,2239,2223,2199,2199,2176,2176,2153,2138,2138,2116,2116,2102,2080,2080,2066,2046,2046,2026,2026,2013,1993,1993,1980,1980,1961,1943,1943,1925,1925,1901,1884,1884,1861,1861,1844,1823,1823,1807,1807,1791,1775,1775,1760,1745,1745,1731,1731,1716,1707,1707,1693,1693,1684,1674,1674,1661,1661,1648,1635,1635,1617,1605,1605,1592,1592,1576,1564,1564,1556,1556,1545,1537,1537,1529,1529,1522,1514,1514,1507,1503,1503,1503,1503,1500,1500,1500,1500,1500,1503,1503,1507,1507,1511,1514,1514,1522,1533,1533,1545,1564,1564,1588,1605,1605,1617,1617,1630,1643,1643,1656,1665,1665,1665,1665,1661,1661,1652,1652,1652,1648,1648,1648,1643,1643,1639,1639,1639,1635,1635,1630,1626,1626,1622,1613,1613,1597,1597,1572,1552,1552,1552,0,1522,1514,1514,1507,1507,1507,1507,1507,1507,1511,1514,1511,1511,1503,1503,1503,1500,1500,1500,1496,1496,1496,1496,1496,1492,1492,1496,1496,1503,1503,1507
0,0,0,0,0,0,0,0,0,0,0,0,0,0,0,0,0,0,0,0,0,0,0,0,0,0,0,0,0,0,0,0,0,0,2758,2746,2746,2734,2734,2722,2710,2710,2698,2686,2686,2663,2663,2652,2652,0,0,0,0,2629,2629,2618,2618,2618,2618,0,0,0,0,0,0,0,0,0,0,2686,2686,2686,2675,2675,2675,2710,2722,2710,2710,2710,2698,2698,2686,2618,2618,2618,2663,2663,0,0,0,0,0,2340,2340,2314,2314,2314,2297,2297,2297,0,0,0,0,0,0,0,0,0,0,0,0,0,0,2629,2629,2629,2629,2629,2640,0,0,0,0,2663,2663,2663,2675,2686,2686,2698,2710,2710,2722,2734,2734,2746,2746,2758,2783,2783,2796,2808,2808,2821,2821,2821,2834,2834,2847,2860,2860,2860,2860,2860,2874,2874,2887,2887,2887,2901,2901,2901,2901,2901,2887,2887,2887,2887,2887,2887,2887,2887,2887,2901,2901,2901,2901,2901,2914,2914,2914,2928,2928,2942,2942,2942,2956,2956,2970,2985,2985,3014,3029,3029,3029,3044,3044,3044,3044,3044,3044,3029,3014,3014,2999,2999,2985,2970,2970,2942,2942,2928,2914,2914,2901,2874,2874,2847,2847,2834,2808,2808,2796,2796,2796,2796,2796,2796,2796,2808,2808,2847,2860,2860,2860,2860,2860,2860,2860,2874,2874,2860,2860,2860,2887,2887,2887,2887,2887,2887,2901,2901,2901,2914,2914,2914,2914,2914,2914,2914,2914,2914,2914,2914,2914,2914,2928,2914,2914,2914,2914,2914,2914,2914,2914,2914,2928,2942,2942,2956,2956,2956,2970,2985,2985,2999,2999,3014,3029,3029,3029,3029,3029,3029,3029,3029,3029,3029,3029,3029,3029,3029,3014,2999,2999,2985,2956,2956,2942,2942,2928,2901,2901,2860,2860,2834,2796,2796,2758,2746,2746,2734,2734,2722,2710,2710,2710,2710,2698,2698,2710,2710,2734,2746,2746,2758,2771,2771,2796,2796,2808,2821,2821,2834,2847,2847,2860,2874,2874,2874,2874,2887,2887,2874,2874,2887,2887,2887,2887,2887,2887,2887,2887,2887,2887,2887,2887,2887,2901,2901,2914,2914,2914,2914,2914,2928,2928,2928,2942,2956,2956,2970,2970,2970,2970,2970,2970,2985,2970,2970,2970,2956,2956,2956,2956,2956,2942,2942,2942,2928,2928,2928,2914,2914,2914,2914,2901,2901,2914,2887,2874,2874,2874,2874,2874,2847,2847,2821,2808,2808,2783,2783,2758,2734,2734,2722,2722,2698,2686,2686,2663,2663,2629,2618,2618,2596,2585,2585,2574,2574,2553,2532,2532,2522,2501,2501,2481,2481,2462,2433,2433,2414,2414,2386,2358,2358,2340,2340,2314,2297,2297,2280,2263,2263,2239,2239,2223,2199,2199,2176,2176,2153,2138,2138,2116,2116,2102,2080,2080,2066,2046,2046,2026,2026,2013,1993,1993,1980,1980,1961,1943,1943,1925,1925,1901,1884,1884,1861,1861,1844,1828,1828,1807,1791,1791,1775,1775,1760,1745,1745,1731,1731,1716,1707,1707,1697,1697,1684,1674,1674,1661,1652,1648,1635,1635,1622,1605,1605,1592,1592,1580,1568,1568,1556,1556,1549,1537,1537,1529,1529,1522,1514,1514,1511,1507,1507,1503,1503,1500,1500,1500,1500,1500,1503,1503,1507,1507,1511,1514,1514,1522,1533,1533,1545,1564,1564,1588,1605,1605,1617,1617,1630,1643,1643,1656,1665,1665,1665,1665,1661,1661,1652,1652,1652,1648,1648,1648,1643,1643,1639,1639,1639,1635,1635,1630,1626,1626,1622,1617,1617,1601,1601,1576,1556,1556,1556,0,1522,1514,1514,1507,1507,1507,1507,1507,1507,1511,1514,1514,1514,1507,1503,1503,1503,1500,1500,1496,1496,1496,1496,1496,1492,1492,1496,1496,1503,1503,1507
0,0,0,0,0,0,0,0,0,0,0,0,0,0,0,0,0,0,0,0,0,0,0,0,0,0,0,0,0,0,0,0,0,0,2734,2734,2734,2710,2710,2698,2686,2686,2675,2663,2663,2652,2652,2640,2629,2629,2618,2618,2618,2618,2618,2607,2596,2596,2596,2607,2607,2607,0,0,0,0,0,0,0,2686,2686,2663,2652,2652,2652,0,0,2710,2710,2710,0,0,0,2618,2618,2618,0,0,0,0,0,0,2314,2314,0,2314,2314,2314,2297,2297,2297,0,0,0,0,0,0,0,0,0,0,0,0,0,0,0,0,2629,2629,2629,0,0,0,0,0,2663,2663,2663,2675,2686,2686,2698,2710,2710,2722,2734,2734,2734,2734,2758,2783,2783,2796,2808,2808,2808,2808,2808,2834,2834,2834,2860,2860,2847,2847,2847,2860,2860,2874,2874,2874,2887,2887,2887,2887,2874,2874,2887,2887,2887,2887,2887,2887,2887,2887,2901,2901,2901,2901,2901,2914,2914,2914,2928,2928,2928,2942,2942,2956,2956,2970,2985,2985,2999,3014,3014,3029,3044,3044,3044,3044,3044,3044,3029,3014,3014,2999,2999,2985,2970,2970,2942,2942,2928,2914,2914,2901,2874,2874,2847,2847,2834,2808,2808,2796,2796,2796,2796,2796,2796,2796,2808,2808,2808,2821,2821,2834,2834,2847,2860,2847,2847,2847,2847,2860,2860,2860,2874,2860,2860,2874,2874,2874,2874,2887,2887,2887,2887,2887,2887,2901,2901,2901,2901,2901,2901,2901,2901,2901,2914,2914,2914,2914,2901,2901,2901,2914,2914,2914,2928,2928,2942,2956,2956,2956,2985,2985,2985,2985,2999,2999,2999,2999,2999,2999,3014,3014,3029,3029,3029,3029,3029,3029,3029,3014,2999,2999,2985,2956,2956,2942,2942,2928,2901,2901,2860,2860,2834,2796,2796,2758,2746,2746,2734,2734,2722,2710,2710,2710,2710,2698,2698,2710,2710,2722,2746,2746,2758,2771,2771,2796,2796,2808,2821,2821,2834,2847,2847,2860,2860,2860,2874,2874,2874,2874,2874,2874,2874,2874,2874,2874,2874,2887,2887,2887,2887,2887,2887,2887,2901,2901,2901,2914,2914,2914,2914,2914,2928,2928,2928,2942,2942,2942,2956,2956,2956,2956,2956,2956,2956,2956,2956,2956,2942,2942,2942,2956,2956,2942,2942,2942,2928,2928,2928,2914,2914,2914,2914,2901,2901,2914,2887,2874,2874,2874,2874,2874,2847,2847,2821,2808,2808,2783,2783,2758,2734,2734,2722,2722,2698,2675,2675,2652,2629,2629,2607,2607,2596,2574,2574,2564,2564,2553,2532,2532,2512,2491,2491,2471,2471,2452,2433,2433,2404,2404,2386,2358,2358,2332,2332,2314,2297,2297,2280,2263,2263,2239,2239,2223,2199,2199,2183,2183,2160,2138,2138,2116,2116,2102,2080,2080,2066,2046,2046,2026,2026,2013,1993,1993,1980,1980,1968,1949,1949,1931,1931,1907,1884,1884,1867,1867,1850,1828,1828,1807,1791,1791,1775,1775,1760,1750,1750,1731,1731,1721,1712,1712,1697,1697,1684,1679,1679,1665,1652,1652,1635,1635,1622,1605,1605,1592,1592,1580,1568,1568,1556,1556,1549,1537,1537,1529,1529,1522,1514,1514,1511,1507,1507,1503,1503,1500,1500,1500,1500,1500,1503,1503,1507,1507,1507,1514,1514,1522,1533,1533,1549,1572,1572,1597,1613,1613,1626,1626,1639,1652,1652,1670,1674,1670,1665,1665,1661,1661,1656,1652,1652,1652,1648,1648,1643,1643,1643,1639,1639,1639,1635,1635,1630,1630,1626,1622,1622,1609,1609,1584,1584,0,0,0,1522,1514,1514,1507,1507,1507,1507,1507,1507,1514,1518,1514,1514,1507,1503,1503,1503,1500,1500,1496,1496,1496,1496,1496,1492,1492,1496,1496,1503,1503,1507
0,0,0,0,0,0,0,0,0,0,0,0,0,0,0,0,0,0,0,0,0,0,0,0,0,0,0,0,0,0,0,0,0,0,2734,2710,2710,2710,2710,2698,2675,2675,2663,2640,2640,2629,2629,2618,2618,2618,2618,2618,2618,2618,2618,2607,2574,2574,2574,2607,2607,2607,0,0,0,0,0,0,0,0,0,2663,2652,2652,2652,0,0,0,0,0,0,0,0,0,0,0,0,0,0,0,0,0,2314,2314,0,2314,2314,2314,2297,2297,2297,0,0,0,0,0,0,0,0,0,0,0,0,0,0,0,0,2629,2629,2629,0,0,0,0,0,2663,2663,2663,2675,2675,2675,2698,2710,2710,2722,2734,2734,2734,2734,2758,2783,2783,2796,2808,2796,2796,2796,2808,2808,2808,2834,2847,2847,2834,2834,2834,2847,2847,2847,2874,2874,2887,2887,2887,2887,2874,2874,2887,2887,2887,2887,2887,2887,2887,2901,2901,2901,2901,2901,2901,2914,2914,2914,2928,2928,2928,2942,2942,2956,2956,2970,2985,2985,2999,3014,3014,3029,3029,3029,3044,3044,3029,3029,2999,2985,2985,2970,2970,2956,2942,2942,2928,2928,2901,2887,2887,2860,2847,2847,2821,2821,2808,2783,2783,2771,2771,2771,2771,2771,2771,2771,2771,2771,2783,2796,2796,2821,2821,2821,2834,2834,2834,2834,2834,2847,2847,2847,2847,2847,2847,2847,2847,2860,2860,2860,2874,2874,2874,2887,2887,2901,2901,2901,2901,2901,2901,2901,2901,2901,2914,2914,2914,2914,2901,2901,2901,2914,2914,2914,2928,2928,2942,2956,2956,2956,2985,2985,2985,2985,2999,2999,2999,2999,2999,2999,3014,3014,3014,3014,3014,3014,3014,3014,3014,2999,2999,2999,2970,2956,2956,2928,2928,2914,2887,2887,2860,2860,2821,2796,2796,2758,2746,2746,2734,2734,2722,2710,2710,2698,2698,2710,2710,2710,2710,2722,2746,2746,2746,2771,2771,2783,2783,2808,2808,2808,2834,2834,2834,2847,2860,2860,2860,2860,2874,2874,2874,2874,2874,2874,2874,2874,2874,2887,2887,2887,2887,2887,2887,2887,2901,2901,2901,2914,2914,2914,2914,2914,2928,2928,2928,2942,2942,2942,2956,2956,2956,2956,2956,2956,2956,2956,2956,2956,2942,2942,2942,2942,2942,2928,2928,2914,2914,2914,2914,2901,2901,2887,2887,2887,2887,2887,2887,2874,2874,2874,2874,2847,2847,2847,2821,2796,2796,2758,2758,2734,2722,2722,2698,2698,2686,2675,2675,2640,2629,2629,2607,2607,2596,2574,2574,2564,2564,2543,2522,2522,2501,2481,2481,2462,2462,2442,2423,2423,2404,2404,2386,2358,2358,2332,2332,2314,2297,2297,2280,2263,2263,2247,2247,2223,2199,2199,2183,2183,2160,2138,2138,2116,2116,2102,2080,2080,2066,2046,2046,2032,2032,2013,2000,2000,1980,1980,1968,1949,1949,1931,1931,1907,1884,1884,1867,1850,1850,1828,1828,1807,1791,1791,1775,1775,1760,1750,1750,1731,1731,1721,1712,1712,1697,1697,1684,1679,1679,1665,1652,1652,1635,1635,1622,1609,1609,1592,1592,1580,1568,1568,1556,1556,1549,1537,1537,1529,1526,1522,1518,1518,1511,1507,1507,1503,1503,1500,1500,1500,1500,1500,1503,1503,1507,1507,1507,1514,1514,1522,1537,1537,1556,1580,1580,1605,1622,1622,1639,1652,1652,1665,1665,1674,1679,1679,1670,1670,1665,1665,1661,1656,1656,1652,1652,1652,1643,1643,1643,1639,1639,1639,1635,1635,1630,1630,1626,1622,1622,1609,1609,1584,1564,1564,1564,0,1522,1514,1514,1507,1507,1503,1503,1507,1507,1511,1514,1514,1507,1507,1503,1503,1503,1500,1500,1496,1496,1496,1496,1496,1492,1492,1496,1496,1503,1507,1507
0,0,0,0,0,0,0,0,0,0,0,0,0,0,0,0,0,0,0,0,0,0,0,0,0,0,0,0,0,0,0,0,0,0,0,2710,2710,2710,0,0,2675,2675,2663,2640,2640,2629,2629,2618,2618,2618,2618,2618,0,0,0,0,2574,2574,2574,2574,2607,2607,0,0,0,0,0,0,0,0,0,2663,2652,2652,2629,2629,0,0,0,0,2585,2585,2585,0,0,0,0,0,0,0,2358,2358,2314,2305,2305,2305,2305,2305,2280,2280,2280,0,0,0,0,0,0,0,0,0,0,0,0,0,0,0,0,0,0,0,0,0,0,0,0,2663,2663,2675,2675,2675,2675,2698,2710,2710,2722,2734,2734,2746,2746,2758,2783,2783,2796,2808,2796,2796,2796,2808,2808,2808,2834,2847,2847,2834,2834,2834,2847,2847,2847,2874,2874,2887,2887,2887,2887,2874,2874,2887,2887,2887,2887,2887,2887,2887,2901,2901,2901,2901,2901,2901,2914,2914,2914,2928,2928,2928,2942,2942,2956,2956,2956,2970,2970,2985,2999,2999,3014,3014,3014,3029,2999,2999,2999,2970,2956,2956,2956,2956,2928,2914,2914,2901,2901,2874,2847,2847,2834,2821,2821,2808,2808,2808,2783,2783,2771,2771,2771,2771,2771,2771,2771,2771,2771,2783,2796,2796,2821,2821,2821,2834,2834,2834,2834,2834,2847,2847,2847,2847,2847,2847,2847,2847,2860,2860,2860,2874,2874,2874,2874,2874,2887,2887,2887,2887,2887,2887,2901,2901,2901,2901,2901,2901,2901,2901,2901,2901,2901,2914,2914,2928,2928,2942,2942,2942,2942,2970,2970,2970,2970,2985,2985,2985,2985,2985,2985,2999,2999,2999,2999,2999,2999,2999,2999,2999,2999,2970,2970,2956,2942,2942,2914,2914,2914,2887,2887,2860,2860,2821,2796,2796,2771,2746,2746,2734,2734,2722,2710,2710,2698,2698,2710,2710,2710,2710,2722,2746,2746,2746,2771,2771,2783,2783,2808,2808,2808,2834,2834,2834,2847,2860,2860,2860,2860,2874,2874,2874,2874,2874,2874,2874,2874,2874,2887,2887,2887,2887,2887,2887,2887,2901,2901,2901,2914,2914,2914,2914,2914,2914,2928,2928,2928,2942,2942,2942,2942,2942,2942,2942,2942,2942,2942,2942,2942,2942,2942,2928,2928,2928,2914,2914,2914,2914,2914,2901,2901,2901,2887,2887,2874,2874,2887,2874,2874,2874,2874,2874,2847,2834,2834,2821,2796,2796,2758,2758,2734,2722,2722,2698,2698,2686,2675,2675,2640,2629,2629,2607,2607,2596,2574,2574,2564,2564,2543,2522,2522,2501,2481,2481,2462,2462,2442,2423,2423,2404,2404,2376,2358,2358,2332,2332,2314,2297,2297,2280,2263,2263,2247,2247,2223,2199,2199,2183,2183,2160,2138,2138,2116,2102,2102,2080,2080,2066,2046,2046,2032,2032,2013,2000,2000,1980,1980,1968,1955,1955,1937,1937,1913,1895,1895,1872,1850,1850,1828,1828,1812,1796,1796,1775,1775,1765,1750,1750,1736,1736,1721,1712,1712,1697,1697,1688,1679,1679,1665,1652,1652,1639,1639,1622,1609,1609,1592,1592,1580,1568,1568,1556,1556,1549,1541,1541,1533,1526,1526,1518,1518,1511,1507,1507,1503,1503,1503,1500,1500,1500,1500,1503,1503,1507,1507,1507,1514,1514,1522,1537,1537,1556,1580,1580,1605,1622,1622,1639,1652,1652,1665,1665,1674,1679,1679,1670,1670,1665,1665,1661,1656,1656,1652,1652,1652,1648,1648,1648,1643,1643,1643,1639,1639,1635,1635,1630,1626,1626,1613,1613,1584,1564,1564,1564,0,1526,1511,1511,1507,1507,1503,1503,1507,1507,1511,1514,1514,1507,1507,1503,1503,1503,1503,1503,1500,1500,1496,1496,1496,1496,1496,1496,1496,1503,1507,1507
0,0,0,0,0,0,0,0,0,0,0,0,0,0,0,0,0,0,0,0,0,0,0,0,0,0,0,0,0,0,0,0,0,0,0,2698,2698,2698,0,0,2675,2675,2640,2629,2629,2618,2618,2618,2607,2607,2607,2607,0,0,0,0,2574,2574,2553,2553,0,0,0,0,0,0,0,0,0,0,0,0,0,0,2618,2618,2629,2629,0,0,2585,2585,2585,0,0,0,0,0,0,0,2358,2358,2314,2305,2305,2305,2305,2305,2280,2280,2280,0,0,0,0,0,0,0,0,0,0,0,0,0,0,0,0,0,0,0,0,0,0,2640,2640,2640,2652,2663,2663,2675,2675,2698,2710,2710,2722,2734,2734,2746,2746,2758,2783,2783,2783,2796,2796,2796,2796,2808,2808,2808,2821,2834,2834,2821,2821,2821,2821,2821,2834,2847,2847,2860,2874,2874,2874,2874,2874,2887,2887,2887,2887,2887,2887,2887,2901,2901,2901,2901,2914,2914,2914,2914,2914,2928,2928,2928,2942,2942,2956,2956,2956,2970,2970,2985,2999,2999,3014,3014,3014,3029,2999,2999,2999,2970,2956,2956,2956,2956,2928,2914,2914,2901,2901,2874,2847,2847,2834,2821,2821,2808,2808,2783,2771,2771,2758,2746,2746,2746,2746,2746,2746,2758,2758,2758,2771,2771,2783,2783,2796,2808,2808,2808,2821,2808,2808,2808,2821,2821,2821,2834,2834,2834,2847,2847,2847,2860,2860,2860,2860,2860,2860,2874,2874,2874,2874,2874,2874,2874,2887,2887,2887,2887,2887,2887,2887,2887,2901,2901,2901,2914,2914,2928,2928,2928,2942,2970,2970,2970,2970,2985,2985,2985,2985,2985,2985,2999,2999,2999,2999,2999,2999,2999,2999,2999,2999,2970,2970,2956,2942,2942,2914,2914,2914,2887,2887,2860,2860,2821,2796,2796,2758,2746,2746,2734,2734,2722,2710,2710,2698,2698,2710,2710,2710,2710,2722,2734,2734,2746,2758,2758,2771,2771,2796,2796,2796,2808,2821,2821,2821,2834,2834,2847,2847,2847,2847,2847,2847,2860,2860,2860,2860,2860,2874,2874,2874,2887,2887,2887,2887,2887,2901,2901,2901,2901,2901,2914,2914,2914,2914,2914,2928,2928,2928,2942,2942,2942,2942,2942,2942,2942,2942,2942,2942,2942,2942,2928,2928,2928,2914,2914,2914,2914,2914,2901,2901,2901,2887,2887,2874,2874,2887,2874,2874,2874,2874,2874,2847,2834,2834,2821,2796,2796,2758,2758,2734,2710,2710,2698,2698,2686,2663,2663,2640,2629,2629,2607,2607,2596,2574,2574,2553,2553,2543,2522,2522,2501,2481,2481,2462,2462,2442,2423,2423,2395,2395,2376,2349,2349,2332,2314,2314,2297,2297,2272,2263,2263,2239,2239,2223,2199,2199,2183,2183,2160,2138,2138,2123,2102,2102,2080,2080,2066,2046,2046,2032,2032,2013,2000,2000,1987,1987,1968,1955,1955,1937,1937,1913,1895,1895,1872,1850,1850,1828,1828,1812,1796,1796,1775,1775,1765,1750,1750,1740,1740,1721,1712,1712,1697,1697,1688,1679,1679,1665,1652,1652,1639,1639,1622,1609,1609,1592,1592,1580,1568,1568,1556,1556,1549,1541,1541,1533,1526,1526,1518,1518,1511,1507,1507,1503,1503,1503,1500,1500,1500,1503,1503,1503,1507,1507,1507,1514,1514,1522,1541,1541,1560,1588,1588,1617,1630,1630,1652,1661,1661,1679,1688,1688,1688,1684,1674,1674,1670,1670,1661,1661,1661,1656,1652,1652,1648,1648,1648,1643,1643,1643,1639,1639,1635,1635,1630,1626,1626,1617,1617,1592,1564,1564,1564,0,0,1511,1511,1507,1503,1503,1503,1507,1507,1507,1511,1511,1507,1507,1503,1503,1503,1500,1500,1500,1496,1496,1496,1496,1496,1496,1496,1496,1503,1507,1507
