0,0,0,0,0,0,0,0,0,0,0,0,0,0,0,0,0,0,0,0,0,0,0,0,0,0,0,0,0,0,0,0,0,0,0,0,0,0,0,0,1597,1597,1597,0,0,0,0,0,0,0,0,0,0,0,0,0,0,0,0,0,0,0,0,0,0,0,0,0,0,0,0,0,0,0,0,0,0,0,0,0,0,0,0,0,0,0,0,0,0,0,0,0,0,0,2512,2512,2574,2574,2629,2640,2640,2652,2652,2652,2663,2663,2663,2675,2675,2675,2675,2675,2675,2663,2652,2652,2652,2652,2652,2640,2640,2640,2640,2652,2652,2663,2663,2675,2686,2686,2710,2746,2746,2771,2796,2796,2834,2860,2860,2874,2874,2901,2942,2942,2985,3014,3014,3059,3074,3074,3074,3074,3089,3089,3089,3105,3105,3105,3120,3120,3120,3136,3136,3168,3185,3185,3218,3252,3252,3340,3340,3395,3452,3452,3511,3613,3613,3678,3722,3722,3767,3791,3791,3814,3814,3862,3910,3910,3961,3986,3986,4012,4119,4119,4203,4203,4291,4382,4382,4477,4510,4510,4611,4681,4681,4790,4790,4827,4827,4827,4827,4827,4827,4865,4865,4865,4865,4865,4904,4943,4943,4983,5023,5023,5106,5106,5192,5236,5236,5326,5373,5373,5420,5468,5468,5517,5517,5517,5566,5566,5617,5721,5721,5829,5829,5884,5999,5999,6179,6305,6305,6436,6573,6573,6644,6644,6716,6790,6790,6790,6865,6865,6865,6865,6865,6865,6865,6865,6865,6790,6790,6790,6790,6790,6716,6716,6716,6644,6644,6644,6573,6573,6573,6573,6573,6573,6573,6573,6573,6573,6573,6573,6573,6573,6573,6573,6573,6644,6644,6644,6644,6644,6644,6644,6644,6716,6716,6716,6716,6716,6716,6716,6716,6716,6716,6644,6644,6644,6644,6644,6573,6573,6573,6504,6504,6504,6504,6504,6504,6504,6436,6436,6436,6436,6436,6436,6436,6436,6436,6370,6370,6370,6370,6370,6436,6436,6436,6504,6573,6573,6573,6573,6573,6644,6573,6504,6504,6436,6436,6436,6305,6305,6179,5999,5999,5829,5829,5566,5373,5373,5236,5236,5064,4943,4943,4790,4790,4646,4543,4543,4510,4510,4477,4477,4477,4445,4445,4445,4413,4413,4351,4321,4321,4291,4291,4291,4232,4232,4203,4175,4175,4175,4147,4147,4147,4147,4147,4147,4147,4147,4147,4175,4175,4175,4175,4175,4175,4175,4175,4203,4203,4203,4203,4203,4203,4203,4203,4203,4203,4203,4203,4203,4203,4203,4203,4203,4175,4175,4119,4119,4119,4092,4065,4065,4038,4038,4012,4012,4012,3986,3986,3986,3986,3986,3961,3935,3935,3910,3910,3886,3862,3862,3838,3838,3838,3838,3838,3838,3838,3838,3838,3838,3838,3838,3838,3838,3862,3862,3862,3862,3862,3862,3862,3862,3862,3862,3862,3862,3862,3862,3862,3838,3838,3838,3838,3814,3814,3791,3791,3791,3791,3791,3791,3767,3767,3767,3767,3767,3767,3791,3791,3791,3814,3814,3814,3814,3838,3862,3862,3886,3886,3886,3935,3935,3935,3961,3961,3961,3986,3986,3986,4012,4012,4012,4012,4038,4038,4038,4065,4065,4065,4065,4065,4065,4065,4065,4065,4065,4065,4065,4038,4038,4038,4038,4038,4038,4012,4012,4012,4012,4012,4012,4012,4012,4012,4012,4012,4012,4012,4012,4012,4012,4012,4012,4012,4012,4012,4012,4012,4012,4012,4038,4038,4038,4038,4038,4012,4012,4012,4012,4012,4012,4012,3986,3986,3986,3986,3986,3986,3961,3961,3935,3935,3935,3910,3910,3910,3910,3910,3910,3910,3910,3910,3910,3910,3910,3910,3910,3935,3935,3935,3961,3961,3961,3961,3961,3986,3986,3986,3986,3986,4012,4012,4012,4038,4038,4038,4038,4038,4038
0,0,0,0,0,0,0,0,0,0,0,0,0,0,0,0,0,0,0,0,0,0,0,0,0,0,0,0,0,0,0,0,0,0,0,0,0,0,0,0,0,0,0,0,0,0,0,0,0,0,0,0,0,0,0,0,0,0,0,0,0,0,0,0,0,0,0,0,0,0,0,0,0,0,0,0,0,0,0,0,0,0,0,0,0,0,0,0,0,0,0,0,0,0,0,2607,2607,2607,2663,2663,2652,2652,2652,2652,2663,2663,2663,2675,2675,2675,2675,2663,2663,2663,2652,2652,2640,2640,2640,2629,2629,2629,2640,2652,2652,2663,2663,2675,2686,2686,2710,2746,2746,2771,2796,2796,2834,2860,2860,2887,2887,2928,2956,2956,2985,3014,3014,3044,3044,3044,3059,3059,3074,3089,3089,3089,3105,3105,3120,3120,3120,3136,3136,3168,3185,3185,3218,3269,3269,3340,3340,3414,3452,3452,3531,3613,3613,3700,3767,3767,3791,3838,3838,3862,3862,3886,3961,3961,3986,4038,4038,4065,4119,4119,4203,4203,4291,4382,4382,4477,4510,4510,4611,4681,4681,4716,4716,4753,4753,4753,4790,4790,4790,4790,4827,4827,4827,4827,4865,4904,4904,4943,5023,5023,5064,5064,5149,5236,5236,5281,5326,5326,5373,5420,5420,5468,5468,5517,5566,5566,5617,5668,5668,5774,5774,5884,5999,5999,6117,6241,6241,6370,6504,6504,6573,6573,6644,6716,6716,6716,6790,6716,6716,6790,6790,6790,6790,6865,6865,6790,6790,6790,6790,6790,6716,6716,6716,6644,6644,6644,6644,6644,6573,6573,6573,6573,6573,6573,6644,6644,6644,6644,6644,6644,6644,6716,6716,6716,6716,6790,6790,6644,6644,6644,6644,6716,6716,6716,6716,6716,6716,6716,6716,6716,6716,6644,6644,6644,6644,6644,6573,6573,6573,6504,6504,6504,6504,6504,6504,6504,6436,6436,6436,6436,6436,6436,6436,6436,6436,6436,6436,6436,6504,6504,6504,6573,6573,6573,6573,6573,6644,6644,6644,6644,6644,6573,6573,6504,6504,6436,6370,6370,6241,6057,6057,5884,5884,5668,5420,5420,5236,5236,5106,4943,4943,4790,4790,4646,4543,4543,4510,4510,4477,4477,4477,4445,4445,4445,4413,4413,4351,4321,4321,4291,4291,4291,4232,4232,4203,4175,4175,4119,4092,4092,4092,4092,4092,4065,4065,4065,4065,4092,4092,4119,4119,4119,4119,4119,4147,4147,4147,4147,4147,4147,4175,4175,4175,4175,4175,4175,4175,4203,4203,4203,4175,4175,4147,4147,4119,4119,4119,4092,4065,4065,4038,4038,4012,4012,4012,3986,3986,3986,3986,3986,3961,3935,3935,3910,3910,3886,3886,3886,3862,3838,3838,3838,3838,3838,3838,3838,3838,3838,3838,3838,3862,3862,3862,3862,3862,3862,3862,3862,3862,3862,3862,3862,3862,3862,3862,3862,3862,3838,3838,3838,3838,3814,3814,3791,3791,3791,3767,3767,3767,3767,3767,3767,3767,3767,3767,3791,3791,3791,3814,3814,3814,3814,3838,3862,3862,3886,3886,3886,3935,3935,3935,3961,3961,3961,3986,3986,3986,3986,3986,4012,4012,4012,4038,4038,4038,4065,4065,4065,4065,4065,4065,4065,4065,4065,4065,4065,4038,4038,4038,4038,4038,4038,4038,4038,4012,4012,4012,4012,4012,4012,4012,4012,4012,4012,4012,4012,4012,4012,4012,4012,4012,4012,4012,4012,4038,4038,4038,4038,4038,4038,4038,4038,4038,4038,4038,4038,4038,4012,4012,4012,3986,3986,3986,3986,3986,3961,3961,3935,3935,3935,3910,3910,3910,3910,3910,3910,3910,3910,3910,3910,3910,3910,3910,3910,3910,3935,3935,3935,3935,3935,3961,3961,3961,3986,3986,3986,3986,4012,4012,4012,4038,4038,4038,4038,4038,4065
0,0,0,0,0,0,0,0,0,0,0,0,0,0,0,0,0,0,0,0,0,0,0,0,0,0,0,0,0,0,0,0,0,0,0,0,0,0,0,0,0,0,0,0,0,0,0,0,0,0,0,0,0,0,0,0,0,0,0,0,0,0,0,0,0,0,0,0,0,0,0,0,0,0,0,0,0,0,0,0,0,0,0,0,0,0,0,0,0,0,0,0,0,0,2553,2553,2607,2607,2663,2663,2663,2675,2675,2675,2675,2675,2675,2675,2663,2663,2663,2652,2652,2652,2640,2640,2629,2629,2629,2618,2618,2618,2629,2640,2640,2663,2675,2675,2698,2698,2722,2771,2771,2796,2834,2834,2847,2887,2887,2914,2914,2942,2956,2956,2999,3014,3014,3044,3044,3044,3059,3059,3074,3089,3089,3089,3105,3105,3120,3120,3120,3136,3136,3168,3185,3185,3218,3269,3269,3340,3340,3414,3452,3452,3511,3613,3613,3678,3745,3745,3791,3838,3838,3862,3862,3886,3961,3961,3986,4038,4038,4065,4119,4119,4203,4203,4291,4382,4382,4413,4510,4510,4543,4611,4611,4646,4646,4681,4716,4716,4716,4716,4716,4753,4753,4753,4790,4790,4827,4865,4865,4904,4983,4983,5023,5023,5106,5192,5192,5281,5326,5326,5373,5420,5420,5468,5468,5517,5566,5566,5617,5668,5668,5774,5774,5884,5999,5999,6117,6241,6241,6370,6504,6504,6573,6573,6644,6716,6716,6716,6790,6716,6716,6790,6790,6790,6790,6790,6790,6790,6790,6790,6716,6716,6716,6644,6644,6644,6644,6644,6644,6644,6573,6573,6573,6573,6573,6573,6644,6644,6644,6644,6644,6644,6644,6716,6716,6716,6716,6790,6790,6790,6790,6790,6790,6790,6790,6865,6865,6790,6790,6790,6790,6790,6790,6790,6790,6790,6716,6716,6716,6716,6716,6644,6644,6644,6644,6644,6644,6644,6644,6644,6644,6644,6644,6644,6644,6644,6573,6573,6644,6644,6644,6644,6644,6716,6644,6644,6716,6716,6716,6716,6644,6644,6644,6644,6644,6573,6573,6573,6436,6436,6370,6057,6057,5884,5884,5668,5420,5420,5236,5236,5064,4904,4904,4753,4753,4611,4510,4510,4445,4445,4413,4413,4413,4413,4382,4382,4351,4351,4351,4321,4321,4291,4261,4261,4232,4232,4203,4147,4147,4092,4065,4065,4012,4012,4012,4012,4012,4012,4012,4012,4012,4038,4038,4038,4065,4065,4092,4119,4119,4119,4119,4119,4147,4147,4147,4175,4175,4175,4175,4203,4203,4203,4175,4175,4147,4147,4119,4119,4119,4092,4065,4065,4038,4038,4038,4012,4012,3986,3986,3986,3986,3986,3961,3935,3935,3935,3935,3910,3886,3886,3862,3838,3838,3838,3838,3838,3838,3838,3838,3838,3838,3838,3862,3862,3862,3862,3862,3862,3862,3862,3862,3862,3862,3862,3862,3862,3862,3862,3862,3838,3838,3838,3838,3814,3814,3791,3791,3791,3767,3767,3767,3767,3767,3767,3767,3767,3767,3791,3791,3791,3814,3814,3814,3814,3862,3862,3862,3886,3910,3910,3935,3935,3935,3961,3961,3961,3986,3986,3986,3986,3986,4012,4012,4012,4038,4038,4038,4065,4065,4065,4065,4065,4065,4065,4065,4065,4065,4065,4065,4065,4065,4065,4038,4038,4038,4038,4038,4038,4038,4012,4012,4012,4012,4012,4012,4012,4012,4012,4012,4012,4012,4012,4012,4012,4012,4012,4038,4038,4038,4038,4038,4038,4038,4038,4038,4038,4038,4038,4038,4012,4012,4012,3986,3986,3986,3986,3986,3961,3961,3961,3935,3935,3910,3910,3910,3910,3910,3910,3910,3910,3910,3910,3910,3910,3910,3910,3910,3910,3910,3935,3935,3935,3935,3935,3961,3986,3986,3986,3986,4012,4012,4012,4038,4038,4038,4038,4065,4065
0,0,0,0,0,0,0,0,0,0,0,0,0,0,0,0,0,0,0,0,0,0,0,0,0,0,0,0,0,0,0,0,0,0,0,0,0,0,0,0,0,0,0,0,0,0,0,0,0,0,0,0,0,0,0,0,0,0,0,0,0,0,0,0,0,0,0,0,0,0,0,0,0,0,0,0,0,0,0,0,0,0,0,0,0,0,0,0,0,0,0,0,0,0,2553,2553,0,2675,2675,2675,2675,2675,2675,2675,2675,2675,2675,2675,2663,2663,2663,2652,2652,2652,2640,2640,2629,2629,2629,2618,2618,2618,2629,2640,2640,2663,2675,2675,2698,2698,2722,2771,2771,2796,2834,2834,2847,2887,2887,2914,2914,2942,2956,2956,2970,2999,2999,3029,3044,3029,3029,3029,3059,3074,3074,3089,3089,3089,3120,3120,3120,3136,3136,3168,3201,3201,3218,3269,3269,3340,3340,3414,3452,3452,3511,3592,3592,3678,3745,3745,3791,3838,3838,3886,3886,3910,3986,3986,4012,4038,4038,4092,4147,4147,4232,4232,4321,4382,4382,4413,4510,4510,4543,4611,4611,4646,4646,4681,4716,4716,4716,4716,4716,4753,4753,4753,4790,4790,4827,4865,4865,4904,4983,4983,5023,5023,5106,5192,5192,5281,5326,5326,5373,5420,5420,5468,5468,5468,5517,5517,5617,5668,5668,5774,5774,5884,5999,5999,6057,6179,6179,6305,6436,6436,6504,6504,6504,6573,6573,6644,6716,6716,6716,6716,6716,6716,6716,6790,6790,6790,6716,6716,6716,6716,6644,6644,6644,6644,6644,6644,6644,6644,6644,6644,6644,6644,6644,6716,6716,6716,6716,6716,6790,6790,6790,6790,6790,6865,6865,6942,6942,6942,6942,6942,6942,6942,6942,6942,6942,6942,6942,6942,6942,6942,6942,6865,6865,6865,6865,6865,6865,6865,6790,6790,6790,6790,6644,6644,6644,6644,6644,6644,6644,6644,6644,6644,6644,6644,6573,6573,6644,6644,6644,6644,6644,6716,6644,6644,6716,6716,6716,6716,6644,6644,6644,6644,6644,6573,6573,6573,6436,6436,6370,6179,6179,5999,5999,5774,5517,5517,5281,5281,5064,4904,4904,4716,4716,4577,4445,4445,4382,4382,4351,4351,4351,4351,4321,4321,4321,4321,4321,4321,4321,4291,4261,4261,4232,4232,4203,4147,4147,4092,4065,4065,4012,4012,4012,4012,4012,4012,4012,4012,4012,4038,4038,4038,4065,4065,4092,4119,4119,4119,4119,4119,4147,4147,4147,4147,4147,4147,4147,4175,4175,4175,4175,4175,4147,4147,4119,4119,4119,4092,4065,4065,4038,4038,4038,4012,4012,3986,3986,3986,3986,3986,3961,3935,3935,3935,3935,3910,3886,3886,3862,3838,3838,3838,3838,3838,3838,3862,3862,3862,3862,3862,3862,3862,3862,3862,3862,3862,3886,3886,3886,3886,3886,3886,3886,3862,3862,3862,3862,3862,3838,3838,3838,3814,3814,3791,3791,3791,3767,3767,3767,3767,3767,3767,3767,3767,3767,3791,3791,3791,3814,3814,3838,3862,3862,3886,3886,3886,3910,3910,3935,3935,3935,3961,3961,3961,3986,3986,3986,3986,3986,4012,4012,4012,4038,4038,4038,4065,4065,4065,4065,4065,4065,4065,4065,4065,4065,4065,4065,4065,4065,4065,4038,4038,4038,4038,4038,4038,4038,4012,4012,4012,4012,4012,4012,4012,4012,4012,4012,4038,4038,4038,4038,4038,4038,4038,4038,4038,4038,4038,4038,4038,4038,4038,4038,4038,4038,4038,4038,4038,4038,4012,4012,4012,3986,3986,3986,3961,3961,3961,3935,3935,3910,3910,3910,3910,3910,3910,3910,3910,3910,3910,3910,3910,3910,3910,3910,3910,3910,3935,3935,3935,3935,3935,3961,3961,3961,3986,3986,4012,4012,4012,4012,4038,4038,4038,4065,4065
0,0,0,0,0,0,0,0,0,0,0,0,0,0,0,0,0,0,0,0,0,0,0,0,0,0,0,0,0,0,0,0,0,0,0,0,0,0,0,0,0,0,0,0,0,0,0,0,0,0,0,0,0,0,0,0,0,0,0,0,0,0,0,0,0,0,0,0,0,0,0,0,0,0,0,0,0,0,0,0,0,0,0,0,0,0,0,0,0,0,0,0,0,0,2553,2553,2652,2652,2675,2675,2663,2663,2675,2675,2675,2663,2663,2663,2652,2652,2640,2640,2640,2629,2618,2618,2607,2607,2607,2607,2607,2607,2618,2629,2629,2652,2675,2675,2698,2698,2734,2783,2783,2808,2847,2847,2874,2901,2901,2914,2914,2928,2942,2942,2956,2970,2970,3029,0,3029,3029,3029,3059,3074,3074,3089,3089,3089,3120,3120,3120,3152,3152,3185,3218,3218,3252,3286,3286,3358,3414,3414,3452,3452,3511,3592,3592,3678,3745,3745,3791,3862,3862,3886,3886,3961,4012,4012,4038,4038,4038,4092,4147,4147,4232,4232,4291,4351,4351,4382,4445,4445,4477,4543,4543,4577,4577,4611,4646,4646,4646,4646,4646,4681,4716,4716,4753,4753,4790,4827,4827,4865,4943,4943,5023,5023,5106,5192,5192,5236,5281,5281,5326,5373,5373,5468,5468,5468,5517,5517,5617,5668,5668,5774,5884,5884,5941,5941,6057,6179,6179,6241,6370,6370,6504,6504,6504,6573,6573,6644,6716,6716,6716,6716,6716,6716,6716,6790,6790,6790,6716,6716,6716,6716,6644,6644,6644,6644,6644,6644,6644,6644,6644,6644,6716,6716,6716,6716,6716,6790,6716,6716,6790,6790,6790,6790,6790,6865,6865,6942,6942,6942,6942,6942,6942,6942,6942,6942,6942,6942,6942,6942,6942,6942,6942,6865,6865,6865,6865,6865,6865,6865,6790,6790,6790,6790,6790,6790,6790,6790,6790,6790,6790,6790,6790,6790,6790,6790,6790,6790,6790,6790,6790,6790,6790,6790,6790,6790,6790,6790,6790,6790,6790,6790,6716,6644,6644,6573,6573,6573,6436,6436,6370,6179,6179,5999,5999,5774,5517,5517,5326,5326,5064,4904,4904,4716,4716,4577,4445,4445,4382,4382,4351,4351,4351,4351,4321,4321,4321,4321,4321,4321,4321,4291,4261,4261,4203,4203,4175,4119,4119,4065,4012,4012,3961,3961,3935,3935,3935,3935,3935,3935,3961,3961,3961,3986,4012,4012,4038,4065,4065,4065,4065,4092,4092,4092,4119,4119,4119,4119,4119,4147,4147,4147,4175,4175,4147,4147,4147,4119,4119,4092,4092,4092,4065,4065,4038,4012,4012,3986,3986,4012,3986,3986,3986,3961,3961,3935,3935,3910,3886,3886,3886,3862,3862,3862,3862,3862,3862,3862,3862,3862,3862,3862,3886,3886,3886,3886,3886,3910,3910,3910,3910,3886,3886,3886,3886,3862,3862,3862,3862,3862,3838,3838,3838,3814,3814,3791,3791,3791,3767,3767,3767,3767,3767,3767,3767,3767,3767,3791,3791,3791,3814,3814,3838,3862,3862,3886,3886,3886,3910,3910,3935,3935,3935,3961,3961,3986,3986,3986,3986,3986,3986,4012,4012,4012,4038,4038,4038,4038,4038,4065,4065,4065,4065,4065,4065,4065,4065,4065,4065,4065,4065,4065,4065,4065,4065,4065,4065,4038,4038,4038,4038,4038,4038,4038,4038,4038,4038,4038,4038,4038,4038,4038,4038,4038,4038,4038,4038,4038,4038,4038,4038,4038,4038,4038,4038,4038,4038,4038,4038,4038,4038,4012,4012,4012,3986,3986,3986,3961,3961,3961,3935,3935,3910,3910,3910,3910,3910,3910,3910,3910,3886,3886,3886,3886,3886,3886,3910,3910,3910,3910,3910,3910,3935,3935,3961,3961,3961,3986,3986,4012,4012,4012,4012,4038,4038,4065,4065,4065
0,0,0,0,0,0,0,0,0,0,0,0,0,0,0,0,0,0,0,0,0,0,0,0,0,0,0,0,0,0,0,0,0,0,0,0,0,0,0,0,0,0,0,0,0,0,0,0,0,0,0,0,0,0,0,0,0,0,0,0,0,0,0,0,0,0,0,0,0,0,0,0,0,0,0,0,0,0,0,0,0,0,0,0,0,0,0,0,0,0,0,0,0,0,2585,2585,2652,2652,2652,2652,2652,2663,2663,2652,2652,2652,2640,2640,2640,2629,2629,2629,2629,2618,2618,2618,2607,2607,2607,2607,2607,2607,2618,2629,2629,2652,2675,2675,2710,2710,2746,2783,2783,2821,2847,2847,2887,2901,2901,2914,2914,2928,2942,2942,2956,2970,2970,0,0,0,0,3059,3059,3059,3059,3074,3089,3089,3120,3120,3120,3152,3152,3185,3218,3218,3252,3286,3286,3358,3414,3414,3452,3452,3511,3592,3592,3678,3722,3722,3791,3862,3862,3886,3886,3961,4012,4012,4065,4092,4092,4119,4175,4175,4232,4261,4261,4291,4291,4321,4382,4382,4413,4445,4445,4477,4477,4510,4543,4543,4543,4577,4577,4577,4611,4611,4753,4753,4790,4827,4827,4865,4943,4943,5023,5023,5106,5192,5192,5236,5281,5281,5326,5373,5373,5468,5468,5468,5517,5517,5617,5668,5668,5774,5884,5884,5941,5941,6057,6179,6179,6241,6370,6370,6436,6504,6504,6573,6573,6573,6644,6644,6644,6644,6644,6644,6644,6716,6716,6716,6716,6716,6644,6644,6644,6644,6644,6644,6644,6644,6644,6644,6644,6644,6716,6716,6716,6716,6716,6790,6790,6865,6865,6865,6942,6942,6942,7021,7021,7102,7102,7102,7102,7102,7102,7102,7102,7102,7102,7102,7102,7102,7021,7021,7021,7021,7021,7021,6942,6942,6942,6942,6865,6865,6865,6865,6942,6942,6942,6942,6942,6942,6942,6942,6942,6942,6942,6942,6942,6942,6942,6942,6942,6942,6942,6942,6942,6942,6942,6942,6865,6865,6790,6790,6716,6644,6644,6573,6573,6573,6436,6436,6370,6179,6179,5999,5999,5774,5517,5517,5326,5326,5064,4827,4827,4646,4646,4510,4382,4382,4321,4321,4291,4291,4291,4291,4261,4261,4261,4291,4291,4261,4261,4261,4232,4232,4203,4203,4147,4092,4092,4065,3986,3986,3961,3961,3910,3886,3886,3886,3886,3886,3886,3910,3910,3986,4012,4012,4038,4065,4065,4065,4065,4092,4092,4092,4119,4119,4119,4119,4119,4147,4147,4147,4175,4175,4147,4147,4147,4119,4119,4092,4092,4092,4065,4065,4038,4012,4012,3986,3986,4012,3986,3986,3986,3961,3961,3935,3910,3910,3886,3886,3886,3862,3862,3862,3862,3862,3862,3862,3862,3862,3862,3862,3886,3886,3886,3886,3886,3910,3910,3910,3910,3886,3886,3886,3886,3886,3886,3862,3862,3862,3838,3838,3838,3814,3814,3791,3791,3791,3767,3767,3767,3767,3767,3767,3767,3767,3791,3791,3791,3791,3814,3814,3838,3862,3862,3886,3886,3910,3935,3935,3935,3961,3961,3986,3986,3986,3986,3986,3986,4012,4012,4012,4012,4012,4038,4038,4038,4038,4038,4065,4065,4065,4065,4065,4065,4065,4065,4065,4065,4065,4065,4065,4065,4065,4065,4065,4065,4038,4038,4038,4038,4038,4038,4038,4038,4038,4038,4038,4038,4038,4038,4038,4038,4038,4038,4038,4038,4038,4038,4038,4038,4038,4038,4038,4038,4038,4038,4038,4038,4038,4038,4038,4012,4012,4012,4012,3986,3986,3986,3961,3935,3935,3910,3910,3910,3910,3910,3910,3886,3886,3886,3886,3886,3886,3886,3886,3910,3910,3910,3910,3910,3910,3935,3935,3961,3961,3961,3986,4012,4012,4012,4012,4038,4065,4065,4065,4092,4092
0,0,0,0,0,0,0,0,0,0,0,0,0,0,0,0,0,0,0,0,0,0,0,0,0,0,0,0,0,0,0,0,0,0,0,0,0,0,0,0,0,0,0,0,0,0,0,0,0,0,0,0,0,0,0,0,0,0,0,0,0,0,0,0,0,0,0,0,0,0,0,0,0,0,0,0,0,0,0,0,0,0,0,0,0,0,0,0,0,0,0,0,0,0,2596,2596,2663,2663,2652,2652,2652,2663,2663,2652,2652,2652,2640,2640,2640,2629,2629,2629,2629,2618,2607,2607,2596,2596,2596,2596,2596,2596,2596,2618,2618,2652,2663,2663,2710,2710,2746,2783,2783,2821,2847,2847,2887,2901,2901,2914,2914,2928,2942,2942,2956,2970,2970,2999,3014,3014,3014,3014,3029,3059,3059,3074,3089,3089,3120,3152,3152,3168,3168,3201,3235,3235,3269,3304,3304,3376,3433,3433,3471,3471,3511,3592,3592,3678,3722,3722,3814,3886,3886,3910,3986,3986,4038,4038,4092,4119,4119,4147,4203,4203,4232,4261,4261,4291,4291,4321,4382,4382,4413,4445,4445,4477,4477,4510,4543,4543,4543,4577,4577,4577,4611,4611,4681,4681,4716,4790,4790,4827,4904,4904,4983,4983,5064,5149,5149,5192,5236,5236,5326,5373,5373,5420,5420,5468,5517,5517,5617,5668,5668,5774,5884,5884,5941,5941,6057,6179,6179,6241,6370,6370,6370,6370,6370,6436,6436,6504,6573,6573,6573,6644,6644,6644,6644,6644,6644,6644,6644,6644,6644,6644,6644,6644,6644,6573,6573,6644,6644,6644,6644,6644,6716,6716,6716,6790,6790,6865,6865,6865,6942,6942,7021,7102,7102,7102,7102,7184,7269,7269,7269,7269,7269,7269,7269,7269,7269,7269,7184,7184,7184,7184,7021,7021,7021,7021,6942,6942,6942,6942,6865,6865,6865,6865,6942,6942,6942,6942,6942,6942,6942,6942,6942,6942,6942,6942,6942,6942,6942,6942,6942,6942,6942,6942,6942,6942,6942,6942,6865,6865,6865,6865,6790,6716,6716,6644,6573,6573,6504,6504,6370,6241,6241,5999,5999,5774,5517,5517,5326,5326,5064,4827,4827,4646,4646,4510,4382,4382,4321,4321,4291,4291,4291,4291,4261,4261,4261,4291,4291,4261,4261,4261,4232,4232,4203,4203,4147,4092,4092,4065,3986,3986,3961,3961,3910,3886,3886,3886,3886,3886,3886,3910,3910,3910,3935,3935,3961,3986,3986,4012,4012,4038,4038,4038,4065,4065,4065,4092,4092,4119,4147,4147,4147,4147,4147,4147,4119,4119,4119,4092,4092,4092,4065,4065,4038,4012,4012,4012,4012,4012,3986,3986,3986,3961,3961,3935,3910,3910,3910,3910,3886,3886,3886,3886,3886,3886,3886,3886,3886,3910,3910,3910,3910,3910,3910,3910,3910,3910,3910,3910,3910,3910,3910,3910,3910,3886,3886,3886,3862,3862,3862,3862,3838,3838,3838,3814,3814,3791,3791,3791,3791,3791,3791,3791,3791,3791,3791,3814,3814,3814,3814,3814,3838,3862,3862,3886,3886,3910,3935,3935,3935,3961,3961,3986,3986,3986,3986,3986,3986,4012,4012,4012,4012,4012,4038,4038,4038,4038,4038,4065,4065,4065,4065,4065,4065,4065,4065,4065,4065,4065,4065,4065,4065,4065,4065,4065,4065,4065,4065,4065,4065,4065,4038,4038,4038,4038,4038,4038,4065,4065,4065,4065,4065,4065,4065,4038,4038,4038,4038,4038,4038,4038,4038,4038,4038,4038,4038,4038,4038,4038,4038,4038,4038,4038,4012,4012,3986,3986,3986,3961,3935,3935,3935,3935,3910,3910,3910,3910,3886,3886,3886,3886,3886,3886,3886,3886,3910,3910,3910,3910,3910,3910,3935,3935,3961,3961,3961,3986,4012,4012,4012,4012,4038,4065,4065,4065,4092,4092
0,0,0,0,0,0,0,0,0,0,0,0,0,0,0,0,0,0,0,0,0,0,0,0,0,0,0,0,0,0,0,0,0,0,0,0,0,0,0,0,0,0,0,0,0,0,0,0,0,0,0,0,0,0,0,0,0,0,0,0,0,0,0,0,0,0,0,0,0,0,0,0,0,0,0,0,0,0,0,0,0,0,0,0,0,0,0,0,2191,2191,0,0,0,0,2596,2596,2640,2640,2640,2640,2640,2640,2640,2629,2629,2618,2618,2629,2618,2607,2607,2596,2596,2596,2585,2585,2574,2574,2574,2574,2574,2574,2585,2607,2607,2640,2663,2663,2710,2710,2746,2783,2783,2821,2860,2860,2901,2914,2914,2928,2942,2942,2942,2942,2956,2970,2970,2999,3014,3014,3014,3014,3029,3059,3059,3074,3105,3105,3136,3152,3152,3201,3201,3235,3269,3269,3304,3322,3322,3414,3452,3452,3491,3491,3531,3592,3592,3678,3722,3722,3814,3886,3886,3910,3986,3986,4038,4038,4092,4119,4119,4147,4203,4203,4232,4232,4232,4232,4232,4261,4291,4291,4321,4351,4351,4382,4382,4413,4445,4445,4445,4445,4445,4477,4477,4543,4611,4611,4646,4716,4716,4790,4865,4865,4943,4943,5023,5149,5149,5192,5236,5236,5281,5326,5326,5420,5420,5468,5517,5517,5617,5721,5721,5774,5884,5884,5999,5999,6057,6179,6179,6241,6370,6370,6370,6370,6370,6436,6436,6504,6573,6573,6573,6644,6644,6644,6644,6644,6644,6644,6644,6644,6644,6644,6644,6644,6644,6573,6573,6573,6573,6573,6573,6644,6644,6644,6716,6790,6790,6865,6865,6865,6942,6942,7021,7102,7102,7102,7102,7184,7269,7269,7269,7269,7269,7269,7269,7269,7269,7269,7184,7184,7184,7184,7184,7184,7184,7102,7021,7021,7021,7021,7021,7021,7021,7021,7021,7021,7021,7021,7102,7102,7102,7102,7102,7102,7102,7102,7102,7102,7102,7102,7102,7102,7102,7102,7102,7021,7021,7021,7021,7021,6865,6865,6865,6790,6790,6716,6573,6573,6504,6504,6370,6241,6241,6057,6057,5829,5566,5566,5326,5326,5064,4865,4865,4646,4646,4477,4351,4351,4291,4291,4232,4203,4203,4203,4203,4203,4203,4232,4232,4232,4232,4232,4203,4203,4175,4175,4119,4065,4065,4038,3986,3986,3935,3935,3886,3838,3838,3814,3814,3814,3814,3838,3838,3862,3886,3886,3910,3935,3935,3961,3961,3986,4012,4012,4012,4012,4012,4038,4038,4065,4092,4092,4119,4147,4119,4119,4119,4119,4119,4119,4092,4092,4092,4092,4065,4038,4038,4012,4012,4012,4012,4012,3986,3986,3986,3961,3935,3935,3910,3910,3910,3910,3910,3910,3910,3910,3910,3910,3910,3910,3910,3910,3910,3910,3910,3910,3910,3910,3910,3910,3910,3910,3910,3910,3910,3886,3886,3886,3862,3862,3862,3862,3838,3838,3838,3814,3814,3791,3791,3791,3791,3791,3791,3791,3791,3791,3791,3814,3814,3814,3838,3838,3862,3886,3886,3910,3910,3935,3935,3935,3961,3986,3986,3986,3986,3986,3986,3986,3986,4012,4012,4012,4012,4012,4038,4038,4038,4065,4065,4065,4065,4065,4065,4065,4065,4065,4065,4065,4065,4065,4065,4065,4065,4065,4065,4065,4065,4065,4065,4065,4065,4065,4065,4065,4065,4065,4065,4065,4065,4065,4065,4065,4065,4038,4038,4038,4038,4038,4038,4038,4038,4038,4038,4038,4038,4038,4038,4038,4038,4038,4038,4038,4038,4038,4012,3986,3986,3986,3986,3961,3935,3935,3935,3935,3910,3910,3910,3910,3886,3886,3886,3886,3886,3886,3886,3886,3886,3910,3910,3910,3910,3910,3935,3935,3961,3961,3961,3986,4012,4012,4012,4012,4038,4065,4065,4092,4119,4119
0,0,0,0,0,0,0,0,0,0,0,0,0,0,0,0,0,0,0,0,0,0,0,0,0,0,0,0,0,0,0,0,0,0,0,0,0,0,0,0,0,0,0,0,0,0,0,0,0,0,0,0,0,0,0,0,0,0,0,0,0,0,0,0,0,0,0,0,0,0,0,0,0,0,0,0,0,0,0,0,0,0,0,0,0,0,2123,2123,2123,2191,0,0,2481,2481,2481,2553,2585,2585,2585,2585,2585,2585,2585,2585,2629,2618,2618,2629,2618,2607,2607,2596,2596,2596,2585,2585,2574,2574,2574,2574,2574,2574,2585,2607,2607,2640,2675,2675,2710,2710,2746,2796,2796,2834,2874,2874,2901,2914,2914,2928,2928,2928,2942,2942,2956,2970,2970,2985,2999,2999,3014,3014,3029,3059,3059,3074,3105,3105,3136,3152,3152,3201,3201,3235,3269,3269,3304,3322,3322,3414,3452,3452,3491,3491,3531,3592,3592,3656,3722,3722,3814,3886,3886,3935,3986,3986,4038,4038,4092,4119,4119,4147,4175,4175,4175,4175,4175,4175,4175,4175,4203,4203,4232,4261,4261,4382,4382,4413,4445,4445,4445,4445,4445,4477,4477,4543,4611,4611,4646,4716,4716,4790,4865,4865,4943,4943,5023,5149,5149,5192,5236,5236,5281,5326,5326,5420,5420,5468,5517,5517,5617,5721,5721,5774,5884,5884,5941,5941,6057,6117,6117,6179,6305,6305,6370,6370,6370,6436,6436,6436,6504,6504,6504,6504,6504,6573,6573,6573,6573,6573,6573,6573,6573,6573,6573,6573,6573,6573,6573,6573,6573,6573,6573,6573,6644,6644,6716,6790,6790,6865,6865,6942,7021,7021,7021,7184,7184,7184,7269,7269,7355,7355,7355,7355,7355,7444,7444,7355,7355,7355,7355,7355,7269,7269,7269,7184,7184,7184,7184,7184,7102,7102,7102,7102,7102,7102,7184,7184,7184,7184,7184,7184,7184,7184,7269,7269,7269,7269,7269,7102,7102,7102,7102,7102,7102,7102,7102,7021,7021,7021,7021,7021,6865,6865,6865,6790,6790,6716,6573,6573,6504,6504,6370,6241,6241,6057,6057,5829,5566,5566,5326,5326,5064,4827,4827,4611,4611,4413,4291,4291,4232,4232,4175,4147,4147,4147,4147,4147,4147,4147,4147,4175,4175,4175,4175,4175,4147,4147,4092,4038,4038,4038,3986,3986,3935,3935,3886,3838,3838,3814,3814,3814,3814,3838,3838,3862,3886,3886,3910,3935,3935,3961,3961,3986,4012,4012,4012,4012,4012,4038,4038,4065,4092,4092,4119,4147,4119,4119,4119,4119,4119,4119,4092,4092,4092,4092,4065,4038,4038,4012,4012,4012,4012,4012,3986,3986,3986,3961,3935,3935,3910,3910,3910,3910,3910,3910,3910,3910,3910,3910,3910,3910,3910,3910,3935,3935,3935,3935,3935,3935,3935,3910,3910,3910,3910,3910,3910,3910,3910,3910,3886,3886,3862,3862,3838,3838,3838,3814,3814,3814,3791,3791,3791,3791,3791,3791,3814,3814,3814,3838,3838,3838,3862,3862,3862,3910,3910,3910,3910,3935,3935,3935,3961,3986,3986,3986,3986,3986,3986,3986,4012,4012,4012,4012,4012,4012,4038,4038,4038,4065,4065,4065,4065,4065,4065,4065,4065,4065,4065,4065,4065,4065,4065,4065,4065,4065,4065,4065,4065,4065,4065,4065,4065,4065,4065,4065,4065,4065,4065,4065,4065,4065,4065,4065,4065,4038,4038,4038,4038,4038,4038,4038,4065,4065,4065,4065,4065,4065,4065,4065,4065,4038,4038,4038,4038,4038,4012,3986,3986,3986,3986,3961,3961,3961,3935,3935,3910,3910,3910,3910,3910,3910,3886,3886,3886,3886,3886,3886,3886,3910,3910,3910,3910,3910,3935,3935,3961,3961,3961,3986,4012,4012,4012,4012,4038,4065,4065,4092,4119,4119
0,0,0,0,0,0,0,0,0,0,0,0,0,0,0,0,0,0,0,0,0,0,0,0,0,0,0,0,0,0,0,0,0,0,0,0,0,0,0,0,0,0,0,0,0,0,0,0,0,0,0,0,0,0,0,0,0,0,0,0,0,0,0,0,0,0,0,0,0,0,0,0,0,0,0,0,0,0,0,0,0,0,0,0,0,0,2123,2123,2123,2231,0,0,2481,2481,2481,2553,2585,2585,2585,2585,2585,2585,2585,2574,2574,2574,2564,2564,2553,2553,2553,2553,2553,2553,2543,2543,2543,2543,2543,2543,2543,2543,2564,2585,2585,2618,2652,2652,2686,2686,2734,2783,2783,2821,2860,2860,2887,2914,2914,2914,2914,2914,2928,2928,2942,2970,2970,2985,2999,2999,3014,3014,3029,3059,3059,3074,3105,3105,3136,3168,3168,3218,3218,3252,3286,3286,3304,3358,3358,3414,3471,3471,3491,3491,3531,3592,3592,3656,3722,3722,3814,3886,3886,3935,3986,3986,4065,4065,4092,4119,4119,4147,4175,4175,4175,4175,4175,4175,4175,4175,4203,4203,4232,4261,4261,4291,4291,4291,4321,4321,4351,4382,4382,4413,4413,4445,4510,4510,4577,4646,4646,4753,4827,4827,4943,4943,5023,5149,5149,5192,5236,5236,5281,5326,5326,5420,5420,5468,5517,5517,5617,5721,5721,5774,5884,5884,5941,5941,6057,6117,6117,6179,6305,6305,6305,6370,6370,6370,6370,6436,6436,6436,6504,6504,6504,6504,6504,6573,6573,6573,6573,6573,6573,6573,6573,6573,6573,6573,6573,6573,6573,6573,6573,6573,6644,6644,6716,6790,6790,6865,6865,6942,7021,7021,7102,7184,7184,7269,7355,7355,7444,7444,7355,7355,7355,7444,7444,7355,7355,7355,7355,7355,7269,7269,7269,7184,7184,7184,7184,7184,7102,7102,7102,7102,7102,7102,7184,7184,7184,7184,7184,7184,7184,7184,7269,7269,7269,7269,7269,7269,7269,7184,7184,7184,7184,7102,7102,7102,7102,7102,7021,7021,6942,6942,6942,6790,6790,6716,6644,6644,6504,6504,6436,6241,6241,6117,6117,5884,5617,5617,5373,5373,5064,4827,4827,4611,4611,4413,4291,4291,4232,4232,4175,4147,4147,4147,4147,4147,4147,4147,4147,4175,4175,4175,4175,4175,4147,4147,4092,4038,4038,4012,3961,3961,3910,3910,3862,3814,3814,3767,3767,3767,3767,3767,3767,3791,3814,3814,3862,3862,3862,3886,3886,3910,3935,3935,3961,3986,3986,4012,4012,4038,4065,4065,4092,4119,4119,4119,4119,4119,4119,4119,4092,4092,4092,4092,4065,4038,4038,4038,4012,4012,4012,4012,4012,3986,3986,3961,3961,3961,3935,3935,3935,3935,3935,3935,3935,3935,3935,3961,3961,3961,3961,3961,3961,3961,3961,3961,3961,3961,3961,3961,3935,3935,3935,3935,3935,3910,3910,3910,3910,3910,3886,3886,3862,3862,3862,3838,3814,3814,3791,3791,3791,3791,3791,3791,3814,3814,3814,3838,3838,3838,3862,3862,3862,3910,3910,3910,3910,3935,3935,3935,3961,3986,3986,3986,3986,3986,3986,3986,4012,4012,4012,4012,4012,4012,4038,4038,4038,4065,4065,4065,4065,4065,4065,4065,4092,4092,4092,4092,4092,4092,4092,4092,4092,4092,4092,4092,4092,4092,4092,4092,4092,4092,4092,4065,4065,4065,4065,4065,4065,4065,4065,4065,4065,4038,4038,4038,4038,4038,4038,4038,4065,4065,4065,4065,4065,4065,4065,4065,4065,4065,4065,4038,4038,4038,4038,3986,3986,3986,3986,3961,3961,3961,3935,3935,3910,3910,3910,3910,3910,3910,3886,3886,3886,3886,3886,3886,3886,3910,3910,3910,3910,3910,3935,3935,3961,3961,3961,3986,4012,4012,4012,4012,4038,4065,4065,4119,4147,4147
0,0,0,0,0,0,0,0,0,0,0,0,0,0,0,0,0,0,0,0,0,0,0,0,0,0,0,0,0,0,0,0,0,0,0,0,0,0,0,0,0,0,0,0,0,0,0,0,0,0,0,0,0,0,0,0,0,0,0,0,0,0,0,0,0,0,0,0,0,0,0,0,0,0,0,0,0,0,0,0,0,0,0,0,0,2102,2102,2123,2123,2231,0,0,2452,2452,2452,2512,2543,2543,2543,2543,2543,2543,2532,2532,2532,2522,2512,2512,2512,2512,2512,2512,2522,2512,2512,2512,2512,2512,2512,2522,2522,2522,2532,2564,2564,2596,2629,2629,2686,2686,2734,2783,2783,2821,2860,2860,2887,2914,2914,2914,2914,2914,2928,2928,2942,2970,2970,2985,2999,2999,3014,3014,3029,3059,3059,3074,3105,3105,3136,3168,3168,3218,3218,3269,3286,3286,3304,3358,3358,3414,3471,3471,3491,3491,3511,3571,3571,3656,3722,3722,3791,3886,3886,3935,3986,3986,4065,4065,4092,4119,4119,4119,4147,4147,4119,4119,4119,4147,4147,4147,4147,4147,4175,4203,4203,4232,4232,4232,4261,4261,4291,4291,4291,4321,4321,4382,4477,4477,4543,4611,4611,4716,4827,4827,4904,5023,5023,5149,5149,5192,5236,5236,5281,5326,5326,5420,5468,5468,5517,5517,5617,5721,5721,5829,5884,5884,5999,5999,6057,6179,6179,6241,6305,6305,6305,6370,6370,6370,6370,6436,6436,6436,6504,6504,6504,6504,6504,6573,6573,6573,6573,6573,6573,6573,6573,6573,6573,6573,6573,6573,6573,6573,6573,6573,6644,6644,6644,6716,6716,6865,6865,6942,7021,7021,7102,7184,7184,7269,7355,7355,7444,7444,7444,7535,7535,7535,7535,7535,7535,7444,7444,7444,7355,7355,7355,7269,7269,7269,7184,7184,7184,7102,7102,7102,7102,7102,7184,7184,7184,7184,7269,7269,7269,7269,7355,7355,7355,7269,7269,7269,7269,7269,7269,7269,7269,7184,7184,7184,7184,7102,7102,7102,7021,6942,6942,6790,6790,6716,6644,6644,6504,6504,6436,6241,6241,6057,5884,5884,5617,5617,5373,5373,5064,4827,4827,4611,4611,4413,4291,4291,4175,4175,4119,4092,4092,4092,4092,4092,4092,4092,4092,4119,4119,4119,4092,4092,4092,4092,4065,4012,4012,3986,3935,3935,3886,3886,3838,3791,3791,3745,3745,3722,3722,3722,3722,3745,3767,3767,3791,3814,3814,3838,3838,3862,3886,3886,3910,3986,3986,4012,4012,4038,4065,4065,4092,4119,4119,4119,4119,4119,4147,4119,4119,4119,4092,4092,4065,4065,4065,4038,4038,4038,4038,4038,4012,4012,4012,3986,3961,3961,3961,3961,3935,3935,3935,3935,3935,3935,3935,3961,3961,3961,3961,3961,3961,3961,3961,3961,3961,3961,3961,3961,3935,3935,3935,3935,3935,3910,3910,3910,3910,3910,3886,3886,3862,3862,3862,3838,3814,3814,3814,3814,3814,3814,3814,3814,3838,3838,3838,3838,3838,3862,3862,3862,3886,3910,3910,3935,3935,3935,3961,3961,3986,3986,3986,3986,3986,3986,4012,4012,4012,4012,4012,4012,4038,4038,4038,4038,4038,4065,4065,4065,4065,4065,4092,4092,4092,4092,4092,4092,4092,4092,4092,4092,4119,4119,4119,4119,4119,4119,4119,4092,4092,4092,4092,4065,4065,4065,4065,4065,4065,4065,4065,4065,4065,4038,4038,4038,4038,4038,4038,4038,4038,4038,4038,4038,4038,4065,4065,4065,4065,4065,4065,4038,4038,4038,4038,4012,4012,3986,3986,3986,3961,3961,3961,3935,3935,3910,3910,3910,3910,3910,3910,3910,3910,3910,3910,3910,3910,3910,3910,3910,3910,3910,3935,3935,3961,3961,3961,3986,4012,4012,4038,4038,4065,4092,4092,4147,4175,4175
0,0,0,0,0,0,0,0,0,0,0,0,0,0,0,0,0,0,0,0,0,0,0,0,0,0,0,0,0,0,0,0,0,0,0,0,0,0,0,0,0,0,0,0,0,0,0,0,0,0,0,0,0,0,0,0,0,0,0,0,0,0,0,0,0,0,0,0,0,0,0,0,0,0,0,0,0,0,0,0,0,0,0,2131,2131,2102,2102,2183,2183,0,0,0,2452,2452,2452,2512,2543,2543,2543,2543,2543,2543,2532,2532,2532,2522,2512,2512,2512,2512,2512,2512,2522,2512,2512,2512,2512,2512,2512,2522,2522,2522,2532,2564,2564,2596,2629,2629,2675,2675,2722,2771,2771,2808,2860,2860,2887,2914,2914,2914,2914,2914,2914,2914,2942,2970,2970,2985,2999,2999,3014,3014,3029,3059,3059,3074,3105,3105,3136,3168,3168,3218,3218,3269,3286,3286,3322,3358,3358,3433,3471,3471,3491,3511,3511,3571,3571,3634,3700,3700,3791,3862,3862,3935,3961,3961,4038,4065,4065,4092,4092,4092,4147,4147,4119,4119,4119,4147,4147,4147,4147,4147,4175,4203,4203,4232,4232,4232,4261,4261,4291,4291,4291,4321,4321,4382,4477,4477,4543,4611,4611,4716,4827,4827,4904,5023,5023,5149,5149,5192,5236,5236,5281,5326,5326,5420,5468,5468,5517,5517,5617,5721,5721,5829,5884,5884,5999,5999,6057,6179,6179,6241,6305,6305,6305,6370,6370,6370,6370,6436,6436,6436,6436,6436,6436,6504,6504,6573,6573,6573,6573,6573,6573,6573,6573,6573,6573,6573,6573,6573,6573,6573,6573,6573,6644,6644,6644,6716,6716,6865,6942,6942,7021,7021,7102,7184,7184,7269,7355,7355,7444,7444,7535,7535,7535,7535,7535,7535,7535,7535,7535,7535,7444,7355,7355,7355,7355,7269,7184,7184,7184,7102,7102,7102,7102,7102,7184,7184,7184,7184,7269,7269,7269,7269,7355,7355,7355,7269,7269,7269,7269,7269,7269,7269,7269,7184,7184,7184,7184,7102,7102,7102,6942,6942,6942,6790,6790,6716,6644,6644,6504,6504,6370,6241,6241,6057,5884,5884,5617,5617,5373,5106,5064,4827,4827,4611,4611,4413,4261,4261,4147,4147,4092,4065,4065,4038,4012,4012,4012,4038,4038,4119,4119,4119,4092,4092,4092,4092,4065,4012,4012,3986,3935,3935,3886,3886,3838,3791,3791,3745,3745,3722,3722,3722,3722,3745,3767,3767,3791,3814,3814,3838,3838,3862,3886,3886,3910,3935,3935,3961,3961,3986,4038,4038,4065,4092,4092,4092,4119,4119,4119,4119,4119,4119,4092,4092,4065,4065,4065,4038,4038,4038,4038,4038,4012,4012,4012,3986,3961,3961,3961,3961,3961,3961,3961,3961,3961,3961,3961,3961,3961,3986,3986,3986,3986,3986,3986,3986,3986,3961,3961,3961,3961,3961,3961,3961,3961,3935,3935,3935,3910,3910,3910,3910,3886,3862,3862,3862,3838,3838,3838,3838,3838,3838,3838,3838,3862,3862,3862,3862,3862,3886,3910,3910,3910,3910,3910,3935,3935,3961,3961,3961,3986,3986,3986,3986,3986,3986,4012,4012,4012,4012,4012,4012,4038,4038,4038,4038,4038,4065,4065,4065,4065,4065,4092,4092,4092,4092,4092,4092,4092,4092,4092,4092,4119,4119,4119,4119,4119,4119,4119,4119,4092,4092,4092,4092,4092,4065,4065,4065,4065,4065,4065,4065,4065,4038,4038,4038,4038,4038,4038,4038,4038,4038,4038,4038,4038,4038,4038,4065,4065,4065,4065,4038,4038,4038,4038,4012,4012,4012,4012,3986,3986,3986,3961,3961,3961,3935,3935,3935,3935,3935,3910,3910,3910,3910,3910,3910,3910,3910,3910,3935,3935,3935,3935,3935,3961,3961,3961,3986,4012,4012,4038,4038,4065,4092,4092,4147,4175,4175
0,0,0,0,0,0,0,0,0,0,0,0,0,0,0,0,0,0,0,0,0,0,0,0,0,0,0,0,0,0,0,0,0,0,0,0,0,0,0,0,0,0,0,0,0,0,0,0,0,0,0,0,0,0,0,0,0,0,0,0,0,0,0,0,0,0,0,0,0,0,0,0,0,0,0,0,0,0,0,0,0,0,0,2131,2131,2131,2176,0,0,0,0,2376,2376,2423,2423,2462,2491,2491,2501,2501,2491,2491,2481,2481,2481,2471,2471,2481,2471,2471,2471,2471,2471,2471,2481,2481,2481,2491,2491,2491,2501,2501,2512,2543,2543,2574,2607,2607,2663,2663,2710,2746,2746,2808,2847,2847,2887,2901,2901,2914,2914,2914,2914,2914,2942,2970,2970,2985,2999,2999,3014,3014,3029,3059,3059,3089,3120,3120,3152,3185,3185,3218,3269,3269,3286,3286,3322,3358,3358,3433,3471,3471,3491,3511,3511,3571,3571,3634,3700,3700,3791,3862,3862,3935,3961,3961,4038,4065,4065,4092,4092,4092,4092,4092,4092,4092,4092,4092,4092,4092,4119,4119,4119,4147,4147,4175,4175,4203,4203,4203,4232,4261,4261,4291,4291,4351,4413,4413,4477,4577,4577,4681,4790,4790,4904,5023,5023,5149,5149,5192,5236,5236,5281,5326,5326,5420,5468,5468,5566,5566,5668,5774,5774,5829,5941,5941,5999,6117,6117,6179,6179,6241,6305,6305,6305,6370,6370,6370,6370,6436,6436,6436,6436,6436,6436,6504,6504,6573,6573,6573,6573,6573,6573,6573,6573,6573,6573,6573,6573,6573,6573,6573,6573,6573,6644,6644,6644,6716,6716,6865,6942,6942,7021,7021,7102,7184,7184,7269,7355,7355,7355,7355,7444,7444,7444,7444,7444,7444,7444,7444,7444,7444,7355,7355,7355,7355,7355,7269,7184,7184,7184,7102,7102,7102,7102,7102,7184,7184,7184,7184,7269,7269,7355,7355,7355,7355,7355,7355,7355,7355,7355,7355,7269,7269,7269,7269,7269,7184,7184,7102,7021,7021,6942,6942,6942,6790,6790,6716,6644,6644,6504,6504,6370,6241,6241,6057,5884,5884,5617,5617,5373,5106,5106,4827,4827,4611,4611,4445,4261,4261,4147,4147,4092,4065,4065,4038,4012,4012,4012,4038,4038,4038,4038,4038,4038,4038,4038,4038,4012,3986,3986,3935,3910,3910,3862,3862,3814,3767,3767,3700,3700,3678,3656,3656,3656,3678,3678,3678,3700,3700,3745,3767,3767,3791,3814,3814,3862,3886,3886,3910,3910,3961,3986,3986,4038,4038,4038,4065,4092,4092,4119,4119,4119,4119,4092,4092,4092,4065,4065,4038,4038,4038,4038,4038,4038,4012,4012,4012,3986,3986,3986,3986,3961,3961,3986,3986,3986,3986,3986,4012,4012,4012,4012,4012,4012,4012,4012,4012,4012,4012,4012,3986,3986,3986,3961,3961,3961,3935,3935,3935,3910,3910,3910,3910,3886,3862,3862,3862,3838,3838,3838,3838,3838,3838,3838,3838,3862,3862,3862,3862,3862,3886,3910,3910,3910,3910,3910,3935,3935,3961,3961,3961,3986,3986,3986,3986,4012,4012,4012,4012,4012,4012,4012,4038,4038,4038,4038,4038,4065,4065,4065,4065,4065,4065,4092,4092,4092,4092,4092,4092,4119,4119,4119,4119,4119,4147,4147,4147,4147,4119,4119,4119,4119,4119,4092,4092,4092,4092,4092,4065,4065,4065,4065,4065,4065,4038,4038,4038,4038,4038,4038,4038,4038,4038,4038,4038,4038,4038,4038,4038,4038,4038,4038,4038,4038,4038,4038,4012,4012,4012,4012,3986,3986,3986,3961,3961,3961,3935,3935,3935,3935,3935,3910,3910,3910,3910,3910,3910,3910,3910,3910,3935,3935,3935,3961,3961,3961,3986,3986,4012,4012,4012,4065,4065,4092,4119,4119,4147,4203,4203
0,0,0,0,0,0,0,0,0,0,0,0,0,0,0,0,0,0,0,0,0,0,0,0,0,0,0,0,0,0,0,0,0,0,0,0,0,0,0,0,0,0,0,0,0,0,0,0,0,0,0,0,0,0,0,0,0,0,0,0,0,0,0,0,0,0,0,0,0,0,0,0,0,0,0,0,0,0,0,0,0,0,0,2131,2131,2131,2176,0,0,0,0,2367,2367,2404,2404,2442,2462,2462,2462,2462,2462,2462,2452,2452,2452,2442,2442,2452,2452,2452,2452,2462,2462,2462,2471,2481,2481,2491,2491,2491,2501,2501,2512,2543,2543,2574,2607,2607,2663,2663,2710,2746,2746,2808,2847,2847,2887,2901,2901,2914,2914,2914,2914,2914,2942,2985,2985,2999,3014,3014,3014,3029,3029,3059,3059,3089,3120,3120,3152,3185,3185,3218,3269,3269,3286,3286,3322,3358,3358,3433,3471,3471,3491,3511,3511,3551,3551,3613,3700,3700,3767,3838,3838,3886,3961,3961,3986,4038,4038,4065,4038,4038,4038,4038,4038,4038,4038,4065,4065,4065,4092,4092,4119,4147,4147,4175,4175,4175,4203,4203,4203,4232,4232,4261,4261,4321,4382,4382,4477,4577,4577,4681,4790,4790,4904,5023,5023,5149,5149,5192,5281,5281,5281,5326,5326,5420,5517,5517,5566,5566,5668,5774,5774,5884,5941,5941,6057,6117,6117,6179,6179,6241,6305,6305,6305,6370,6370,6370,6370,6436,6436,6436,6436,6436,6436,6504,6504,6573,6573,6573,6573,6573,6573,6573,6573,6573,6573,6573,6573,6573,6573,6573,6573,6573,6644,6644,6644,6716,6716,6865,6942,6942,7021,7021,7102,7184,7184,7269,7355,7355,7355,7355,7444,7444,7444,7444,7444,7444,7444,7355,7355,7355,7269,7184,7184,7184,7184,7184,7184,7184,7184,7102,7102,7102,7102,7102,7184,7184,7184,7269,7269,7269,7355,7355,7355,7355,7355,7355,7355,7355,7355,7355,7269,7269,7269,7269,7269,7184,7184,7102,7021,7021,6942,6865,6865,6790,6790,6644,6573,6573,6436,6436,6305,6179,6179,5999,5829,5829,5617,5617,5373,5106,5106,4827,4827,4611,4611,4445,4261,4261,4147,4147,4092,4038,4038,3986,3961,3961,3961,3961,3961,3961,3961,3961,3986,3986,3961,3961,3961,3935,3935,3910,3862,3862,3814,3814,3767,3700,3700,3678,3678,3613,3613,3613,3613,3678,3678,3678,3700,3700,3745,3767,3767,3791,3814,3814,3862,3886,3886,3910,3910,3961,3986,3986,4038,4038,4038,4065,4092,4092,4119,4119,4119,4119,4119,4092,4092,4065,4065,4038,4038,4038,4038,4038,4038,4012,4012,4012,3986,3986,3986,3986,3961,3961,3986,3986,3986,3986,3986,4012,4012,4012,4012,4012,4012,4012,4012,4012,4012,4012,4012,3986,3986,3986,3961,3961,3961,3961,3961,3961,3935,3935,3910,3910,3910,3910,3910,3886,3862,3862,3862,3862,3862,3862,3862,3862,3886,3886,3886,3910,3910,3910,3910,3910,3935,3935,3935,3961,3961,3961,3986,3986,3986,3986,3986,4012,4012,4012,4012,4012,4012,4038,4038,4038,4038,4038,4038,4038,4065,4065,4065,4065,4092,4092,4092,4092,4092,4119,4092,4092,4119,4119,4119,4119,4119,4147,4147,4147,4147,4119,4119,4119,4119,4119,4092,4092,4092,4092,4092,4065,4065,4065,4065,4065,4065,4038,4038,4038,4038,4038,4038,4038,4038,4038,4038,4038,4038,4038,4038,4038,4038,4038,4038,4038,4038,4038,4038,4038,4038,4012,4012,4012,4012,4012,3986,3961,3961,3961,3961,3961,3961,3961,3935,3935,3935,3935,3935,3935,3935,3935,3935,3935,3961,3961,3961,3961,3986,3986,3986,4012,4038,4038,4065,4092,4092,4119,4119,4175,4232,4232
0,0,0,0,0,0,0,0,0,0,0,0,0,0,0,0,0,0,0,0,0,0,0,0,0,0,0,0,0,0,0,0,0,0,0,0,0,0,0,0,0,0,0,0,0,0,0,0,0,0,0,0,0,0,0,0,0,0,0,0,0,0,0,0,0,0,0,0,0,0,0,0,0,0,0,0,0,0,0,0,0,0,0,0,0,0,0,0,0,0,0,2367,2367,2404,2404,2442,2462,2462,2462,2462,2462,2462,2452,2452,2452,2442,2442,2452,2452,2452,2452,2462,2462,2462,2471,2471,2471,2471,2471,2481,2481,2481,2501,2532,2532,2574,2607,2607,2652,2663,2686,2734,2734,2783,2834,2834,2874,2901,2901,2914,2914,2914,2914,2914,2942,2985,2985,2999,3014,3014,3014,3044,3044,3059,3059,3089,3120,3120,3152,3185,3185,3235,3269,3269,3304,3304,3340,3376,3376,3433,3471,3471,3491,3511,3511,3551,3551,3613,3700,3700,3767,3838,3838,3886,3961,3961,3986,4038,4038,4065,4038,4038,4038,4038,4038,4038,4038,4065,4065,4065,4092,4092,4119,4147,4147,4175,4175,4175,4203,4203,4203,4232,4232,4261,4261,4321,4382,4382,4477,4577,4577,4681,4753,4753,4904,5023,5023,5149,5149,5192,5281,5281,5281,5326,5326,5420,5517,5517,5566,5566,5668,5774,5774,5884,5941,5941,6057,6117,6117,6179,6179,6241,6305,6305,6370,6370,6370,6370,6370,6436,6436,6436,6436,6436,6436,6504,6504,6504,6573,6573,6573,6573,6573,6573,6573,6573,6573,6573,6573,6573,6573,6573,6573,6573,6644,6644,6716,6790,6790,6865,6942,6942,7021,7021,7102,7184,7184,7269,7355,7355,7355,7355,7444,7444,7444,7444,7444,7444,7444,7355,7355,7355,7269,7184,7184,7184,7184,7102,7021,7021,7021,7021,7021,7021,7021,7021,7021,7102,7102,7102,7184,7184,7269,7269,7269,7355,7355,7355,7355,7269,7269,7269,7269,7269,7269,7184,7184,7184,7184,7102,7021,7021,6942,6790,6790,6716,6716,6573,6504,6504,6370,6370,6241,6117,6117,5999,5829,5829,5617,5617,5373,5149,5149,4865,4865,4681,4681,4477,4321,4321,4175,4175,4092,4038,4038,3986,3961,3961,3961,3961,3961,3961,3961,3961,3986,3986,3961,3961,3961,3935,3935,3910,3862,3862,3814,3814,3767,3700,3700,3678,3678,3613,3613,3613,3592,3592,3613,3613,3634,3634,3656,3700,3700,3722,3745,3745,3791,3838,3838,3862,3862,3886,3935,3935,3986,4012,4012,4038,4065,4065,4092,4092,4092,4092,4092,4092,4092,4065,4065,4065,4065,4065,4038,4038,4038,4038,4038,4012,4012,4012,4012,4012,4012,4012,4012,4012,4012,4012,4012,4012,4038,4038,4038,4038,4038,4038,4038,4012,4012,4012,4012,4012,4012,4012,3986,3986,3986,3986,3986,3961,3961,3961,3961,3961,3935,3910,3910,3910,3910,3910,3910,3910,3910,3910,3910,3910,3910,3910,3910,3910,3935,3910,3910,3910,3935,3935,3935,3961,3961,3961,3986,3986,3986,3986,3986,4012,4012,4012,4012,4012,4012,4038,4038,4038,4038,4038,4038,4038,4065,4065,4065,4065,4092,4092,4092,4092,4092,4119,4119,4119,4119,4119,4147,4147,4147,4147,4147,4147,4147,4147,4147,4147,4119,4119,4119,4092,4092,4092,4092,4092,4065,4065,4065,4065,4065,4038,4038,4038,4038,4038,4038,4038,4038,4038,4038,4038,4038,4038,4038,4038,4038,4038,4038,4038,4038,4038,4038,4038,4038,4012,4012,4012,4012,4012,4012,4012,4012,3986,3986,3986,3961,3961,3935,3935,3935,3935,3935,3935,3935,3935,3935,3935,3961,3961,3961,3961,3986,3986,3986,4012,4038,4038,4065,4092,4092,4119,4119,4175,4232,4232
0,0,0,0,0,0,0,0,0,0,0,0,0,0,0,0,0,0,0,0,0,0,0,0,0,0,0,0,0,0,0,0,0,0,0,0,0,0,0,0,0,0,0,0,0,0,0,0,0,0,0,0,0,0,0,0,0,0,0,0,0,0,0,0,0,0,0,0,0,0,0,0,0,0,0,0,0,0,0,0,0,0,0,0,0,0,0,0,0,2340,2340,2340,2367,2404,2404,2423,2433,2433,2433,2442,2433,2433,2423,2423,2423,2423,2423,2423,2423,2433,2433,2433,2442,2442,2452,2462,2462,2471,2471,2471,2481,2481,2501,2522,2522,2553,2596,2596,2629,2629,2675,2722,2722,2771,2821,2821,2860,2887,2887,2901,2901,2901,2928,2928,2956,2985,2985,2999,3014,3014,3029,3059,3059,3074,3074,3105,3136,3136,3168,3218,3218,3252,3286,3286,3304,3304,3340,3414,3414,3452,3471,3471,3491,3511,3511,3551,3551,3613,3700,3700,3767,3814,3814,3862,3910,3910,3961,3986,3986,4012,4012,4012,4012,4012,4012,4012,4012,4012,4012,4038,4065,4065,4092,4119,4119,4147,4147,4147,4175,4175,4203,4203,4203,4261,4261,4291,4351,4351,4445,4543,4543,4646,4753,4753,4904,5023,5023,5149,5149,5192,5281,5281,5326,5373,5373,5420,5517,5517,5566,5566,5668,5774,5774,5884,5941,5941,6057,6179,6179,6241,6241,6305,6305,6305,6370,6370,6370,6370,6370,6436,6436,6436,6436,6436,6436,6504,6504,6504,6573,6573,6573,6573,6573,6573,6573,6573,6573,6573,6573,6573,6573,6573,6573,6573,6644,6644,6716,6790,6790,6865,6942,6942,7021,7021,7102,7184,7184,7184,7355,7355,7355,7355,7355,7355,7355,7355,7355,7355,7355,7269,7269,7269,7184,7102,7102,7021,7021,6942,6865,6865,6865,6790,6790,6790,6865,6865,6942,7021,7021,7021,7102,7102,7184,7184,7269,7269,7269,7269,7269,7269,7269,7269,7269,7269,7269,7184,7184,7184,7184,7102,7021,7021,6942,6790,6790,6716,6716,6573,6504,6504,6370,6370,6241,6117,6117,5999,5829,5829,5617,5617,5420,5192,5192,4904,4904,4681,4543,4477,4321,4321,4175,4092,4092,4012,4012,3961,3935,3935,3910,3910,3910,3910,3910,3886,3886,3886,3886,3886,3886,3862,3862,3838,3814,3814,3767,3767,3700,3634,3634,3592,3592,3551,3531,3531,3531,3531,3531,3531,3531,3531,3571,3613,3613,3656,3678,3678,3722,3767,3767,3791,3791,3838,3886,3886,3935,3961,3961,3986,4012,4012,4092,4092,4092,4092,4092,4092,4092,4065,4065,4065,4065,4065,4065,4038,4038,4038,4038,4038,4012,4012,4012,4012,4012,4012,4038,4038,4038,4038,4038,4038,4065,4065,4065,4065,4038,4038,4038,4012,4012,4012,4012,4012,4012,4012,3986,3986,3986,3986,3986,3961,3961,3961,3961,3961,3935,3910,3910,3910,3910,3910,3910,3910,3910,3910,3910,3910,3910,3910,3910,3910,3935,3935,3935,3935,3961,3961,3961,3961,3986,3986,3986,3986,3986,3986,3986,4012,4012,4012,4012,4012,4038,4038,4038,4038,4038,4038,4065,4065,4065,4065,4065,4065,4092,4092,4092,4092,4092,4119,4119,4119,4147,4147,4147,4147,4147,4147,4147,4147,4147,4147,4147,4147,4147,4147,4119,4119,4119,4092,4092,4092,4065,4065,4065,4065,4065,4038,4038,4038,4038,4038,4038,4038,4038,4038,4038,4038,4038,4038,4038,4038,4038,4038,4038,4038,4038,4038,4038,4038,4038,4012,4012,4012,4012,4012,4012,4012,4012,3986,3986,3986,3986,3986,3961,3961,3961,3961,3961,3961,3961,3961,3961,3961,3961,3961,3986,3986,3986,4012,4012,4038,4065,4065,4092,4119,4119,4147,4147,4203,4291,4291
0,0,0,0,0,0,0,0,0,0,0,0,0,0,0,0,0,0,0,0,0,0,0,0,0,0,0,0,0,0,0,0,0,0,0,0,0,0,0,0,0,0,0,0,0,0,0,0,0,0,0,0,0,0,0,0,0,0,0,0,0,0,0,0,0,0,0,0,0,0,0,0,0,0,2423,2423,2376,2376,2332,2314,2314,2305,2305,2305,2323,2323,2323,2332,2340,2340,2340,2340,2367,2395,2395,2404,2414,2404,2404,2414,2404,2404,2404,2423,2423,2423,2423,2423,2423,2433,2433,2433,2442,2442,2452,2462,2462,2471,2471,2471,2481,2481,2501,2522,2522,2553,2596,2596,2629,2629,2675,2722,2722,2771,2821,2821,2860,2887,2887,2901,2901,2901,2928,2928,2956,2985,2985,2999,3014,3014,3029,3059,3059,3074,3074,3105,3136,3136,3168,3218,3218,3252,3286,3286,3304,3304,3340,3414,3414,3452,3471,3471,3491,3511,3511,3551,3551,3613,3700,3700,3767,3814,3814,3862,3886,3886,3935,3961,3961,3986,3986,3986,3986,3986,3986,3986,3986,4012,4012,4012,4038,4038,4065,4092,4092,4147,4147,4147,4175,4175,4203,4203,4203,4261,4291,4291,4351,4351,4445,4543,4543,4646,4753,4753,4904,5023,5023,5149,5236,5236,5281,5281,5326,5373,5373,5468,5517,5517,5617,5617,5668,5774,5774,5884,5941,5941,6057,6179,6179,6241,6241,6305,6305,6305,6370,6370,6370,6370,6370,6370,6436,6436,6436,6436,6436,6436,6504,6504,6573,6573,6573,6573,6573,6573,6573,6573,6573,6573,6573,6573,6573,6573,6644,6644,6644,6644,6716,6790,6790,6865,6942,6942,7021,7021,7102,7184,7184,7184,7269,7269,7355,7355,7269,7269,7269,7355,7355,7355,7355,7269,7269,7269,7184,7102,7102,7021,7021,6942,6865,6865,6865,6790,6790,6790,6865,6865,6942,7021,7021,7021,7102,7102,7184,7184,7269,7269,7269,7269,7269,7269,7269,7269,7184,7184,7184,7184,7184,7102,7102,7021,6942,6942,6865,6790,6790,6644,6644,6573,6436,6436,6305,6241,6241,6057,6057,5941,5829,5829,5617,5617,5420,5192,5192,4904,4904,4716,4543,4543,4351,4351,4203,4092,4092,4012,4012,3961,3910,3910,3886,3886,3838,3838,3838,3838,3814,3814,3814,3814,3791,3791,3791,3791,3814,3814,3767,3767,3700,3634,3634,3592,3592,3551,3531,3531,3531,3531,3531,3531,3531,3531,3571,3613,3613,3656,3678,3678,3722,3767,3767,3791,3791,3838,3886,3886,3935,3961,3961,3986,4012,4012,4038,4038,4065,4065,4065,4092,4092,4065,4065,4065,4065,4065,4065,4038,4038,4038,4038,4038,4012,4012,4012,4012,4012,4012,4038,4038,4038,4038,4038,4038,4065,4065,4065,4065,4065,4065,4038,4038,4038,4038,4038,4012,4012,4012,4012,4012,4012,3986,3986,3986,3961,3961,3961,3961,3961,3961,3961,3935,3935,3935,3935,3935,3935,3935,3935,3935,3961,3961,3961,3961,3961,3961,3961,3961,3961,3961,3961,3986,3986,3986,3986,3986,3986,4012,4012,4012,4012,4012,4038,4038,4038,4038,4038,4038,4038,4038,4065,4065,4065,4065,4065,4065,4092,4092,4092,4092,4092,4119,4119,4119,4147,4147,4147,4147,4147,4147,4147,4147,4147,4147,4147,4147,4147,4147,4119,4119,4119,4092,4092,4092,4065,4065,4065,4065,4065,4038,4038,4038,4038,4038,4038,4038,4038,4038,4038,4038,4038,4038,4038,4038,4038,4038,4038,4038,4038,4038,4038,4038,4038,4038,4038,4038,4012,4012,4012,4012,4012,4012,4012,4012,4012,4012,4012,3986,3986,3986,3986,3986,3986,3986,3986,4012,4012,4012,4012,4012,4012,4038,4038,4065,4065,4065,4092,4147,4147,4203,4203,4203,4291,4291
0,0,0,0,0,0,0,0,0,0,0,0,0,0,0,0,0,0,0,0,0,0,0,0,0,0,0,0,0,0,0,0,0,0,0,0,0,0,0,0,0,0,0,0,0,0,0,0,0,0,0,0,0,0,0,0,0,0,0,0,0,0,0,0,0,0,0,0,0,0,0,0,0,0,2423,2423,2376,2376,2332,2314,2314,2305,2305,2305,2323,2323,2323,2332,2340,2340,2349,2349,2376,2395,2395,2404,2414,2404,2404,2414,2404,2404,2404,2404,2404,2404,2404,2404,2404,2414,2414,2423,2433,2433,2433,2442,2442,2452,2452,2462,2471,2471,2491,2512,2512,2543,2574,2574,2618,2629,2652,2698,2698,2746,2796,2796,2847,2874,2874,2887,2901,2901,2914,2914,2956,2985,2985,3014,3029,3029,3029,3059,3059,3074,3074,3120,3152,3152,3185,3235,3235,3269,3304,3304,3322,3322,3376,3433,3433,3471,3491,3491,3511,3531,3531,3571,3571,3634,3722,3722,3767,3814,3814,3862,3886,3886,3935,3961,3961,3986,3986,3986,3986,3986,3986,3986,3986,4012,4012,4012,4038,4038,4065,4092,4092,4119,4119,4147,4175,4175,4203,4203,4203,4232,4291,4291,4351,4351,4445,4543,4543,4646,4753,4753,4904,5023,5023,5149,5236,5236,5281,5281,5326,5373,5373,5468,5517,5517,5617,5617,5668,5774,5774,5829,5941,5941,6057,6117,6117,6241,6241,6241,6305,6305,6305,6370,6370,6370,6370,6370,6436,6436,6436,6436,6436,6436,6504,6504,6573,6573,6573,6573,6573,6573,6573,6573,6573,6573,6573,6573,6573,6644,6644,6644,6716,6716,6716,6865,6865,6942,7021,7021,7021,7021,7102,7184,7184,7184,7269,7269,7355,7355,7269,7269,7269,7269,7269,7269,7269,7184,7102,7102,7021,6942,6942,6865,6865,6790,6716,6716,6644,6644,6644,6644,6644,6644,6716,6865,6865,6942,7021,7021,7102,7102,7102,7184,7184,7184,7184,7184,7184,7184,7184,7184,7102,7102,7102,7021,7021,6942,6865,6865,6790,6716,6716,6644,6644,6504,6370,6370,6305,6179,6179,6057,6057,5941,5829,5829,5668,5668,5468,5236,5236,5023,5023,4790,4646,4646,4445,4445,4291,4147,4147,4038,4038,3961,3910,3910,3886,3886,3838,3838,3838,3838,3814,3814,3814,3814,3791,3791,3791,3767,3722,3722,3678,3678,3634,3571,3571,3531,3531,3491,3471,3471,3452,3452,3471,3471,3471,3471,3511,3531,3531,3592,3613,3613,3678,3700,3700,3745,3745,3791,3838,3838,3862,3910,3910,3961,3986,3986,4012,4012,4038,4065,4065,4065,4065,4065,4065,4065,4065,4065,4065,4065,4065,4065,4065,4038,4038,4038,4038,4038,4038,4038,4038,4038,4065,4065,4065,4065,4065,4065,4065,4065,4065,4065,4065,4065,4065,4038,4038,4038,4012,4012,4012,4012,4012,4012,4012,3986,3986,3986,3986,3961,3961,3961,3961,3961,3935,3935,3935,3935,3935,3935,3935,3935,3961,3961,3961,3961,3961,3961,3961,3961,3961,3961,3961,3986,3986,3986,3986,3986,3986,4012,4012,4012,4012,4012,4038,4038,4038,4038,4038,4038,4038,4038,4065,4065,4065,4065,4065,4092,4092,4092,4092,4092,4119,4119,4119,4147,4147,4147,4147,4147,4147,4147,4147,4147,4147,4147,4147,4147,4147,4147,4119,4119,4119,4092,4092,4092,4065,4065,4065,4065,4065,4038,4038,4038,4038,4038,4038,4038,4038,4038,4038,4038,4038,4038,4038,4038,4038,4038,4038,4038,4038,4038,4038,4038,4065,4038,4038,4038,4012,4012,4012,4012,4012,4012,4012,4012,4012,4012,4012,3986,3986,3986,3986,3986,3986,3986,3986,4012,4012,4012,4012,4012,4012,4038,4038,4065,4065,4065,4092,4147,4147,4203,4203,4261,4321,4321
0,0,0,0,0,0,0,0,0,0,0,0,0,0,0,0,0,0,0,0,0,0,0,0,0,0,0,0,0,0,0,0,0,0,0,0,0,0,0,0,0,0,0,0,0,0,0,0,0,0,0,0,0,0,0,0,0,0,0,0,0,0,0,0,0,0,0,0,0,0,0,0,0,2414,2395,2395,2376,2376,2332,2314,2314,2305,2305,2305,2323,2323,2323,2332,2340,2340,2349,2349,2376,2386,2386,2386,2386,2386,2395,2395,2386,2386,2386,2386,2386,2386,2386,2386,2386,2395,2395,2404,2423,2423,2433,2442,2442,2452,2452,2452,2471,2471,2481,2512,2512,2532,2574,2574,2618,2652,2652,2698,2698,2746,2796,2796,2847,2874,2874,2887,2901,2901,2914,2914,2956,2999,2999,3014,3029,3029,3044,3074,3074,3089,3089,3136,3185,3185,3201,3235,3235,3286,3322,3322,3340,3376,3376,3433,3433,3471,3491,3491,3511,3531,3531,3571,3571,3634,3722,3722,3767,3791,3791,3838,3862,3862,3910,3935,3935,3935,3935,3935,3961,3961,3961,3961,3961,3986,3986,4012,4012,4012,4065,4092,4092,4119,4119,4147,4175,4175,4203,4203,4203,4232,4291,4291,4351,4351,4445,4543,4543,4646,4753,4753,4904,5023,5023,5149,5236,5236,5326,5326,5373,5373,5373,5468,5517,5517,5617,5617,5668,5774,5774,5829,5941,5941,6057,6117,6117,6241,6241,6241,6305,6305,6305,6370,6370,6370,6370,6370,6436,6436,6436,6436,6436,6504,6504,6504,6573,6573,6573,6573,6573,6573,6573,6573,6573,6573,6573,6573,6573,6644,6644,6644,6716,6716,6716,6865,6865,6942,7021,7021,7021,7021,7102,7102,7102,7184,7269,7269,7269,7269,7184,7184,7184,7184,7184,7102,7102,7102,6942,6942,6865,6716,6716,6644,6644,6644,6573,6573,6504,6504,6504,6504,6573,6573,6573,6716,6716,6942,7021,7021,7102,7102,7102,7184,7184,7184,7184,7184,7184,7184,7184,7184,7102,7102,7102,7021,7021,6942,6865,6865,6790,6716,6716,6644,6644,6504,6370,6370,6305,6179,6179,6057,6057,5941,5829,5829,5668,5668,5468,5236,5236,5023,5023,4790,4646,4646,4445,4445,4291,4147,4147,4038,4038,3961,3910,3910,3862,3862,3814,3767,3767,3745,3722,3722,3700,3700,3700,3678,3678,3678,3656,3656,3613,3613,3571,3511,3511,3471,3471,3433,3414,3414,3395,3395,3395,3395,3414,3414,3433,3471,3471,3511,3551,3551,3592,3700,3700,3745,3745,3791,3838,3838,3862,3910,3910,3961,3986,3986,4012,4012,4038,4065,4065,4065,4065,4065,4065,4065,4065,4065,4065,4092,4092,4065,4065,4065,4065,4065,4065,4038,4038,4038,4038,4038,4065,4065,4065,4065,4065,4065,4065,4065,4065,4065,4065,4065,4065,4038,4038,4038,4012,4012,4012,4012,4012,4012,4012,3986,3986,3986,3986,3961,3961,3961,3961,3961,3961,3961,3961,3961,3961,3961,3961,3961,3961,3961,3961,3986,3986,3986,3986,3986,3986,3986,3986,3986,3986,3986,3986,3986,3986,4012,4012,4012,4012,4012,4038,4038,4038,4038,4038,4038,4038,4038,4065,4065,4065,4092,4092,4092,4119,4119,4119,4119,4119,4147,4147,4147,4147,4147,4147,4147,4147,4147,4147,4147,4147,4147,4147,4147,4147,4147,4119,4119,4119,4092,4092,4092,4065,4065,4065,4065,4065,4038,4038,4038,4038,4038,4038,4012,4012,4012,4012,4012,4012,4012,4012,4038,4038,4038,4038,4038,4038,4038,4038,4038,4065,4038,4038,4038,4038,4038,4038,4038,4038,4038,4038,4038,4012,4012,4012,4012,4012,4012,4012,4012,4012,4012,4012,4012,4038,4038,4038,4038,4038,4038,4038,4065,4092,4092,4119,4175,4175,4203,4203,4261,4351,4351
0,0,0,0,0,0,0,0,0,0,0,0,0,0,0,0,0,0,0,0,0,0,0,0,0,0,0,0,0,0,0,0,0,0,0,0,0,0,0,0,0,0,0,0,0,0,0,0,0,0,0,0,0,0,0,0,0,0,0,0,0,0,0,0,0,0,0,0,0,0,0,0,0,2414,2395,2395,2376,2376,2358,2358,2367,2358,2358,2349,2349,2358,2358,2358,2358,2358,2367,2376,2376,2386,2386,2386,2386,2386,2395,2395,2386,2386,2386,2386,2386,2386,2386,2386,2386,2395,2395,2404,2423,2423,2433,2442,2442,2452,2452,2452,2471,2471,2481,2512,2512,2532,2574,2574,2607,2640,2640,2675,2675,2722,2783,2783,2821,2860,2860,2874,2874,2874,2914,2914,2942,2999,2999,3014,3029,3029,3044,3059,3059,3089,3089,3136,3185,3185,3201,3235,3235,3286,3322,3322,3340,3395,3395,3452,3452,3491,3511,3511,3531,3551,3551,3592,3656,3656,3722,3722,3767,3791,3791,3814,3838,3838,3886,3886,3886,3910,3910,3910,3961,3961,3961,3961,3961,3986,3986,4012,4012,4012,4065,4092,4092,4119,4119,4147,4175,4175,4203,4203,4203,4261,4291,4291,4351,4351,4445,4543,4543,4681,4790,4790,4904,5023,5023,5149,5236,5236,5326,5326,5373,5373,5373,5468,5517,5517,5617,5617,5668,5774,5774,5829,5884,5884,5999,6117,6117,6179,6179,6241,6305,6305,6305,6370,6370,6370,6370,6370,6436,6436,6436,6436,6436,6504,6504,6504,6573,6573,6573,6573,6573,6573,6573,6573,6573,6573,6573,6573,6573,6644,6716,6716,6716,6716,6790,6865,6865,6942,7021,7021,7102,7102,7102,7102,7102,7184,7269,7269,7269,7269,7184,7184,7184,7184,7184,7102,7102,7102,6942,6942,6865,6716,6716,6644,6644,6644,6573,6573,6504,6504,6504,6504,6573,6573,6573,6716,6716,6790,6942,6942,7021,7021,7021,7021,7021,7021,7021,7021,7021,7021,7021,7021,7021,6942,6942,6942,6942,6865,6790,6790,6716,6644,6644,6504,6504,6436,6370,6370,6241,6179,6179,6057,6057,5941,5829,5829,5721,5721,5566,5326,5326,5106,5106,4943,4753,4753,4543,4543,4382,4232,4232,4092,4092,3986,3910,3910,3838,3838,3814,3767,3767,3745,3722,3722,3700,3700,3700,3678,3678,3678,3656,3656,3613,3613,3571,3511,3511,3471,3471,3433,3414,3414,3395,3395,3395,3395,3414,3414,3433,3471,3471,3511,3551,3551,3592,3634,3634,3678,3678,3722,3767,3767,3814,3862,3862,3910,3935,3935,3986,3986,4012,4038,4038,4065,4065,4065,4065,4065,4065,4065,4065,4092,4092,4065,4065,4065,4065,4065,4065,4065,4065,4065,4065,4065,4065,4065,4065,4065,4092,4092,4092,4092,4065,4065,4065,4065,4065,4065,4065,4038,4038,4038,4012,4012,4012,4012,4012,4012,4012,4012,4012,3986,3986,3986,3986,3986,3986,3986,3986,3986,3986,3986,3986,3986,3986,3986,3986,3986,3986,3986,3986,3986,3986,3986,3986,3986,3986,3986,3986,3986,3986,4012,4012,4012,4012,4012,4038,4038,4038,4038,4038,4038,4038,4038,4065,4065,4065,4092,4092,4092,4119,4119,4119,4119,4119,4147,4147,4147,4147,4147,4147,4147,4147,4147,4147,4147,4147,4147,4147,4147,4147,4147,4119,4119,4119,4092,4092,4092,4065,4065,4065,4065,4065,4038,4038,4038,4038,4038,4012,4012,4012,4012,4012,4012,4012,4012,4012,4038,4038,4038,4038,4038,4038,4065,4065,4065,4065,4065,4065,4065,4065,4065,4065,4065,4065,4065,4065,4065,4065,4065,4065,4038,4038,4038,4038,4038,4038,4038,4038,4038,4038,4038,4038,4038,4038,4038,4038,4065,4092,4092,4119,4175,4175,4203,4203,4261,4351,4351
0,0,0,0,0,0,0,0,0,0,0,0,0,0,0,0,0,0,0,0,0,0,0,0,0,0,0,0,0,0,0,0,0,0,0,0,0,0,0,0,0,0,0,0,0,0,0,0,0,0,0,0,0,0,0,0,0,0,0,0,0,0,0,0,0,0,0,0,0,0,0,0,0,0,0,0,2376,2376,2376,2376,2386,2376,2376,2376,2376,2376,2376,2376,2376,2367,2367,2367,2367,2376,2376,2367,2367,2367,2376,2376,2376,2376,2367,2367,2367,2367,2367,2376,2376,2386,2386,2395,2404,2404,2414,2433,2433,2442,2442,2452,2462,2462,2481,2501,2501,2532,2564,2564,2596,2618,2618,2663,2663,2698,2758,2758,2796,2834,2834,2847,2874,2874,2901,2942,2942,2985,2985,3014,3029,3029,3044,3059,3059,3089,3136,3136,3185,3185,3201,3252,3252,3286,3340,3340,3358,3414,3414,3452,3452,3511,3511,3511,3531,3551,3551,3592,3656,3656,3722,3722,3767,3791,3791,3814,3838,3838,3886,3886,3886,3910,3910,3910,3910,3910,3935,3935,3935,3961,3961,3986,4012,4012,4065,4092,4092,4119,4119,4147,4175,4175,4203,4203,4203,4261,4291,4291,4351,4351,4445,4543,4543,4681,4790,4790,4904,5023,5023,5149,5236,5236,5326,5326,5373,5420,5420,5468,5566,5566,5617,5668,5668,5721,5721,5774,5884,5884,5999,6057,6057,6179,6179,6179,6241,6241,6305,6370,6370,6370,6436,6436,6436,6436,6436,6504,6504,6504,6504,6504,6573,6573,6573,6573,6573,6573,6573,6573,6573,6573,6573,6644,6644,6644,6716,6716,6716,6716,6790,6865,6865,6942,7021,7021,7102,7102,7102,7102,7102,7184,7184,7184,7184,7184,7102,7102,7102,7102,7102,7021,7021,6942,6790,6790,6716,6573,6573,6504,6504,6436,6436,6436,6370,6370,6370,6370,6370,6370,6504,6573,6573,6644,6790,6790,6865,6942,6942,6942,6942,6942,6942,6942,6942,6942,6942,6942,6942,6865,6865,6790,6790,6790,6716,6716,6644,6644,6644,6504,6504,6436,6370,6370,6241,6179,6179,6057,6057,5999,5884,5884,5774,5774,5617,5468,5468,5281,5281,5106,4904,4904,4681,4681,4510,4351,4351,4175,4175,4038,3935,3935,3838,3838,3791,3745,3745,3700,3656,3656,3634,3634,3613,3592,3592,3592,3592,3571,3551,3551,3511,3452,3452,3414,3414,3376,3358,3358,3358,3340,3340,3340,3358,3358,3376,3395,3395,3433,3471,3471,3531,3551,3551,3592,3592,3634,3678,3678,3745,3767,3767,3838,3910,3910,3935,3935,3986,4012,4012,4065,4065,4065,4065,4065,4065,4092,4092,4092,4092,4065,4065,4065,4065,4065,4065,4065,4092,4092,4092,4092,4092,4092,4092,4092,4092,4092,4092,4092,4092,4092,4065,4065,4065,4065,4065,4065,4038,4038,4038,4038,4038,4012,4012,4012,4012,4012,4012,3986,3986,3986,3986,3986,3986,3986,3986,3986,3986,3986,3986,3986,3986,3986,3986,3986,3986,3986,3986,3986,3986,3986,3986,3986,3986,3986,3986,3986,3986,4012,4012,4012,4038,4038,4038,4038,4038,4038,4038,4065,4065,4065,4065,4092,4092,4092,4092,4119,4119,4119,4147,4147,4147,4147,4147,4147,4147,4147,4147,4147,4147,4175,4147,4147,4147,4147,4147,4147,4147,4147,4119,4119,4119,4092,4092,4092,4065,4065,4065,4065,4065,4038,4038,4038,4038,4038,4012,4012,4012,4012,4012,4012,4012,4012,4012,4038,4038,4038,4038,4038,4038,4065,4065,4065,4065,4065,4065,4065,4065,4065,4065,4065,4065,4065,4065,4065,4065,4065,4065,4038,4038,4038,4038,4038,4038,4038,4038,4038,4038,4038,4065,4065,4065,4065,4065,4092,4119,4119,4147,4203,4203,4232,4291,4291,4351,4351
0,0,0,0,0,0,0,0,0,0,0,0,0,0,0,0,0,0,0,0,0,0,0,0,0,0,0,0,0,0,0,0,0,0,0,0,0,0,0,0,0,0,0,0,0,0,0,0,0,0,0,0,0,0,0,0,0,0,0,0,0,0,0,0,0,0,0,0,0,0,0,0,0,0,0,0,2376,2376,2376,2376,2386,2376,2376,2376,2376,2376,2376,2376,2376,2367,2367,2367,2367,2367,2367,2367,2367,2367,2358,2358,2358,2367,2358,2358,2358,2358,2358,2367,2367,2376,2376,2386,2404,2404,2414,2433,2433,2442,2442,2452,2462,2462,2481,2501,2501,2532,2564,2564,2596,2618,2618,2663,2663,2698,2758,2758,2796,2834,2834,2847,2874,2874,2901,2942,2942,2985,2985,3029,3029,3029,3044,3059,3059,3089,3136,3136,3185,3185,3201,3252,3252,3286,3340,3340,3358,3414,3414,3452,3452,3491,3511,3511,3531,3551,3551,3592,3634,3634,3700,3700,3745,3767,3767,3791,3814,3814,3838,3862,3862,3862,3862,3862,3886,3886,3886,3910,3910,3935,3935,3986,4012,4012,4065,4092,4092,4119,4147,4147,4203,4203,4203,4261,4261,4291,4321,4321,4382,4382,4477,4577,4577,4716,4790,4790,4943,5064,5064,5149,5236,5236,5326,5326,5420,5420,5420,5517,5566,5566,5617,5668,5668,5721,5721,5774,5884,5884,5999,6057,6057,6179,6179,6179,6241,6241,6305,6370,6370,6370,6436,6436,6436,6436,6436,6504,6504,6504,6504,6504,6573,6573,6573,6573,6573,6573,6573,6573,6573,6573,6573,6644,6644,6644,6716,6716,6716,6716,6790,6865,6865,6942,7021,7021,7102,7102,7102,7102,7102,7184,7184,7184,7102,7102,7102,7102,7021,7021,7021,6865,6865,6790,6716,6716,6573,6504,6504,6370,6370,6370,6436,6436,6370,6370,6370,6370,6370,6370,6504,6573,6573,6644,6790,6790,6865,6942,6942,6942,6942,6942,6942,6942,6942,6942,6942,6942,6942,6865,6865,6790,6790,6790,6716,6716,6644,6573,6573,6436,6436,6370,6305,6305,6179,6117,6117,6057,6057,5941,5884,5884,5774,5774,5617,5468,5468,5281,5236,5106,4904,4904,4681,4681,4510,4351,4351,4175,4175,4038,3935,3935,3838,3838,3791,3722,3722,3656,3613,3613,3571,3571,3531,3531,3531,3531,3531,3491,3471,3471,3433,3395,3395,3358,3358,3322,3322,3322,3322,3340,3340,3340,3358,3358,3376,3395,3395,3433,3471,3471,3531,3551,3551,3592,3592,3634,3678,3678,3745,3767,3767,3838,3910,3910,3935,3935,3986,4012,4012,4065,4065,4065,4065,4065,4092,4092,4092,4092,4092,4065,4065,4065,4065,4065,4065,4065,4092,4092,4092,4092,4092,4092,4092,4092,4092,4092,4092,4092,4092,4092,4065,4065,4065,4065,4065,4065,4038,4038,4038,4038,4038,4012,4012,4012,4012,4012,4012,4012,4012,4012,4012,4012,4012,4012,4012,4012,4012,4012,4012,4012,4012,4012,4012,4012,4012,4012,4012,3986,3986,3986,3986,4012,4012,4012,4012,4012,4012,4012,4012,4012,4038,4038,4038,4065,4065,4065,4065,4065,4092,4092,4092,4092,4092,4119,4119,4147,4147,4147,4147,4147,4147,4147,4147,4147,4147,4147,4147,4147,4147,4175,4147,4147,4147,4147,4147,4147,4147,4147,4119,4119,4119,4092,4092,4092,4065,4065,4065,4065,4065,4038,4038,4038,4038,4038,4012,4012,4012,4012,4012,4012,4012,4012,4012,4038,4038,4038,4038,4038,4038,4065,4065,4065,4065,4065,4092,4092,4092,4092,4092,4092,4092,4092,4092,4092,4092,4092,4092,4092,4092,4092,4092,4092,4065,4065,4065,4065,4065,4065,4092,4092,4092,4092,4092,4119,4119,4119,4175,4203,4203,4261,4321,4321,4382,4382
0,0,0,0,0,0,0,0,0,0,0,0,0,0,0,0,0,0,0,0,0,0,0,0,0,0,0,0,0,0,0,0,0,0,0,0,0,0,0,0,0,0,0,0,0,0,0,0,0,0,0,0,0,0,0,0,0,0,0,0,0,0,0,0,0,0,0,0,0,0,0,2239,2239,2239,2272,2272,2305,2340,2340,0,0,0,2386,2386,2386,2386,2386,2376,2376,2376,2367,2367,2367,2367,2367,2367,2367,2367,2358,2358,2358,2367,2358,2358,2358,2358,2358,2367,2367,2376,2376,2386,2404,2404,2414,2423,2423,2442,2442,2452,2462,2462,2471,2501,2501,2522,2553,2553,2574,2607,2607,2640,2640,2675,2734,2734,2783,2821,2821,2847,2860,2860,2887,2942,2942,2985,2985,3029,3029,3029,3044,3059,3059,3105,3136,3136,3201,3201,3218,3252,3252,3286,3340,3340,3358,3414,3414,3471,3471,3491,3511,3511,3531,3551,3551,3592,3634,3634,3700,3700,3745,3767,3767,3791,3814,3814,3838,3862,3862,3862,3862,3862,3886,3886,3886,3910,3910,3935,3935,3986,4012,4012,4065,4092,4092,4119,4147,4147,4203,4203,4232,4291,4291,4351,4382,4382,4382,4382,4477,4577,4577,4716,4790,4790,4943,5064,5064,5149,5236,5236,5326,5326,5420,5420,5420,5517,5566,5566,5617,5668,5668,5721,5721,5774,5884,5884,5999,6057,6057,6117,6179,6179,6241,6241,6305,6370,6370,6436,6436,6436,6504,6504,6504,6504,6504,6504,6573,6573,6573,6573,6573,6644,6573,6573,6573,6573,6644,6573,6573,6644,6644,6716,6716,6716,6716,6716,6865,6865,6865,6942,7021,7021,7102,7102,7102,7102,7102,7184,7184,7184,7102,7102,7102,7102,7021,7021,7021,6865,6865,6790,6716,6716,6573,6504,6504,6370,6370,6305,6241,6241,6241,6241,6241,6241,6305,6305,6370,6573,6573,6573,6716,6716,6865,6865,6865,6865,6865,6865,6865,6865,6865,6865,6865,6865,6865,6865,6865,6790,6790,6716,6644,6644,6573,6504,6504,6436,6436,6370,6241,6241,6179,6117,6117,6057,6057,5941,5884,5884,5829,5829,5721,5566,5566,5420,5236,5236,5064,5064,5064,0,0,4445,4445,4261,4261,4119,3961,3961,3862,3862,3791,3722,3722,3656,3613,3613,3571,3571,3531,3531,3531,3531,3531,3491,3471,3471,3433,3395,3395,3358,3358,3322,3322,3322,3304,3304,3304,3304,3304,3304,3322,3340,3340,3376,3395,3395,3433,3433,3471,3511,3511,3531,3571,3571,3634,3700,3700,3745,3745,3814,3886,3886,3935,3986,3986,4038,4038,4038,4065,4065,4092,4092,4092,4092,4092,4092,4092,4092,4092,4092,4092,4092,4092,4092,4092,4092,4092,4092,4092,4092,4092,4092,4092,4092,4092,4092,4092,4092,4092,4065,4065,4065,4065,4065,4065,4038,4038,4038,4038,4038,4038,4038,4038,4012,4012,4012,4012,4012,4012,4012,4012,4012,4012,4012,4012,4012,4012,4012,4012,4012,4012,4012,4012,3986,3986,3986,3986,4012,4012,4012,4012,4012,4012,4012,4012,4012,4038,4038,4038,4065,4065,4065,4065,4065,4092,4092,4092,4092,4092,4119,4119,4147,4147,4147,4147,4147,4147,4147,4147,4175,4175,4175,4175,4175,4175,4175,4175,4175,4175,4147,4147,4147,4119,4119,4119,4119,4119,4092,4092,4092,4065,4065,4065,4065,4065,4038,4038,4038,4038,4038,4038,4038,4038,4038,4038,4038,4038,4038,4038,4038,4038,4038,4065,4065,4065,4065,4065,4092,4092,4092,4092,4119,4119,4119,4119,4119,4119,4119,4119,4119,4119,4119,4092,4092,4092,4092,4092,4092,4065,4065,4065,4065,4065,4065,4092,4092,4092,4092,4092,4119,4119,4119,4175,4203,4203,4261,4321,4321,4382,4382
0,0,0,0,0,0,0,0,0,0,0,0,0,0,0,0,0,0,0,0,0,0,0,0,0,0,0,0,0,0,0,0,0,0,0,0,0,0,0,0,0,0,0,0,0,0,0,0,0,0,0,0,0,0,0,0,0,0,0,0,0,0,0,0,0,0,0,0,0,0,0,2239,2239,2239,2272,2272,2305,2340,2340,2349,2367,2367,2376,2386,2386,2386,2386,2376,2376,2376,2367,2367,2367,2367,2367,2367,2367,2358,2358,2358,2358,2358,2358,2358,2358,2358,2358,2367,2367,2376,2376,2386,2404,2404,2414,2423,2423,2442,2452,2452,2462,2462,2471,2501,2501,2522,2553,2553,2574,2596,2596,2629,2629,2663,2710,2710,2758,2796,2796,2821,2847,2847,2887,2942,2942,2985,2985,3029,3029,3029,3044,3074,3074,3105,3168,3168,3218,3218,3252,3286,3286,3322,3358,3358,3395,3414,3414,3471,3471,3511,3531,3531,3531,3551,3551,3592,3634,3634,3700,3700,3722,3745,3745,3767,3791,3791,3814,3814,3814,3838,3838,3838,3862,3862,3886,3886,3886,3935,3935,3986,4012,4012,4065,4092,4092,4119,4147,4147,4203,4203,4232,4291,4291,4351,4382,4382,4445,4510,4510,4611,4611,4753,4865,4865,4943,5106,5106,5192,5281,5281,5373,5373,5420,5468,5468,5517,5566,5566,5617,5668,5668,5721,5721,5774,5884,5884,5999,6057,6057,6117,6179,6179,6241,6241,6305,6370,6370,6436,6504,6504,6504,6504,6504,6573,6573,6573,6644,6644,6644,6644,6644,6644,6644,6644,6644,6644,6644,6644,6644,6644,6644,6716,6716,6716,6716,6716,6865,6865,6865,6942,7021,7021,7102,7102,7102,7102,7102,7102,7102,7102,7021,7021,6942,6942,6865,6865,6865,6716,6716,6644,6573,6573,6436,6305,6305,6241,6241,6179,6179,6179,6179,6179,6179,6179,6241,6241,6305,6436,6436,6504,6644,6644,6716,6790,6790,6790,6790,6790,6790,6790,6790,6865,6865,6865,6865,6865,6865,6790,6790,6716,6644,6644,6573,6504,6504,6436,6436,6370,6241,6241,6179,6117,6117,6057,6057,5999,5941,5941,5884,5884,5774,5668,5668,5566,5420,5420,5064,5064,5023,4827,4827,4445,4445,4261,4261,4119,3961,3961,3862,3862,3767,3700,3700,3634,3571,3571,3511,3511,3491,3471,3471,3452,3452,3433,3414,3414,3395,3358,3358,3322,3322,3304,3286,3286,3269,3269,3269,3269,3269,3269,3286,3304,3304,3304,3322,3322,3358,3358,3376,3414,3414,3433,3452,3452,3491,3531,3531,3613,3613,3678,3886,3886,3935,3986,3986,4038,4038,4038,4065,4092,4092,4092,4092,4092,4092,4092,4092,4119,4119,4119,4092,4092,4092,4092,4092,4092,4092,4092,4092,4092,4119,4119,4092,4092,4092,4092,4092,4092,4092,4065,4065,4065,4065,4065,4065,4038,4038,4038,4038,4038,4038,4038,4038,4012,4012,4012,4012,4012,4012,4012,4012,4012,4012,4012,4012,4012,4012,4012,4012,4012,4012,4012,4012,4012,4012,4012,4012,4012,4012,4012,4012,4012,4012,4038,4038,4038,4065,4065,4065,4065,4065,4092,4092,4092,4092,4092,4119,4119,4119,4147,4147,4147,4147,4147,4175,4175,4175,4175,4175,4175,4175,4175,4175,4175,4175,4175,4175,4175,4175,4147,4147,4147,4119,4119,4119,4119,4119,4092,4092,4092,4092,4092,4065,4065,4065,4038,4038,4038,4038,4038,4038,4038,4038,4038,4038,4038,4038,4038,4038,4038,4038,4038,4065,4065,4065,4065,4065,4092,4092,4092,4092,4119,4119,4119,4119,4119,4119,4119,4119,4119,4119,4119,4119,4119,4119,4119,4119,4119,4119,4119,4092,4092,4092,4092,4092,4092,4092,4119,4119,4119,4147,4147,4203,4232,4232,4291,4321,4321,4382,4382
0,0,0,0,0,0,0,0,0,0,0,0,0,0,0,0,0,0,0,0,0,0,0,0,0,0,0,0,0,0,0,0,0,0,0,0,0,0,0,0,0,0,0,0,0,0,0,0,0,0,0,0,0,0,0,0,0,0,0,0,0,0,0,0,0,0,0,0,0,0,0,2223,2223,2223,2255,2255,2280,2314,2314,2332,2358,2358,2376,2386,2386,2395,2395,2386,2386,2376,2376,2376,2367,2367,2367,2367,2367,2358,2358,2358,2358,2358,2358,2358,2358,2358,2367,2367,2367,2386,2386,2395,2414,2414,2423,2433,2433,2452,2462,2462,2471,2471,2491,2512,2512,2532,2553,2553,2574,2596,2596,2629,2629,2663,2710,2710,2758,2796,2796,2821,2847,2847,2887,2928,2928,2970,2970,3014,3029,3029,3044,3074,3074,3105,3168,3168,3218,3218,3252,3286,3286,3322,3358,3358,3395,3414,3414,3471,3471,3511,3531,3531,3531,3551,3551,3592,3634,3634,3678,3678,3700,3722,3722,3722,3745,3745,3767,3791,3791,3791,3791,3814,3838,3838,3862,3886,3886,3935,3935,3961,4012,4012,4065,4092,4092,4147,4175,4175,4232,4232,4291,4321,4321,4382,4445,4445,4477,4543,4543,4681,4681,4790,4904,4904,5023,5106,5106,5236,5326,5326,5420,5468,5468,5517,5517,5566,5617,5617,5668,5668,5668,5721,5721,5774,5884,5884,5941,6057,6057,6117,6179,6179,6241,6241,6305,6370,6370,6436,6504,6504,6504,6504,6504,6573,6573,6573,6644,6644,6644,6644,6644,6644,6644,6644,6644,6644,6644,6644,6644,6644,6644,6716,6716,6716,6790,6790,6865,6865,6865,6942,7021,7021,7102,7102,7102,7102,7102,7021,7021,6942,6942,6942,6865,6865,6865,6865,6865,6716,6716,6644,6573,6573,6436,6305,6305,6241,6241,6179,6179,6179,6179,6179,6179,6179,6241,6241,6305,6436,6436,6504,6644,6644,6716,6790,6790,6790,6790,6790,6790,6790,6790,6790,6790,6790,6716,6716,6716,6716,6644,6644,6573,6573,6504,6504,6504,6436,6436,6305,6241,6241,6179,6117,6117,6057,6057,5999,5941,5941,5884,5884,5774,5668,5668,5566,5420,5420,5236,5236,5023,4827,4827,4611,4611,4382,4291,4175,4038,4038,3886,3814,3767,3700,3700,3634,3551,3551,3491,3491,3452,3414,3414,3414,3452,3433,3414,3414,3395,3358,3358,3322,3322,3304,3286,3286,3269,3269,3269,3269,3269,3269,3286,3304,3304,3304,3322,3322,3358,3358,3376,3414,3414,3433,3452,3452,3491,3531,3531,3613,3613,3678,3745,3745,3814,3910,3910,3961,4012,4012,4038,4092,4092,4092,4092,4092,4092,4092,4092,4119,4119,4119,4092,4092,4092,4092,4092,4092,4092,4092,4092,4092,4119,4119,4092,4092,4092,4092,4092,4092,4092,4092,4065,4065,4065,4065,4065,4038,4038,4038,4038,4038,4038,4038,4038,4038,4038,4038,4038,4012,4012,4012,4012,4012,4012,4012,4012,4012,4012,4012,4012,4012,4012,4012,4012,4012,4012,4012,4012,4012,4012,4012,4012,4038,4038,4038,4038,4065,4065,4065,4065,4092,4092,4092,4092,4119,4119,4119,4119,4119,4119,4147,4147,4147,4147,4147,4175,4175,4175,4175,4175,4175,4175,4175,4175,4175,4175,4175,4175,4175,4175,4147,4147,4147,4119,4119,4119,4119,4119,4092,4092,4092,4092,4092,4065,4065,4065,4065,4038,4038,4038,4038,4038,4038,4038,4038,4038,4065,4065,4065,4065,4065,4065,4065,4065,4092,4092,4092,4092,4092,4119,4119,4119,4147,4147,4147,4147,4147,4147,4147,4147,4147,4147,4147,4147,4147,4147,4147,4147,4147,4147,4147,4119,4119,4119,4119,4119,4119,4119,4147,4147,4147,4175,4175,4232,4261,4261,4291,4321,4321,4382,4382
0,0,0,0,0,0,0,0,0,0,0,0,0,0,0,0,0,0,0,0,0,0,0,0,0,0,0,0,0,0,0,0,0,0,0,0,0,0,0,0,0,0,0,0,0,0,0,0,0,0,0,0,0,0,0,0,0,0,0,0,0,0,0,0,0,0,0,0,0,0,0,2223,2223,2223,2255,2255,2280,2314,2314,2332,2358,2358,2376,2386,2386,2395,2395,2395,2395,2395,2386,2386,2386,2386,2376,2376,2376,2367,2367,2367,2358,2358,2358,2358,2358,2358,2367,2367,2367,2386,2386,2395,2414,2414,2423,2433,2433,2452,2462,2462,2471,2471,2491,2512,2512,2532,2553,2553,2574,2596,2596,2618,2618,2652,2698,2698,2746,2783,2783,2808,2834,2834,2874,2928,2928,2970,2970,3014,3029,3029,3044,3059,3059,3120,3168,3168,3235,3252,3252,3304,3304,3340,3395,3395,3414,3452,3452,3491,3511,3511,3531,3531,3551,3571,3571,3592,3634,3634,3678,3678,3700,3722,3722,3722,3745,3745,3767,3791,3791,3791,3791,3814,3838,3838,3862,3886,3886,3935,3935,3961,4012,4012,4065,4092,4092,4147,4175,4175,4232,4232,4291,4321,4321,4382,4445,4445,4477,4543,4543,4681,4681,4790,4904,4904,5023,5106,5106,5236,5326,5326,5420,5468,5468,5517,5517,5566,5617,5617,5668,5668,5668,5721,5721,5774,5884,5884,5941,6057,6057,6117,6179,6179,6241,6241,6305,6370,6370,6436,6504,6504,6573,6573,6573,6644,6644,6644,6644,6644,6644,6644,6716,6716,6644,6644,6644,6644,6644,6644,6644,6716,6716,6716,6716,6716,6790,6865,6865,6865,6865,7021,7021,7021,7102,7102,7102,7102,7102,7021,7021,6942,6942,6942,6865,6865,6790,6716,6716,6644,6644,6504,6436,6436,6305,6241,6241,6117,6117,6117,6117,6117,6117,6117,6179,6179,6241,6241,6305,6436,6436,6504,6573,6573,6644,6644,6644,6716,6716,6716,6716,6716,6644,6644,6644,6716,6716,6644,6644,6644,6644,6644,6573,6573,6504,6436,6436,6370,6370,6305,6241,6241,6241,6179,6179,6117,6117,6057,5999,5999,5941,5884,5884,5829,5829,5774,5566,5566,5373,5373,5192,4983,4983,4753,4753,4543,4291,4291,4119,4119,3935,3814,3814,3722,3722,3634,3551,3551,3491,3491,3452,3414,3414,3395,3395,3376,3358,3358,3340,3304,3304,3286,3286,3252,3252,3252,3235,3235,3235,3235,3235,3235,3235,3252,3252,3252,3269,3269,3286,3286,3304,3322,3322,3322,3340,3340,3358,3358,3395,3452,3452,3531,3613,3613,3700,3767,3767,3862,3935,3935,3986,4065,4065,4092,4092,4092,4119,4119,4119,4119,4119,4119,4119,4119,4119,4119,4119,4119,4119,4119,4119,4119,4119,4119,4119,4119,4092,4092,4092,4092,4092,4092,4092,4092,4065,4065,4065,4038,4038,4038,4038,4038,4038,4038,4038,4038,4038,4038,4038,4038,4038,4038,4012,4012,4012,4012,4012,4012,4012,4012,4012,4012,4012,4012,4012,4012,4012,4012,4012,4012,4012,4012,4012,4038,4038,4038,4038,4065,4065,4065,4065,4092,4092,4092,4092,4119,4119,4119,4147,4147,4147,4175,4175,4175,4175,4175,4175,4175,4175,4175,4175,4203,4203,4175,4175,4175,4175,4175,4175,4175,4175,4147,4147,4147,4147,4147,4119,4119,4119,4119,4092,4092,4092,4092,4065,4065,4065,4065,4065,4065,4065,4065,4065,4065,4065,4065,4065,4065,4065,4092,4092,4092,4092,4092,4092,4119,4119,4119,4119,4119,4147,4119,4119,4147,4147,4147,4147,4147,4147,4147,4147,4147,4147,4147,4147,4147,4147,4147,4147,4147,4147,4147,4119,4119,4119,4119,4119,4119,4119,4147,4147,4147,4175,4175,4232,4261,4261,4291,4351,4351,4413,4413
0,0,0,0,0,0,0,0,0,0,0,0,0,0,0,0,0,0,0,0,0,0,0,0,0,0,0,0,0,0,0,0,0,0,0,0,0,0,0,0,0,0,0,0,0,0,0,0,0,0,0,0,0,0,0,0,0,0,0,0,0,0,0,0,0,2207,2207,2145,2145,2145,2145,2168,2168,2199,2223,2223,2263,2288,2288,2314,2340,2340,2367,2386,2386,2395,2395,2395,2395,2395,2386,2386,2386,2386,2376,2376,2376,2367,2367,2367,2367,2367,2367,2376,2376,2376,2376,2386,2386,2395,2395,2404,2433,2433,2442,2452,2452,2471,2491,2491,2501,2501,2512,2522,2522,2543,2564,2564,2585,2607,2607,2618,2618,2652,2698,2698,2746,2783,2783,2808,2834,2834,2874,2928,2928,2970,2970,3014,3029,3029,3044,3059,3059,3120,3185,3185,3235,3269,3269,3304,3304,3358,3414,3414,3433,3452,3452,3491,3511,3511,3531,3531,3551,3571,3571,3592,3613,3613,3656,3656,3678,3678,3678,3700,3722,3722,3722,3745,3745,3745,3745,3791,3814,3814,3838,3886,3886,3910,3910,3961,4012,4012,4065,4119,4119,4147,4203,4203,4291,4291,4321,4382,4382,4445,4477,4477,4543,4611,4611,4716,4716,4827,4943,4943,5064,5149,5149,5236,5326,5326,5420,5468,5468,5517,5517,5566,5617,5617,5668,5668,5668,5721,5721,5829,5884,5884,5941,6057,6057,6117,6179,6179,6241,6241,6305,6370,6370,6436,6573,6573,6573,6573,6644,6644,6644,6644,6644,6644,6644,6644,6716,6716,6644,6644,6644,6644,6644,6644,6644,6716,6716,6716,6716,6716,6790,6865,6865,6865,6865,6942,7021,7021,7021,7102,7021,7021,7021,7021,7021,6942,6942,6942,6790,6790,6716,6716,6716,6573,6573,6504,6370,6370,6305,6179,6179,6117,6117,6057,6057,6117,6117,6117,6179,6179,6241,6241,6305,6370,6370,6436,6573,6573,6644,6644,6644,6716,6716,6716,6716,6716,6644,6644,6644,6716,6716,6644,6644,6644,6644,6644,6573,6573,6504,6436,6436,6370,6370,6305,6305,6305,6241,6241,6241,6179,6179,6057,5999,5999,5941,5884,5884,5829,5829,5774,5566,5566,5373,5373,5192,4983,4983,4753,4753,4543,4291,4291,4119,4119,3935,3814,3814,3722,3722,3634,3551,3551,3491,3491,3433,3395,3395,3358,3358,3340,3322,3322,3286,3269,3269,3252,3252,3235,3235,3235,3218,3218,3201,3201,3201,3201,3218,3218,3218,3218,3235,3235,3235,3235,3304,3322,3322,3322,3340,3340,3358,3358,3395,3452,3452,3531,3613,3613,3700,3767,3767,3862,3935,3935,3986,4065,4065,4092,4092,4119,4119,4119,4119,4119,4119,4119,4119,4119,4119,4119,4119,4119,4119,4119,4119,4119,4119,4119,4092,4092,4092,4092,4092,4092,4092,4065,4065,4065,4065,4065,4065,4038,4038,4038,4038,4038,4038,4038,4038,4038,4038,4012,4012,4012,4012,4012,4012,4012,4012,4012,4012,4012,4012,4012,4012,4012,4012,4012,4012,4012,4012,4012,4012,4012,4038,4038,4038,4065,4065,4065,4065,4065,4092,4092,4092,4119,4119,4119,4119,4147,4147,4147,4147,4175,4175,4175,4175,4203,4203,4203,4203,4203,4203,4203,4203,4203,4203,4175,4175,4175,4175,4175,4175,4175,4175,4147,4147,4147,4147,4147,4119,4119,4119,4119,4092,4092,4092,4092,4065,4065,4065,4065,4065,4065,4065,4065,4065,4065,4065,4065,4065,4065,4065,4092,4092,4092,4092,4092,4092,4119,4119,4119,4119,4119,4147,4147,4147,4147,4147,4175,4175,4175,4175,4175,4175,4175,4175,4175,4175,4175,4175,4175,4175,4175,4175,4147,4147,4147,4147,4147,4147,4175,4175,4175,4175,4175,4203,4203,4261,4291,4291,4351,4382,4382,4445,4510
0,0,0,0,0,0,0,0,0,0,0,0,0,0,0,0,0,0,0,0,0,0,0,0,0,0,0,0,0,0,0,0,0,0,0,0,0,0,0,0,0,0,0,0,0,0,0,0,0,0,0,0,0,0,0,0,0,0,0,0,0,0,0,0,0,2207,2207,2145,2145,2145,2145,2168,2168,2199,2223,2223,2255,2272,2272,2305,2323,2323,2349,2367,2367,2386,2386,2395,2404,2404,2395,2395,2386,2386,2386,2386,2386,2386,2386,2386,2386,2386,2386,2386,2386,2386,2395,2414,2414,2423,2433,2433,2442,2442,2462,2462,2462,2481,2501,2501,2512,2522,2522,2532,2532,2553,2564,2564,2585,2596,2596,2618,2618,2640,2686,2686,2734,2771,2771,2808,2834,2834,2860,2914,2914,2956,2956,2999,3014,3014,3029,3059,3059,3105,3168,3168,3235,3269,3269,3304,3304,3358,3395,3395,3433,3471,3471,3511,3531,3531,3531,3531,3551,3571,3571,3571,3592,3592,3613,3613,3634,3656,3656,3656,3678,3678,3700,3722,3722,3722,3722,3767,3814,3814,3838,3886,3886,3910,3910,3961,4012,4012,4065,4119,4119,4175,4232,4232,4291,4351,4351,4445,4445,4510,4543,4543,4611,4681,4681,4790,4904,4904,4983,4983,5064,5192,5192,5281,5326,5326,5420,5468,5468,5517,5517,5566,5617,5617,5668,5668,5668,5721,5721,5829,5884,5884,5941,5999,5999,6117,6179,6179,6241,6241,6305,6370,6370,6436,6573,6573,6573,6573,6644,6644,6644,6716,6716,6716,6716,6716,6716,6790,6716,6716,6716,6644,6644,6716,6716,6716,6716,6716,6716,6716,6790,6790,6790,6865,6865,6942,6942,6942,7021,7102,7021,7021,7021,7021,7021,6942,6942,6942,6790,6790,6716,6716,6716,6573,6573,6504,6370,6370,6305,6179,6179,6117,6117,6057,6057,6117,6117,6117,6179,6179,6241,6241,6305,6370,6370,6436,6504,6504,6573,6573,6573,6573,6573,6573,6573,6573,6573,6573,6573,6644,6573,6573,6573,6573,6504,6504,6504,6504,6436,6436,6436,6370,6370,6305,6305,6305,6241,6241,6241,6179,6179,6117,6057,6057,6057,5999,5999,5999,5999,5884,5721,5721,5566,5566,5373,5149,5149,4904,4904,4681,4445,4445,4203,4203,4012,3862,3862,3745,3745,3656,3571,3571,3491,3491,3433,3395,3395,3358,3358,3340,3322,3322,3286,3269,3269,3252,3252,3235,3235,3235,3218,3218,3201,3201,3201,3201,3218,3218,3218,3218,3235,3235,3235,3235,3235,3235,3235,3252,3252,3252,3269,3269,3286,3322,3322,3395,3452,3452,3551,3656,3656,3745,3838,3838,3935,4012,4012,4092,4092,4119,4119,4119,4119,4119,4119,4119,4119,4119,4119,4119,4119,4119,4119,4119,4119,4119,4119,4092,4092,4092,4092,4092,4065,4065,4065,4065,4065,4065,4065,4065,4065,4038,4038,4038,4038,4038,4038,4038,4038,4038,4038,4012,4012,4012,4012,4012,4012,4012,4012,4012,4012,4012,4012,4012,4012,4012,4038,4038,4038,4038,4038,4038,4038,4038,4038,4038,4065,4092,4092,4092,4065,4065,4092,4092,4092,4119,4119,4119,4119,4147,4147,4147,4147,4175,4175,4175,4175,4203,4203,4203,4203,4203,4203,4203,4203,4203,4203,4175,4175,4175,4175,4175,4175,4175,4175,4147,4147,4147,4147,4147,4119,4119,4119,4119,4092,4092,4092,4092,4092,4092,4092,4065,4065,4065,4065,4092,4092,4092,4092,4092,4092,4092,4092,4092,4119,4119,4119,4119,4119,4119,4119,4147,4147,4147,4147,4147,4175,4175,4175,4175,4175,4175,4203,4203,4203,4203,4203,4203,4203,4203,4203,4203,4203,4203,4203,4175,4175,4175,4203,4175,4175,4175,4175,4175,4175,4175,4203,4203,4261,4291,4291,4351,4382,4382,4445,4510
0,0,0,0,0,0,0,0,0,0,0,0,0,0,0,0,0,0,0,0,0,0,0,0,0,0,0,0,0,0,0,0,0,0,0,0,0,0,0,0,0,0,0,0,0,0,0,0,0,0,0,0,0,0,0,0,0,0,0,0,0,0,0,0,0,0,0,2183,2168,2168,2168,2183,2199,2199,2223,2223,2255,2272,2272,2305,2323,2323,2349,2367,2367,2386,2386,2395,2404,2404,2395,2395,2386,2386,2386,2386,2386,2386,2386,2386,2386,2386,2386,2386,2386,2386,2395,2414,2414,2423,2433,2433,2442,2442,2462,2462,2462,2481,2501,2501,2512,2522,2522,2532,2532,2553,2564,2564,2585,2596,2596,2618,2618,2640,2686,2686,2734,2771,2771,2808,2821,2821,2860,2901,2901,2942,2942,2985,2999,2999,2999,3029,3029,3089,3168,3168,3235,3269,3269,3304,3304,3358,3395,3395,3452,3471,3471,3511,3531,3531,3531,3531,3551,3571,3571,3571,3592,3592,3613,3613,3634,3656,3656,3656,3678,3678,3700,3722,3722,3722,3722,3767,3791,3791,3838,3862,3862,3910,3910,3961,4012,4012,4065,4119,4119,4175,4232,4232,4291,4351,4351,4445,4445,4510,4543,4543,4611,4681,4681,4790,4904,4904,4983,4983,5064,5192,5192,5281,5373,5373,5468,5517,5517,5566,5566,5617,5668,5668,5721,5721,5721,5774,5774,5829,5884,5884,5941,5999,5999,6117,6179,6179,6241,6241,6305,6370,6370,6504,6573,6573,6573,6644,6644,6716,6716,6716,6790,6790,6790,6790,6790,6790,6790,6790,6790,6716,6716,6716,6716,6716,6716,6716,6716,6716,6790,6790,6790,6865,6865,6942,6942,6942,7021,7021,7021,7021,6942,6942,6942,6865,6865,6865,6790,6790,6716,6573,6573,6504,6504,6436,6370,6370,6305,6179,6179,6117,6117,6057,6057,6117,6117,6117,6179,6179,6241,6241,6305,6370,6370,6436,6504,6504,6573,6573,6573,6573,6573,6573,6573,6504,6504,6504,6504,6504,6504,6504,6504,6504,6504,6504,6436,6436,6436,6436,6436,6370,6370,6370,6305,6305,6241,6241,6241,6241,6241,6179,6179,6179,6179,6117,6117,6057,6057,6057,5829,5829,5617,5617,5420,5236,5236,5023,5023,4790,4543,4543,4321,4321,4012,3862,3862,3745,3745,3656,3571,3571,3491,3491,3414,3340,3340,3322,3322,3286,3286,3286,3269,3252,3252,3235,3235,3218,3201,3201,3185,3185,3185,3185,3185,3185,3185,3185,3185,3185,3185,3185,3185,3185,3168,3168,3168,3168,3168,3168,3168,3168,3185,3218,3218,3252,3304,3304,3414,3511,3511,3634,3745,3745,3862,3862,3961,4038,4038,4119,4119,4119,4119,4119,4119,4119,4119,4119,4119,4119,4119,4119,4119,4119,4119,4119,4119,4092,4092,4092,4092,4092,4065,4065,4065,4065,4065,4065,4065,4065,4065,4038,4038,4038,4038,4038,4038,4038,4038,4012,4012,4012,4012,4012,4012,4012,4012,4012,4012,4012,4012,4012,4012,4012,4012,4012,4038,4038,4038,4038,4038,4038,4038,4038,4038,4038,4065,4092,4092,4092,4092,4092,4119,4119,4119,4147,4147,4147,4147,4175,4175,4175,4175,4203,4203,4203,4203,4203,4203,4203,4203,4203,4203,4203,4203,4203,4203,4203,4203,4203,4203,4175,4175,4175,4175,4175,4147,4147,4147,4147,4119,4119,4119,4119,4119,4119,4092,4092,4092,4092,4092,4092,4092,4092,4092,4092,4119,4119,4119,4119,4119,4119,4092,4092,4119,4119,4119,4119,4119,4119,4119,4147,4147,4147,4147,4147,4175,4175,4175,4175,4175,4175,4203,4203,4203,4203,4203,4203,4203,4203,4203,4203,4203,4203,4203,4175,4175,4175,4203,4175,4175,4203,4203,4203,4203,4203,4232,4232,4261,4321,4321,4382,4413,4413,4477,4543
0,0,0,0,0,0,0,0,0,0,0,0,0,0,0,0,0,0,0,0,0,0,0,0,0,0,0,0,0,0,0,0,0,0,0,0,0,0,0,0,0,0,0,0,0,0,0,0,0,0,0,0,0,0,0,0,0,0,0,0,0,0,0,0,0,0,0,2183,2168,2168,2168,2183,2199,2199,2223,2223,2255,2272,2272,2297,2323,2323,2349,2367,2367,2386,2386,2395,2404,2404,2404,2404,2395,2395,2395,2395,2395,2395,2395,2404,2404,2414,2414,2414,2414,2414,2433,2442,2442,2452,2462,2462,2471,2471,2471,2481,2481,2501,2512,2512,2522,2532,2532,2532,2532,2553,2574,2574,2596,2607,2607,2618,2618,2652,2686,2686,2734,2783,2783,2808,2821,2821,2860,2901,2901,2942,2942,2985,2999,2999,2999,3029,3029,3089,3152,3152,3218,3252,3252,3286,3286,3340,3395,3395,3452,3471,3471,3491,3511,3511,3511,3511,3531,3551,3551,3551,3571,3571,3592,3613,3613,3613,3613,3634,3656,3656,3656,3678,3678,3700,3700,3745,3791,3791,3814,3862,3862,3910,3961,3961,3986,3986,4065,4119,4119,4175,4261,4261,4321,4382,4382,4477,4477,4543,4611,4611,4681,4753,4753,4865,4943,4943,5023,5023,5149,5236,5236,5326,5373,5373,5468,5517,5517,5566,5566,5617,5668,5668,5721,5721,5721,5774,5829,5829,5884,5884,5941,6057,6057,6117,6179,6179,6241,6241,6305,6370,6370,6504,6573,6573,6573,6644,6644,6716,6716,6716,6790,6790,6790,6790,6790,6790,6790,6790,6790,6716,6716,6716,6716,6716,6716,6716,6716,6716,6790,6790,6790,6865,6865,6942,6942,6942,7021,7021,6942,6942,6865,6865,6865,6865,6790,6790,6716,6716,6573,6573,6573,6436,6370,6370,6370,6370,6305,6179,6179,6179,6179,6117,6117,6117,6117,6179,6179,6179,6241,6241,6305,6370,6370,6504,6504,6504,6573,6573,6573,6573,6573,6573,6573,6504,6504,6504,6504,6504,6504,6504,6504,6504,6504,6504,6436,6436,6436,6370,6370,6370,6305,6305,6305,6305,6241,6241,6241,6241,6241,6179,6179,6179,6179,6117,6117,6057,6057,6057,5829,5829,5617,5517,5420,5236,5236,5023,4904,4790,4543,4543,4321,4321,4119,3935,3935,3791,3791,3656,3571,3571,3491,3491,3414,3340,3340,3322,3322,3269,3252,3252,3252,3235,3235,3218,3218,3201,3185,3185,3185,3185,3185,3185,3185,3185,3185,3185,3185,3185,3185,3185,3185,3185,3168,3168,3168,3168,3168,3168,3168,3168,3185,3218,3218,3252,3304,3304,3414,3511,3511,3634,3745,3745,3862,3862,3961,4038,4038,4119,4119,4119,4119,4119,4119,4119,4119,4119,4119,4119,4119,4119,4092,4092,4092,4092,4092,4092,4065,4065,4065,4065,4065,4065,4065,4065,4065,4065,4065,4065,4065,4038,4038,4038,4038,4038,4038,4038,4012,4012,4012,4012,4012,4012,4012,4012,4012,4012,4012,4012,4012,4038,4038,4038,4038,4038,4038,4038,4038,4038,4038,4065,4065,4065,4065,4065,4092,4119,4119,4119,4119,4119,4147,4147,4147,4175,4175,4175,4203,4203,4203,4203,4203,4203,4203,4232,4232,4232,4232,4232,4232,4232,4232,4232,4232,4203,4203,4203,4203,4203,4203,4175,4175,4175,4175,4175,4147,4147,4147,4147,4119,4119,4119,4119,4119,4119,4092,4092,4092,4092,4092,4092,4092,4092,4092,4092,4119,4119,4119,4119,4119,4119,4119,4147,4147,4147,4147,4147,4147,4147,4147,4175,4175,4175,4175,4175,4175,4175,4175,4203,4203,4203,4203,4203,4203,4203,4203,4203,4203,4203,4232,4232,4203,4203,4203,4203,4203,4203,4203,4203,4203,4232,4232,4232,4232,4232,4261,4261,4291,4351,4351,4413,4445,4445,4510,4611
0,0,0,0,0,0,0,0,0,0,0,0,0,0,0,0,0,0,0,0,0,0,0,0,0,0,0,0,0,0,0,0,0,0,0,0,0,0,0,0,0,0,0,0,0,0,0,0,0,0,0,0,0,0,0,0,0,0,0,0,0,2501,2501,2501,0,0,0,0,2191,2191,2191,2199,2207,2207,2231,2231,2255,2272,2272,2297,0,2349,2349,2367,2367,2386,2404,2404,2414,2414,2423,2423,2414,2414,2423,2423,2423,2423,2423,2433,2433,2433,2433,2433,2442,2442,2452,2471,2471,2471,2471,2471,2481,2481,2481,2481,2481,2501,2512,2512,2522,2522,2522,2522,2522,2543,2574,2574,2596,2607,2607,2618,2618,2652,2686,2686,2734,2783,2783,2808,2821,2821,2860,2901,2901,2942,2942,2970,2999,2999,2999,3029,3029,3074,3152,3152,3218,3252,3252,3286,3286,3340,3395,3395,3452,3471,3471,3471,3511,3511,3511,3511,3511,3511,3511,3531,3551,3551,3551,3551,3613,3613,3613,3634,3656,3656,3656,3678,3678,3700,3700,3745,3791,3791,3814,3862,3862,3910,3961,3961,3986,3986,4065,4119,4119,4175,4261,4261,4351,4413,4413,4510,4510,4611,4646,4646,4681,4753,4753,4865,4943,4943,5023,5023,5149,5236,5236,5326,5373,5373,5468,5517,5517,5566,5566,5617,5668,5668,5721,5721,5721,5774,5829,5829,5884,5884,5941,6057,6057,6117,6179,6179,6241,6241,6305,6370,6370,6504,6573,6573,6644,6716,6716,6716,6716,6790,6865,6865,6865,6865,6865,6865,6865,6790,6790,6790,6790,6790,6716,6716,6716,6790,6790,6790,6790,6790,6790,6865,6865,6942,6942,6942,7021,7021,6942,6942,6865,6865,6865,6865,6790,6790,6716,6716,6573,6573,6573,6436,6370,6370,6370,6370,6305,6179,6179,6179,6179,6117,6117,6117,6117,6179,6179,6179,6241,6241,6305,6370,6370,6504,6504,6504,6573,6573,6504,6504,6504,6436,6436,6436,6436,6436,6436,6436,6436,6436,6436,6436,6436,6436,6436,6436,6370,6370,6370,6370,6305,6305,6305,6305,6241,6241,6241,6241,6241,6241,6241,6241,6179,6179,6179,6117,6117,6117,5884,5884,5721,5517,5517,5326,5326,5149,4904,4904,4681,4681,4445,4445,4203,4038,4038,3862,3862,3722,3613,3613,3491,3491,3414,3358,3358,3322,3322,3269,3252,3252,3252,3235,3235,3218,3218,3201,3185,3185,3185,3168,3168,3152,3152,3152,3152,3152,3152,3152,3136,3136,3152,3136,3120,3120,3105,3105,3089,3089,3089,3089,3089,3120,3120,3152,3185,3185,3286,3286,3395,3511,3511,3634,3767,3767,3886,3986,3986,4065,4119,4119,4119,4119,4119,4119,4119,4119,4119,4119,4092,4092,4092,4092,4092,4065,4065,4065,4065,4065,4065,4065,4065,4065,4065,4065,4065,4065,4065,4065,4065,4038,4038,4038,4038,4038,4038,4038,4012,4012,4012,4012,4012,4012,4012,4012,4012,4012,4038,4038,4038,4038,4038,4038,4038,4038,4065,4065,4038,4038,4038,4065,4065,4065,4065,4065,4092,4119,4119,4119,4119,4119,4147,4147,4147,4175,4175,4175,4203,4203,4203,4203,4203,4203,4203,4232,4232,4232,4232,4232,4232,4232,4232,4232,4232,4232,4232,4232,4203,4203,4203,4203,4203,4175,4175,4175,4147,4147,4147,4147,4147,4147,4147,4119,4119,4119,4119,4119,4119,4119,4119,4119,4119,4147,4147,4147,4147,4147,4147,4147,4175,4175,4175,4175,4175,4175,4175,4175,4175,4175,4175,4175,4175,4175,4203,4203,4203,4203,4203,4203,4203,4203,4203,4203,4203,4203,4203,4203,4203,4203,4232,4232,4203,4203,4203,4203,4203,4203,4203,4203,4203,4232,4232,4232,4232,4232,4261,4261,4291,4351,4351,4413,4445,4445,4510,4611
0,0,0,0,0,0,0,0,0,0,0,0,0,0,0,0,0,0,0,0,0,0,0,0,0,0,0,0,0,0,0,0,0,0,0,0,0,0,0,0,0,0,0,0,0,0,0,0,0,0,0,0,0,0,0,0,0,0,0,0,0,2501,2501,2501,0,0,0,0,0,0,2231,2231,2239,2239,2247,2247,2263,2272,2272,2297,2323,2323,2349,2367,2367,2386,2404,2404,2414,2414,2423,2423,2414,2414,2423,2423,2423,2423,2423,2433,2433,2433,2433,2433,2442,2442,2452,2471,2471,2471,2471,2471,2481,2481,2481,2481,2481,2501,2512,2512,2522,2522,2522,2522,2522,2543,2574,2574,2596,2618,2618,2629,2652,2652,2698,2698,2746,2796,2796,2821,2834,2834,2860,2901,2901,2942,2970,2970,2999,2999,2999,3029,3029,3074,3152,3152,3218,3252,3252,3286,3286,3340,3395,3395,3452,3471,3471,3471,3511,3511,3511,3511,3511,3511,3511,3531,3551,3551,3551,3551,3571,3571,3571,3592,3613,3613,3613,3634,3634,3678,3678,3722,3767,3767,3791,3838,3838,3886,3935,3935,3986,3986,4065,4119,4119,4175,4261,4261,4351,4413,4413,4510,4510,4611,4646,4646,4716,4790,4790,4904,4983,4983,5106,5192,5192,5281,5281,5373,5420,5420,5517,5517,5517,5617,5617,5668,5721,5721,5721,5774,5774,5829,5884,5884,5941,5941,5999,6057,6057,6117,6179,6179,6241,6241,6305,6370,6370,6504,6644,6644,6716,6790,6790,6790,6790,6865,6865,6865,6942,6942,6942,6942,6942,6942,6942,6865,6865,6865,6716,6716,6716,6790,6790,6790,6790,6790,6790,6865,6865,6865,6942,6942,6865,6865,6865,6865,6865,6790,6790,6716,6716,6716,6573,6573,6573,6436,6436,6370,6370,6370,6370,6370,6305,6179,6179,6179,6179,6179,6179,6179,6179,6241,6241,6241,6370,6370,6370,6436,6436,6504,6504,6504,6504,6504,6436,6436,6436,6436,6436,6436,6436,6436,6436,6436,6436,6436,6436,6436,6436,6436,6436,6436,6370,6370,6370,6370,6305,6305,6305,6305,6305,6305,6305,6305,6305,6305,6241,6241,6241,6241,6241,6179,6117,6117,5941,5941,5721,5517,5517,5326,5326,5149,4904,4904,4681,4681,4445,4445,4203,4038,4038,3862,3862,3722,3613,3613,3491,3491,3414,3358,3358,3286,3286,3252,3235,3235,3218,3201,3201,3185,3185,3185,3168,3168,3152,3152,3152,3152,3152,3136,3120,3120,3120,3120,3120,3105,3105,3089,3074,3074,3059,3059,3029,3014,3014,3014,3014,3029,3029,3152,3185,3185,3286,3286,3395,3511,3511,3634,3767,3767,3886,3986,3986,4065,4119,4119,4119,4119,4119,4119,4119,4119,4119,4119,4092,4092,4092,4092,4092,4065,4065,4065,4065,4065,4065,4065,4065,4038,4038,4038,4038,4038,4038,4038,4038,4038,4038,4038,4012,4012,4012,4012,4012,4012,4012,3986,3986,3986,3986,4012,4012,4012,4038,4038,4038,4038,4038,4038,4038,4038,4065,4065,4065,4065,4065,4065,4065,4092,4092,4092,4119,4147,4147,4147,4147,4147,4175,4175,4175,4203,4203,4203,4203,4203,4232,4232,4232,4232,4232,4261,4261,4261,4261,4261,4261,4261,4232,4232,4232,4232,4232,4232,4203,4203,4203,4203,4203,4203,4203,4175,4175,4175,4175,4175,4175,4147,4147,4147,4147,4147,4147,4147,4147,4147,4147,4119,4119,4147,4147,4147,4147,4147,4147,4147,4175,4175,4175,4175,4175,4175,4175,4175,4175,4175,4175,4175,4175,4175,4203,4203,4203,4203,4203,4203,4203,4203,4203,4203,4203,4203,4203,4203,4232,4232,4232,4232,4232,4232,4232,4232,4232,4232,4232,4232,4232,4232,4232,4232,4261,4261,4291,4351,4351,4382,4382,4445,4510,4510,4543,4646
