0,0,0,0,0,0,0,0,0,0,0,0,0,0,0,0,0,0,0,0,0,0,0,0,0,0,0,0,0,0,0,0,0,0,0,0,0,0,0,0,0,0,0,0,0,0,0,0,0,0,0,0,0,0,0,0,0,0,0,0,0,0,0,0,0,0,0,0,0,0,0,0,0,0,0,0,0,0,0,0,0,0,0,0,0,0,0,0,0,0,0,0,0,0,0,0,0,0,0,0,0,0,0,0,0,0,0,0,0,0,0,0,0,0,0,0,0,0,0,0,0,0,0,0,0,0,0,0,0,0,0,0,0,0,0,0,0,0,0,0,0,0,0,0,0,0,0,0,0,0,0,0,0,0,0,0,0,0,0,0,0,0,0,0,0,0,0,0,0,0,0,0,0,0,0,0,0,0,0,0,0,0,0,0,0,0,0,0,0,0,0,0,0,0,0,0,0,0,0,2734,2734,2734,2758,2758,2771,2771,2771,2796,2796,2796,2796,2796,2808,2821,2821,2834,2847,2847,2847,2874,2874,2914,2914,2942,2970,2970,2999,3044,3044,3044,3059,3059,3074,3074,3059,3059,3059,3074,3105,3105,3120,3120,3136,3152,3152,3185,3218,3218,3252,3286,3286,3322,3322,3340,3358,3358,3358,3376,3340,3340,3340,3340,3358,3358,3358,3358,3340,3340,3322,3286,3286,3252,3201,3201,3152,3152,3105,3074,3074,3059,3059,3029,3029,3044,3014,3014,3014,3014,3014,3014,3014,3014,3014,3029,3044,3044,3044,3044,3044,3059,3059,3074,3089,3089,3089,3089,3089,3089,3089,3089,3089,3089,3089,3074,3074,3074,3074,3074,3074,3074,3074,3074,3074,3120,3120,3136,3152,3152,3168,3185,3185,3201,3201,3218,3235,3235,3235,3252,3252,3252,3252,3252,3252,3252,3252,3252,3252,3252,3252,3252,3269,3269,3269,3269,3269,3269,3269,3269,3269,3269,3252,3252,3252,3252,3235,3218,3218,3201,3185,3185,3185,3185,3168,3152,3152,3136,3136,3136,3120,3120,3120,3120,3120,3120,3120,3120,3120,3136,3136,3136,3136,3136,3152,3152,3152,3152,3136,3136,3152,3152,3152,3168,3168,3168,3168,3185,3185,3185,3185,3185,3185,3185,3185,3168,3168,3136,3105,3105,3089,3089,3074,3074,3074,3044,3044,3044,3014,3014,2999,2985,2985,2970,2970,2942,2942,2942,2928,2914,2914,2901,2901,2887,2874,2874,2860,2847,2847,2834,2834,2821,2808,2808,2796,2796,2796,2796,2808,2808,2808,2808,2808,2821,2834,2834,2834,2834,2847,2847,2847,2834,2834,2834,2834,2821,2796,2796,2771,2771,2758,2746,2746,2722,2722,2722,2710,2710,2686,2686,2686,2686,2710,2710,2710,2722,2722,2734,2734,2734,2734,2734,2734,2734,2722,2710,2710,2698,2675,2675,2652,2652,2618,2585,2585,2553,2553,2522,2491,2491,2462,2462,2433,2404,2404,2386,2358,2358,2340,2340,2323,2314,2314,2297,2297,2280,2272,2272,2239,2223,2223,2199,2199,2183,2168,2168,2145,2145,2131,2116,2116,2094,2094,2080,2066,2066,2046,2026,2026,2013,2013,1993,1968,1968,1949,1949,1937,1925,1925,1913,1913,1901,1889,1889,1878,1867,1867,1855,1855,1844,1833,1833,1823,1823,1807,1791,1791,1775,1775,1755,1736,1736,1716,1697,1697,1679,1679,1661,1648,1648,1630,1630,1617,1605,1605,1605,1605,1601,1601,1601,1597,1597,1597,1597,1601,1601,1601,1601,1601,1601,1601,1601,1605,1605,1609,1622,1622,1648,1679,1679,1712,1750,1750,1791,1807,1807,1828,1839,1839,1823,1823,1801
0,0,0,0,0,0,0,0,0,0,0,0,0,0,0,0,0,0,0,0,0,0,0,0,0,0,0,0,0,0,0,0,0,0,0,0,0,0,0,0,0,0,0,0,0,0,0,0,0,0,0,0,0,0,0,0,0,0,0,0,0,0,0,0,0,0,0,0,0,0,0,0,0,0,0,0,0,0,0,0,0,0,0,0,0,0,0,0,0,0,0,0,0,0,0,0,0,0,0,0,0,0,0,0,0,0,0,0,0,0,0,0,0,0,0,0,0,0,0,0,0,0,0,0,0,0,0,0,0,0,0,0,0,0,0,0,0,0,0,0,0,0,0,0,0,0,0,0,0,0,0,0,0,0,0,0,0,0,0,0,0,0,0,0,0,0,0,0,0,0,0,0,0,0,0,0,0,0,0,0,0,0,0,0,0,0,0,0,0,0,0,0,0,0,0,0,0,0,0,2734,2734,2734,2758,2758,2771,2771,2771,2796,2796,2796,2796,2796,2808,2821,2821,2834,2847,2847,2847,2874,2874,2914,2914,2928,2956,2956,2985,3014,3014,3044,3059,3059,3059,3044,3044,3059,3059,3074,3089,3089,3089,3089,3105,3136,3136,3152,3201,3201,3235,3269,3269,3286,3286,3304,3322,3322,3340,3358,3358,3358,3358,3358,3358,3358,3358,3358,3322,3322,3304,3252,3252,3218,3168,3168,3105,3105,3074,3044,3044,3014,3014,3014,2999,2999,2999,3014,3014,3014,3014,3014,3014,3014,3014,3029,3044,3044,3044,3044,3044,3059,3059,3074,3089,3089,3089,3089,3089,3089,3089,3089,3089,3089,3089,3074,3074,3074,3074,3074,3074,3074,3074,3074,3074,3074,3074,3074,3074,3074,3089,3105,3074,3074,3074,3089,3105,3105,3120,3120,3120,3120,3120,3120,3120,3120,3120,3136,3136,3152,3152,3168,3168,3168,3185,3201,3201,3201,3201,3201,3201,3185,3185,3185,3168,3168,3152,3152,3152,3136,3120,3120,3120,3136,3120,3120,3120,3120,3120,3120,3105,3105,3105,3105,3105,3105,3105,3120,3120,3136,3136,3136,3136,3136,3152,3152,3152,3152,3136,3136,3152,3152,3152,3168,3168,3168,3168,3185,3185,3185,3185,3185,3185,3185,3185,3168,3168,3136,3105,3105,3089,3089,3074,3059,3059,3029,3029,3029,3014,3014,2985,2970,2970,2956,2956,2942,2928,2928,2914,2901,2901,2887,2887,2874,2860,2860,2860,2847,2847,2834,2834,2821,2808,2808,2796,2796,2796,2796,2796,2796,2808,2808,2808,2808,2821,2821,2834,2834,2834,2834,2821,2821,2821,2821,2821,2808,2783,2783,2771,2758,2758,2734,2734,2722,2722,2722,2722,2722,2710,2698,2698,2698,2710,2722,2722,2734,2734,2746,2746,2734,2734,2746,2734,2734,2722,2710,2710,2698,2675,2675,2652,2652,2618,2585,2585,2553,2553,2522,2491,2491,2462,2462,2433,2404,2404,2386,2358,2358,2340,2340,2323,2314,2314,2297,2297,2280,2272,2272,2239,2223,2223,2199,2199,2183,2168,2168,2145,2145,2131,2116,2116,2094,2094,2080,2066,2066,2046,2026,2026,2013,2013,1993,1968,1968,1949,1949,1937,1925,1925,1913,1907,1901,1889,1889,1878,1867,1867,1855,1855,1850,1833,1833,1823,1823,1807,1791,1791,1775,1775,1755,1740,1740,1716,1697,1697,1679,1679,1661,1648,1648,1630,1630,1617,1605,1605,1605,1605,1601,1601,1601,1601,1597,1597,1597,1601,1601,1601,1601,1601,1601,1601,1601,1605,1605,1605,1622,1622,1648,1679,1679,1712,1750,1750,1791,1807,1807,1828,1833,1833,1817,1817,1796
0,0,0,0,0,0,0,0,0,0,0,0,0,0,0,0,0,0,0,0,0,0,0,0,0,0,0,0,0,0,0,0,0,0,0,0,0,0,0,0,0,0,0,0,0,0,0,0,0,0,0,0,0,0,0,0,0,0,0,0,0,0,0,0,0,0,0,0,0,0,0,0,0,0,0,0,0,0,0,0,0,0,0,0,0,0,0,0,0,0,0,0,0,0,0,0,0,0,0,0,0,0,0,0,0,0,0,0,0,0,0,0,0,0,0,0,0,0,0,0,0,0,0,0,0,0,0,0,0,0,0,0,0,0,0,0,0,0,0,0,0,0,0,0,0,0,0,0,0,0,0,0,0,0,0,0,0,0,0,0,0,0,0,0,0,0,0,0,0,0,0,0,0,0,0,0,0,0,0,0,0,0,0,0,0,0,0,0,0,0,0,0,0,0,0,0,0,0,0,2722,2722,2722,2746,2746,2758,2758,2758,2783,2783,2783,2796,2796,2808,2821,2821,2834,2847,2847,2847,2874,2874,2887,2887,2914,2942,2942,2970,2985,2985,2999,3014,3014,3014,3014,3014,3029,3029,3044,3044,3044,3059,3059,3074,3105,3105,3136,3168,3168,3235,3269,3269,3286,3286,3304,3322,3322,3340,3358,3358,3358,3358,3358,3358,3358,3358,3358,3322,3322,3304,3252,3252,3218,3168,3168,3105,3105,3074,3044,3044,3014,3014,3014,2999,2999,2985,2985,2985,2985,2985,2985,2999,2999,2999,2999,3014,3014,3014,3014,3014,3029,3029,3029,3044,3044,3074,3074,3074,3074,3074,3074,3074,3074,3074,3059,3059,3059,3059,3029,3029,3029,3029,3014,2999,2999,2999,3014,3014,2985,2985,2985,2999,3014,3014,3014,3029,3029,3044,3044,3044,3059,3059,3059,3089,3089,3105,3105,3105,3152,3152,3168,3168,3168,3185,3201,3201,3201,3201,3201,3201,3185,3185,3185,3168,3168,3152,3152,3152,3136,3120,3120,3120,3136,3120,3120,3120,3120,3120,3120,3105,3105,3105,3105,3105,3105,3105,3120,3120,3120,3120,3136,3136,3136,3136,3136,3136,3136,3120,3120,3120,3120,3120,3136,3136,3136,3136,3136,3152,3152,3152,3152,3152,3152,3152,3136,3136,3120,3089,3089,3074,3074,3059,3044,3044,3029,2999,2999,2985,2985,2970,2956,2956,2928,2928,2914,2901,2901,2901,2887,2887,2874,2874,2860,2860,2860,2847,2847,2847,2834,2834,2821,2808,2808,2796,2796,2796,2796,2796,2796,2808,2808,2808,2808,2821,2821,2834,2834,2834,2834,2821,2821,2821,2821,2821,2808,2783,2783,2771,2758,2758,2734,2734,2722,2722,2722,2722,2722,2710,2698,2698,2698,2710,2722,2722,2734,2734,2746,2746,2734,2734,2734,2722,2722,2722,2698,2698,2686,2663,2663,2629,2629,2607,2574,2574,2553,2553,2522,2491,2491,2462,2433,2433,2404,2404,2376,2358,2358,2340,2340,2323,2305,2305,2297,2297,2280,2263,2263,2239,2215,2215,2199,2199,2183,2160,2160,2145,2145,2131,2116,2116,2102,2102,2080,2066,2066,2046,2032,2032,2019,2019,2000,1974,1974,1955,1955,1937,1925,1925,1913,1907,1907,1895,1895,1878,1867,1867,1861,1861,1850,1833,1833,1823,1823,1807,1791,1791,1775,1760,1755,1740,1740,1716,1697,1697,1679,1679,1661,1648,1648,1630,1630,1617,1605,1605,1605,1605,1601,1597,1597,1597,1597,1597,1597,1601,1601,1601,1601,1601,1601,1601,1601,1605,1605,1605,1622,1622,1652,1684,1684,1716,1755,1755,1791,1812,1812,1828,1833,1828,1812,1812,1791
0,0,0,0,0,0,0,0,0,0,0,0,0,0,0,0,0,0,0,0,0,0,0,0,0,0,0,0,0,0,0,0,0,0,0,0,0,0,0,0,0,0,0,0,0,0,0,0,0,0,0,0,0,0,0,0,0,0,0,0,0,0,0,0,0,0,0,0,0,0,0,0,0,0,0,0,0,0,0,0,0,0,0,0,0,0,0,0,0,0,0,0,0,0,0,0,0,0,0,0,0,0,0,0,0,0,0,0,0,0,0,0,0,0,0,0,0,0,0,0,0,0,0,0,0,0,0,0,0,0,0,0,0,0,0,0,0,0,0,0,0,0,0,0,0,0,0,0,0,0,0,0,0,0,0,0,0,0,0,0,0,0,0,0,0,0,0,0,0,0,0,0,0,0,0,0,0,0,0,0,0,0,0,0,0,0,0,0,0,0,0,0,0,0,0,2698,2698,0,2710,2710,2722,2722,2734,2734,2746,2758,2758,2771,2771,2771,2783,2808,2808,2821,2821,2834,2847,2847,2847,2874,2874,2887,2887,2914,2942,2942,2970,2985,2985,2999,3014,3014,3014,3014,3014,3029,3029,3044,3044,3044,3059,3059,3074,3105,3105,3136,3168,3168,3201,3218,3218,3252,3252,3286,3304,3304,3322,3322,3322,3340,3340,3340,3340,3322,3304,3304,3269,3269,3252,3218,3218,3218,3136,3136,3074,3074,3044,3029,3029,2999,2999,2985,2985,2985,2985,2985,2985,2970,2970,2970,2970,2970,2970,2985,2999,2985,2985,2985,2999,3014,3014,3014,3029,3029,3029,3029,3059,3059,3059,3059,3074,3074,3074,3059,3059,3059,3059,3029,3029,3029,3029,3014,2999,2999,2999,3014,3014,2985,2985,2985,2999,3014,3014,3014,3029,3029,3044,3044,3044,3059,3059,3059,3089,3089,3105,3105,3105,3105,3105,3136,3136,3136,3136,3152,3152,3168,3152,3152,3152,3136,3136,3136,3120,3120,3105,3089,3089,3089,3074,3074,3074,3089,3089,3089,3089,3074,3074,3074,3074,3074,3074,3089,3089,3089,3089,3089,3089,3089,3089,3105,3105,3105,3105,3105,3105,3105,3105,3105,3105,3105,3105,3105,3105,3105,3105,3105,3120,3120,3120,3152,3152,3152,3152,3136,3136,3120,3089,3089,3074,3074,3059,3044,3044,3029,2999,2999,2985,2985,2970,2956,2956,2928,2928,2914,2901,2901,2901,2887,2887,2874,2874,2860,2860,2860,2847,2834,2834,2821,2821,2808,2796,2796,2796,2783,2783,2783,2783,2783,2783,2783,2783,2796,2808,2808,2821,2821,2821,2821,2808,2808,2808,2796,2796,2783,2771,2771,2746,2734,2734,2734,2734,2722,2710,2710,2710,2710,2710,2710,2710,2710,2722,2722,2722,2734,2746,2746,2746,2734,2734,2734,2722,2710,2710,2686,2686,2663,2652,2652,2629,2629,2607,2574,2574,2553,2553,2522,2491,2491,2462,2433,2433,2404,2404,2376,2358,2358,2340,2340,2323,2305,2305,2297,2297,2280,2263,2263,2239,2215,2215,2199,2199,2183,2160,2160,2145,2145,2131,2116,2116,2102,2087,2080,2066,2066,2046,2032,2032,2019,2019,2000,1974,1974,1955,1955,1937,1925,1925,1913,1907,1907,1895,1895,1878,1867,1867,1861,1861,1850,1833,1833,1823,1823,1807,1791,1791,1775,1760,1760,1740,1740,1716,1697,1697,1679,1679,1661,1648,1648,1630,1630,1617,1609,1609,1605,1605,1601,1597,1597,1597,1597,1597,1597,1601,1601,1601,1601,1601,1601,1601,1601,1605,1605,1605,1626,1626,1656,1684,1684,1721,1755,1755,1791,1812,1812,1828,1833,1828,1812,1812,1791
0,0,0,0,0,0,0,0,0,0,0,0,0,0,0,0,0,0,0,0,0,0,0,0,0,0,0,0,0,0,0,0,0,0,0,0,0,0,0,0,0,0,0,0,0,0,0,0,0,0,0,0,0,0,0,0,0,0,0,0,0,0,0,0,0,0,0,0,0,0,0,0,0,0,0,0,0,0,0,0,0,0,0,0,0,0,0,0,0,0,0,0,0,0,0,0,0,0,0,0,0,0,0,0,0,0,0,0,0,0,0,0,0,0,0,0,0,0,0,0,0,0,0,0,0,0,0,0,0,0,0,0,0,0,0,0,0,0,0,0,0,0,0,0,0,0,0,0,0,0,0,0,0,0,0,0,0,0,0,0,0,0,0,0,0,0,0,0,0,0,0,0,0,0,0,0,0,0,0,0,0,0,0,0,0,0,0,0,0,0,0,0,0,0,0,2698,2698,0,2710,2710,2722,2722,2734,2734,2746,2758,2758,2771,2771,2771,2783,2783,2783,2808,2808,2821,2821,2821,2834,2860,2860,2874,2874,2901,2914,2914,2942,2956,2956,2970,2970,2970,2970,2970,2985,2985,2985,2999,3014,3014,3029,3029,3044,3074,3074,3105,3136,3136,3168,3218,3218,3235,3235,3252,3286,3286,3304,3304,3304,3322,3322,3304,3304,3286,3286,3286,3252,3252,3235,3185,3185,3152,3136,3136,3074,3074,3044,3029,3029,2999,2999,2985,2985,2985,2985,2985,2985,2970,2970,2970,2970,2970,2970,2985,2999,2985,2985,2985,2999,3014,3014,3014,3029,3029,3029,3029,3059,3059,3059,3059,3059,3044,3044,3044,3044,3044,3029,3014,3014,2999,2999,2985,2970,2970,2956,2942,2942,2942,2942,2942,2956,2956,2956,2956,2970,2970,2985,2985,2999,2999,2999,3029,3044,3044,3059,3059,3059,3059,3059,3089,3089,3089,3089,3105,3105,3105,3089,3089,3105,3089,3074,3074,3059,3059,3044,3044,3044,3029,3029,3029,3014,3014,3014,3089,3089,3074,3074,3074,3074,3074,3074,3089,3089,3089,3089,3089,3089,3089,3089,3105,3105,3105,3105,3105,3105,3105,3105,3105,3105,3105,3105,3105,3105,3105,3105,3105,3120,3120,3120,3120,3120,3120,3105,3089,3089,3059,3029,3029,3014,3014,2999,2985,2985,2956,2956,2956,2942,2942,2928,2901,2901,2887,2887,2874,2874,2874,2860,2847,2847,2834,2834,2821,2808,2808,2808,2796,2796,2783,2783,2771,2771,2771,2758,2758,2771,2771,2771,2771,2771,2771,2771,2783,2796,2796,2796,2796,2796,2796,2796,2783,2783,2783,2796,2783,2771,2771,2746,2734,2734,2734,2734,2722,2710,2710,2710,2710,2710,2710,2710,2710,2722,2722,2722,2734,2746,2746,2746,2734,2734,2734,2722,2710,2710,2686,2686,2663,2652,2652,2618,2618,2596,2574,2574,2543,2543,2512,2491,2491,2462,2433,2433,2404,2404,2376,2358,2358,2332,2332,2314,2305,2305,2288,2288,2272,2255,2255,2239,2215,2215,2199,2199,2176,2160,2160,2145,2145,2131,2116,2116,2102,2087,2087,2066,2066,2053,2039,2039,2019,2019,2000,1974,1974,1955,1955,1937,1925,1925,1913,1907,1907,1895,1895,1878,1867,1867,1861,1861,1850,1833,1833,1823,1823,1807,1791,1791,1775,1760,1760,1740,1740,1716,1697,1697,1679,1679,1661,1648,1648,1630,1630,1617,1609,1609,1605,1605,1601,1597,1597,1597,1597,1597,1597,1601,1601,1601,1601,1601,1601,1601,1601,1601,1605,1605,1626,1626,1656,1684,1684,1721,1755,1755,1791,1812,1812,1828,1833,1823,1801,1801,1786
0,0,0,0,0,0,0,0,0,0,0,0,0,0,0,0,0,0,0,0,0,0,0,0,0,0,0,0,0,0,0,0,0,0,0,0,0,0,0,0,0,0,0,0,0,0,0,0,0,0,0,0,0,0,0,0,0,0,0,0,0,0,0,0,0,0,0,0,0,0,0,0,0,0,0,0,0,0,0,0,0,0,0,0,0,0,0,0,0,0,0,0,0,0,0,0,0,0,0,0,0,0,0,0,0,0,0,0,0,0,0,0,0,0,0,0,0,0,0,0,0,0,0,0,0,0,0,0,0,0,0,0,0,0,0,0,0,0,0,0,0,0,0,0,0,0,0,0,0,0,0,0,0,0,0,0,0,0,0,0,0,0,0,0,0,0,0,0,0,0,0,0,0,0,0,0,0,0,0,0,0,0,0,0,0,0,0,0,0,0,0,0,0,0,0,2698,2698,0,2698,2698,2710,2710,2722,2722,2734,2746,2746,2758,2758,2758,2771,2783,2783,2796,2796,2808,2808,2808,2821,2847,2847,2874,2874,2887,2901,2901,2928,2942,2942,2956,2956,2956,2956,2956,2956,2970,2970,2999,3014,3014,3029,3029,3044,3074,3074,3105,3136,3136,3168,3218,3218,3235,3235,3252,3286,3286,3304,3304,3304,3322,3322,3304,3304,3286,3286,3286,3252,3252,3235,3185,3185,3152,3105,3105,3059,3059,3014,2999,2999,2985,2985,2970,2970,2970,2956,2956,2956,2956,2956,2956,2956,2956,2956,2970,2970,2970,2985,2985,2985,2999,2999,3014,3029,3029,3029,3029,3029,3029,3029,3029,3029,3014,3014,3014,2999,2999,2985,2970,2970,2956,2956,2928,2928,2928,2914,2914,2914,2901,2901,2901,2901,2901,2901,2901,2928,2928,2985,2985,2999,2999,2999,3029,3044,3044,3059,3059,3059,3059,3059,3089,3089,3089,3089,3105,3105,3105,3089,3089,3105,3089,3074,3074,3059,3059,3044,3044,3044,3029,3029,3029,3014,3014,3014,3029,3044,3044,3044,3044,3044,3059,3059,3059,3059,3059,3059,3059,3059,3074,3074,3074,3089,3089,3089,3089,3074,3074,3074,3074,3074,3059,3059,3059,3059,3059,3059,3059,3059,3059,3059,3059,3044,3044,3014,3014,3014,2999,2970,2970,2970,2970,2942,2928,2928,2914,2914,2914,2901,2901,2901,2887,2887,2874,2874,2860,2860,2874,2860,2847,2847,2834,2834,2821,2808,2808,2808,2796,2796,2783,2783,2771,2771,2771,2758,2758,2771,2771,2771,2771,2771,2771,2771,2783,2796,2796,2796,2796,2796,2796,2796,2783,2783,2771,2771,2771,2746,2746,2734,2722,2722,2710,2710,2710,2698,2698,2698,2698,2698,2698,2698,2698,2710,2710,2710,2722,2734,2722,2722,2710,2698,2698,2698,2698,2675,2663,2663,2652,2629,2629,2607,2607,2585,2564,2564,2543,2543,2512,2481,2481,2452,2433,2433,2404,2404,2376,2349,2349,2332,2332,2314,2297,2297,2288,2288,2272,2255,2255,2239,2215,2215,2199,2199,2176,2160,2160,2145,2145,2131,2116,2116,2102,2087,2087,2073,2073,2053,2039,2039,2026,2026,2000,1980,1980,1955,1955,1943,1925,1925,1913,1907,1907,1889,1889,1878,1867,1867,1855,1855,1850,1833,1833,1823,1807,1807,1791,1791,1775,1755,1755,1740,1740,1716,1697,1697,1679,1679,1661,1648,1648,1630,1630,1617,1609,1609,1605,1605,1601,1597,1597,1597,1597,1597,1597,1597,1597,1597,1597,1597,1597,1601,1601,1601,1605,1605,1626,1626,1656,1688,1688,1721,1755,1755,1791,1812,1812,1828,1833,1823,1801,1801,1786
0,0,0,0,0,0,0,0,0,0,0,0,0,0,0,0,0,0,0,0,0,0,0,0,0,0,0,0,0,0,0,0,0,0,0,0,0,0,0,0,0,0,0,0,0,0,0,0,0,0,0,0,0,0,0,0,0,0,0,0,0,0,0,0,0,0,0,0,0,0,0,0,0,0,0,0,0,0,0,0,0,0,0,0,0,0,0,0,0,0,0,0,0,0,0,0,0,0,0,0,0,0,0,0,0,0,0,0,0,0,0,0,0,0,0,0,0,0,0,0,0,0,0,0,0,0,0,0,0,0,0,0,0,0,0,0,0,0,0,0,0,0,0,0,0,0,0,0,0,0,0,0,0,0,0,0,0,0,0,0,0,0,0,0,0,0,0,0,0,0,0,0,0,0,0,0,0,0,0,0,0,0,0,0,0,0,0,0,0,0,0,0,0,0,0,2686,2686,2686,2686,2698,2710,2710,2722,2722,2734,2746,2746,2758,2758,2758,2771,2783,2783,2796,2796,2808,2808,2808,2821,2847,2847,2874,2874,2887,2901,2901,2928,2942,2942,2956,2956,2956,2956,2956,2956,2970,2970,2999,2999,2999,3014,3014,3044,3074,3074,3105,3136,3136,3168,3201,3201,3235,3235,3252,3269,3269,3286,3304,3304,3304,3304,3304,3304,3286,3286,3286,3252,3252,3218,3168,3168,3136,3089,3089,3044,3044,3014,2985,2985,2970,2970,2956,2942,2942,2942,2942,2942,2942,2942,2942,2942,2956,2956,2956,2956,2956,2970,2970,2985,2999,2999,3014,3029,3029,3029,3029,3029,3029,3029,3029,3029,3014,3014,3014,2999,2999,2985,2970,2970,2956,2956,2928,2928,2928,2914,2914,2914,2901,2901,2901,2901,2901,2901,2901,2928,2914,2914,2914,2942,2942,2942,2956,2970,2970,2985,2985,2985,2999,2999,3014,3029,3029,3029,3044,3044,3059,3059,3059,3059,3044,3044,3044,3029,3029,3014,3014,3014,3014,3029,3029,3014,3014,3014,3029,3044,3044,3044,3044,3044,3059,3059,3059,3059,3059,3059,3059,3059,3074,3074,3074,3089,3089,3089,3089,3074,3074,3074,3074,3074,3059,3059,3059,3059,3059,3059,3059,3059,3059,3059,3059,3044,3044,3014,3014,3014,2999,2970,2970,2970,2970,2942,2928,2928,2914,2914,2914,2901,2901,2901,2887,2887,2874,2874,2860,2847,2847,2834,2834,2834,2808,2808,2796,2783,2783,2783,2771,2771,2771,2771,2758,2746,2746,2746,2746,2746,2746,2758,2746,2746,2746,2746,2771,2771,2771,2771,2771,2771,2771,2771,2758,2758,2758,2758,2758,2734,2734,2722,2710,2710,2710,2710,2698,2698,2698,2686,2686,2686,2686,2686,2686,2698,2698,2698,2698,2698,2698,2722,2710,2698,2698,2698,2698,2675,2663,2663,2652,2629,2629,2607,2607,2585,2564,2564,2543,2543,2512,2481,2481,2452,2433,2433,2404,2404,2376,2349,2349,2332,2332,2314,2297,2297,2288,2272,2272,2255,2255,2231,2215,2215,2191,2191,2176,2160,2160,2138,2138,2131,2116,2116,2102,2087,2087,2073,2073,2053,2039,2039,2026,2026,2000,1980,1980,1955,1955,1943,1925,1925,1913,1901,1901,1889,1889,1878,1867,1867,1855,1855,1844,1833,1833,1823,1807,1807,1791,1791,1775,1755,1755,1740,1740,1721,1697,1697,1679,1679,1665,1648,1648,1635,1635,1622,1609,1609,1605,1605,1601,1597,1597,1597,1597,1597,1597,1597,1597,1597,1597,1597,1597,1601,1601,1601,1605,1605,1626,1626,1656,1688,1688,1721,1755,1755,1791,1812,1812,1828,1828,1817,1801,1801,1781
0,0,0,0,0,0,0,0,0,0,0,0,0,0,0,0,0,0,0,0,0,0,0,0,0,0,0,0,0,0,0,0,0,0,0,0,0,0,0,0,0,0,0,0,0,0,0,0,0,0,0,0,0,0,0,0,0,0,0,0,0,0,0,0,0,0,0,0,0,0,0,0,0,0,0,0,0,0,0,0,0,0,0,0,0,0,0,0,0,0,0,0,0,0,0,0,0,0,0,0,0,0,0,0,0,0,0,0,0,0,0,0,0,0,0,0,0,0,0,0,0,0,0,0,0,0,0,0,0,0,0,0,0,0,0,0,0,0,0,0,0,0,0,0,0,0,0,0,0,0,0,0,0,0,0,0,0,0,0,0,0,0,0,0,0,0,0,0,0,0,0,0,0,0,0,0,0,0,0,0,0,0,0,0,0,0,0,0,0,0,0,0,0,0,0,2686,2686,2686,2686,2686,2698,2698,2710,2710,2722,2722,2722,2734,2746,2746,2758,2771,2771,2796,2796,2808,2808,2808,2821,2834,2834,2860,2860,2874,2887,2887,2901,2914,2914,2914,2928,2928,2928,2928,2942,2956,2956,2970,2970,2970,2999,2999,3014,3044,3044,3074,3105,3105,3136,3168,3168,3185,3185,3218,3235,3235,3235,3269,3252,3252,3269,3269,3304,3304,3286,3286,3252,3252,3218,3168,3168,3136,3089,3089,3044,3044,3014,2985,2985,2970,2970,2956,2942,2942,2942,2942,2942,2942,2942,2942,2942,2956,2956,2956,2956,2956,2970,2970,2970,2985,2985,2999,2999,2999,3014,3014,3014,3029,3014,3014,3014,3014,3014,2999,2985,2985,2970,2970,2970,2942,2942,2914,2914,2914,2901,2901,2901,2887,2887,2874,2874,2887,2887,2887,2887,2887,2887,2887,2901,2914,2914,2928,2928,2928,2942,2942,2942,2956,2956,2985,2999,2999,3014,3014,3014,3029,3014,3014,3014,3014,3044,3044,3029,3029,3014,3014,3014,3014,0,0,0,0,0,0,0,0,0,0,0,0,0,0,0,0,0,0,0,0,0,0,0,0,0,0,0,0,3074,3074,3074,3059,3059,3059,3029,3029,3029,3029,3029,3029,3059,3059,3014,3014,3014,2999,2999,2970,2956,2956,2942,2942,2928,2914,2914,2901,2901,2901,2887,2887,2887,2874,2874,2860,2860,2847,2834,2834,2821,2808,2808,2808,2808,2796,2783,2783,2771,2771,2771,2758,2758,2746,2746,2746,2734,2734,2734,2734,2746,2746,2746,2746,2746,2771,2771,2771,2771,2771,2771,2771,2771,2758,2758,2758,2758,2758,2734,2734,2722,2710,2710,2710,2710,2698,2698,2698,2686,2686,2686,2686,2686,2686,2698,2698,2698,2698,2698,2698,2698,2698,2686,2686,2675,2675,2663,2652,2652,2629,2618,2618,2585,2585,2574,2553,2553,2532,2532,2501,2481,2481,2452,2433,2433,2404,2404,2376,2349,2349,2323,2323,2305,2297,2297,2280,2272,2272,2247,2247,2231,2207,2207,2191,2191,2168,2153,2153,2138,2138,2131,2116,2116,2102,2087,2087,2073,2073,2060,2046,2046,2026,2026,2006,1980,1980,1961,1961,1943,1925,1925,1913,1901,1901,1889,1889,1878,1867,1867,1855,1855,1844,1833,1833,1823,1807,1807,1791,1791,1775,1760,1760,1740,1740,1721,1697,1697,1679,1679,1665,1648,1648,1635,1635,1622,1609,1609,1605,1601,1601,1597,1597,1597,1597,1597,1597,1597,1597,1597,1597,1597,1597,1597,1597,1601,1605,1605,1622,1622,1652,1688,1688,1721,1755,1755,1791,1812,1812,1828,1828,1817,1796,1796,1770
0,0,0,0,0,0,0,0,0,0,0,0,0,0,0,0,0,0,0,0,0,0,0,0,0,0,0,0,0,0,0,0,0,0,0,0,0,0,0,0,0,0,0,0,0,0,0,0,0,0,0,0,0,0,0,0,0,0,0,0,0,0,0,0,0,0,0,0,0,0,0,0,0,0,0,0,0,0,0,0,0,0,0,0,0,0,0,0,0,0,0,0,0,0,0,0,0,0,0,0,0,0,0,0,0,0,0,0,0,0,0,0,0,0,0,0,0,0,0,0,0,0,0,0,0,0,0,0,0,0,0,0,0,0,0,0,0,0,0,0,0,0,0,0,0,0,0,0,0,0,0,0,0,0,0,0,0,0,0,0,0,0,0,0,0,0,0,0,0,0,0,0,0,0,0,0,0,0,0,0,0,0,0,0,0,0,0,0,0,0,0,0,0,0,0,2686,2675,2675,2675,2686,2698,2698,2698,2698,2710,2722,2722,2734,2746,2746,2758,2771,2771,2783,2783,2796,2808,2808,2808,2834,2834,2847,2847,2860,2887,2887,2901,2914,2914,2914,2928,2928,2928,2928,2942,2956,2956,2970,2970,2970,2999,2999,3014,3044,3044,3074,3105,3105,3136,3168,3168,3185,3185,3218,3235,3235,3235,3269,3252,3252,3269,3252,3252,3252,3235,3235,3201,3201,3185,3136,3136,3105,3044,3044,3014,3014,2970,2956,2956,2956,2956,2928,2928,2928,2928,2928,2928,2928,2928,2914,2914,2928,2928,2928,2942,2942,2956,2956,2956,2970,2970,2970,2985,2985,2985,3014,2999,2999,2999,2999,2999,2985,2985,2970,2970,2970,2956,2942,2942,2914,2914,2901,2901,2914,2901,2901,2901,2887,2887,2874,2874,2887,2887,2887,2887,2887,2887,2887,2901,2914,2914,2928,2928,2928,2942,2942,2942,2956,2956,2985,2999,2999,3014,3014,3014,3029,3014,3014,3014,2999,2999,2999,2970,2970,2970,2970,2985,2970,2970,2970,2970,2970,2970,2985,0,0,0,0,0,0,0,0,0,0,0,0,0,0,0,0,0,0,0,0,0,0,0,3029,3029,3014,3014,3014,3014,3014,3014,3014,3014,2999,2999,3014,2985,2985,2985,2970,2970,2942,2914,2914,2914,2914,2901,2901,2914,2901,2901,2901,2887,2887,2887,2874,2874,2860,2860,2847,2834,2834,2821,2808,2808,2808,2808,2796,2783,2783,2771,2771,2771,2758,2758,2746,2746,2746,2734,2734,2734,2734,2746,2746,2746,2746,2746,2746,2758,2758,2758,2758,2758,2771,2758,2758,2758,2746,2746,2746,2734,2734,2710,2698,2698,2698,2698,2686,2686,2686,2686,2686,2686,2686,2686,2686,2686,2698,2698,2698,2698,2686,2686,2675,2675,2675,2663,2663,2640,2618,2618,2607,2596,2596,2574,2574,2564,2543,2543,2522,2501,2501,2471,2471,2452,2423,2423,2404,2404,2376,2349,2349,2323,2323,2305,2297,2297,2280,2272,2272,2247,2247,2231,2207,2207,2191,2191,2168,2153,2153,2138,2138,2131,2116,2116,2109,2094,2094,2080,2080,2060,2046,2046,2026,2026,2006,1980,1980,1961,1961,1943,1925,1925,1913,1901,1901,1889,1889,1872,1861,1861,1855,1855,1844,1833,1833,1817,1801,1801,1786,1786,1775,1760,1760,1740,1740,1721,1702,1702,1684,1684,1670,1652,1652,1635,1635,1622,1609,1609,1605,1601,1601,1597,1597,1597,1592,1592,1592,1592,1592,1592,1592,1592,1592,1597,1597,1601,1605,1605,1622,1622,1652,1688,1688,1721,1755,1755,1791,1812,1812,1828,1828,1817,1796,1796,1770
0,0,0,0,0,0,0,0,0,0,0,0,0,0,0,0,0,0,0,0,0,0,0,0,0,0,0,0,0,0,0,0,0,0,0,0,0,0,0,0,0,0,0,0,0,0,0,0,0,0,0,0,0,0,0,0,0,0,0,0,0,0,0,0,0,0,0,0,0,0,0,0,0,0,0,0,0,0,0,0,0,0,0,0,0,0,0,0,0,0,0,0,0,0,0,0,0,0,0,0,0,0,0,0,0,0,0,0,0,0,0,0,0,0,0,0,0,0,0,0,0,0,0,0,0,0,0,0,0,0,0,0,0,0,0,0,0,0,0,0,0,0,0,0,0,0,0,0,0,0,0,0,0,0,0,0,0,0,0,0,0,0,0,0,0,0,0,0,0,0,0,0,0,0,0,0,0,0,0,0,0,0,0,0,0,0,0,0,0,0,0,0,0,0,0,0,2675,2675,2675,2686,2698,2698,2698,2698,2710,2722,2722,2734,2746,2746,2758,2771,2771,2783,2783,2796,2808,2808,2808,2834,2834,2847,2847,2860,2860,2860,2874,2887,2887,2887,2887,2887,2887,2887,2901,2914,2914,2942,2956,2956,2970,2970,2999,3014,3014,3059,3074,3074,3089,3120,3120,3152,3152,3168,3185,3185,3201,3201,3201,3218,3218,3218,3218,3218,3185,3185,3168,3168,3136,3089,3089,3059,3029,3029,2970,2970,2942,2928,2928,2914,2914,2901,2901,2901,2901,2901,2928,2928,2928,2914,2914,2928,2928,2928,2942,2942,2956,2956,2956,2970,2970,2970,2985,2985,2985,3014,2999,2999,2999,2999,2999,2985,2985,2970,2970,2970,2956,2942,2942,2914,2914,2901,2901,2901,2887,2874,2874,2860,2860,2860,2860,2860,2860,2860,2860,2860,2860,2860,2874,2874,2874,2887,2887,2887,2914,2914,2914,2914,2914,2928,2956,2956,2956,2956,2956,2970,2956,2956,2956,2956,2942,2942,2928,2928,2928,2928,2928,2928,2928,2928,2928,2928,2928,2942,2956,2956,2956,2970,2970,2970,2970,2985,2985,2985,2985,0,0,0,0,0,0,0,0,0,0,0,0,3029,3029,3014,3014,3014,3014,3014,3014,3014,3014,2999,2999,3014,2985,2985,2985,2970,2970,2942,2914,2914,2914,2914,2901,2887,2887,2874,2874,2874,2860,2860,2860,2847,2847,2834,2834,2821,2808,2808,2796,2783,2783,2783,2783,2771,2758,2758,2746,2734,2734,2734,2734,2722,2710,2710,2710,2710,2710,2698,2698,2698,2698,2698,2698,2710,2722,2710,2710,2710,2710,2722,2722,2722,2722,2722,2722,2722,2722,2722,2710,2698,2698,2698,2698,2686,2686,2686,2686,2686,2686,2686,2686,2686,2686,2698,2698,2698,2698,2686,2686,2675,2675,2675,2663,2663,2640,2618,2618,2607,2596,2596,2574,2574,2564,2543,2543,2522,2501,2501,2471,2471,2452,2423,2423,2404,2404,2376,2349,2349,2323,2323,2305,2288,2288,2280,2263,2263,2247,2247,2231,2207,2207,2183,2183,2168,2153,2153,2138,2123,2123,2116,2116,2102,2094,2094,2080,2080,2060,2046,2046,2026,2026,2006,1980,1980,1961,1943,1943,1919,1919,1913,1895,1895,1884,1884,1872,1861,1861,1850,1850,1839,1828,1828,1817,1801,1801,1786,1786,1775,1760,1760,1740,1740,1721,1702,1702,1688,1688,1670,1652,1652,1639,1639,1626,1613,1613,1609,1601,1601,1601,1601,1597,1592,1592,1592,1592,1592,1592,1592,1592,1592,1592,1592,1597,1601,1601,1622,1622,1652,1684,1684,1716,1750,1750,1786,1807,1807,1823,1823,1807,1786,1786,1760
0,0,0,0,0,0,0,0,0,0,0,0,0,0,0,0,0,0,0,0,0,0,0,0,0,0,0,0,0,0,0,0,0,0,0,0,0,0,0,0,0,0,0,0,0,0,0,0,0,0,0,0,0,0,0,0,0,0,0,0,0,0,0,0,0,0,0,0,0,0,0,0,0,0,0,0,0,0,0,0,0,0,0,0,0,0,0,0,0,0,0,0,0,0,0,0,0,0,0,0,0,0,0,0,0,0,0,0,0,0,0,0,0,0,0,0,0,0,0,0,0,0,0,0,0,0,0,0,0,0,0,0,0,0,0,0,0,0,0,0,0,0,0,0,0,0,0,0,0,0,0,0,0,0,0,0,0,0,0,0,0,0,0,0,0,0,0,0,0,0,0,0,0,0,0,0,0,0,0,0,0,0,0,0,0,0,0,0,0,0,0,0,0,0,0,0,2675,2675,2675,2686,2686,2686,2698,2698,2710,2722,2722,2722,2746,2746,2758,2771,2771,2783,2783,2796,2796,2796,2808,2834,2834,2847,2847,2860,2860,2860,2874,2874,2874,2874,2887,2887,2887,2887,2901,2914,2914,2928,2956,2956,2970,2970,2985,3014,3014,3029,3044,3044,3074,3120,3120,3152,3152,3168,3185,3185,3201,3201,3201,3218,3218,3218,3218,3218,3185,3185,3168,3168,3136,3089,3089,3059,3029,3029,2970,2970,2942,2928,2928,2914,2914,2901,2901,2901,2901,2901,2901,2901,2901,2901,2901,2914,2914,2914,2928,2928,2928,2928,2928,2942,2942,2956,2956,2956,2970,2970,2970,2970,2970,2970,2970,2956,2956,2956,2942,2942,2914,2914,2914,2887,2887,2874,2874,2874,2860,2847,2847,2834,2834,2834,2821,2821,2821,2821,2834,2834,2834,2834,2847,2847,2847,2847,2847,2847,2860,2860,2874,2887,2887,2928,2956,2956,2956,2956,2956,2970,2956,2956,2956,2956,2942,2942,2928,2928,2928,2928,2928,2928,2928,2928,2928,2928,2928,2942,2956,2956,2956,2970,2970,2970,2970,2985,2985,2985,2985,2999,2999,2999,2999,3014,3014,3014,3014,3014,3014,3014,3014,2985,2985,2985,2985,2985,2970,2970,2970,2970,2970,2956,2956,2970,2942,2942,2942,2928,2928,2914,2887,2887,2874,2874,2874,2860,2860,2847,2847,2847,2834,2834,2834,2821,2821,2808,2808,2808,2796,2796,2771,2771,2771,2758,2758,2746,2734,2734,2722,2710,2710,2710,2734,2722,2710,2710,2710,2710,2710,2698,2698,2698,2698,2698,2698,2710,2722,2710,2710,2710,2710,2722,2722,2722,2722,2722,2722,2722,2722,2722,2710,2698,2698,2698,2698,2698,2686,2686,2686,2686,2686,2686,2686,2686,2686,2698,2686,2686,2686,2675,2675,2663,2652,2652,2640,2629,2629,2607,2607,2596,2585,2585,2564,2564,2564,2543,2543,2522,2501,2501,2471,2471,2452,2423,2423,2395,2395,2376,2349,2349,2323,2323,2305,2288,2288,2272,2263,2263,2247,2247,2223,2207,2207,2183,2183,2168,2153,2153,2138,2123,2123,2116,2116,2102,2094,2094,2080,2080,2066,2046,2046,2026,2026,2006,1987,1987,1961,1943,1943,1919,1919,1913,1895,1895,1884,1884,1872,1861,1861,1850,1850,1839,1828,1828,1817,1801,1801,1786,1786,1775,1760,1760,1740,1740,1721,1702,1702,1688,1688,1670,1652,1652,1639,1639,1626,1613,1613,1609,1601,1601,1597,1597,1597,1592,1592,1592,1592,1592,1592,1592,1592,1592,1592,1592,1597,1601,1601,1617,1617,1643,1679,1679,1712,1745,1750,1781,1807,1807,1817,1817,1807,1781,1781,1750
0,0,0,0,0,0,0,0,0,0,0,0,0,0,0,0,0,0,0,0,0,0,0,0,0,0,0,0,0,0,0,0,0,0,0,0,0,0,0,0,0,0,0,0,0,0,0,0,0,0,0,0,0,0,0,0,0,0,0,0,0,0,0,0,0,0,0,0,0,0,0,0,0,0,0,0,0,0,0,0,0,0,0,0,0,0,0,0,0,0,0,0,0,0,0,0,0,0,0,0,0,0,0,0,0,0,0,0,0,0,0,0,0,0,0,0,0,0,0,0,0,0,0,0,0,0,0,0,0,0,0,0,0,0,0,0,0,0,0,0,0,0,0,0,0,0,0,0,0,0,0,0,0,0,0,0,0,0,0,0,0,0,0,0,0,0,0,0,0,0,0,0,0,0,0,0,0,0,0,0,0,0,0,0,0,0,0,0,0,0,0,0,0,0,0,0,2675,2675,2675,2686,2686,2686,2698,2698,2710,2710,2710,2710,2734,2734,2758,2771,2771,2783,2783,2796,2796,2796,2808,2834,2834,2847,2860,2860,2860,2860,2874,2874,2874,2874,2887,2887,2887,2887,2901,2914,2914,2928,2956,2956,2970,2970,2985,3014,3014,3029,3044,3044,3074,3089,3089,3105,3105,3136,3136,3136,3136,3152,3152,3168,3168,3168,3168,3152,3136,3136,3120,3120,3105,3074,3074,3044,3014,3014,2970,2970,2942,2928,2928,2914,2914,2901,2901,2901,2901,2901,2901,2901,2901,2901,2901,2914,2914,2914,2928,2928,2928,2928,2928,2942,2942,2956,2956,2956,2970,2970,2970,2970,2956,2956,2970,2956,2956,2956,2942,2942,2914,2914,2914,2887,2887,2874,2874,2874,2860,2847,2847,2834,2834,2834,2821,2821,2821,2821,2834,2834,2834,2834,2847,2847,2847,2847,2847,2847,2860,2860,2874,2887,2887,2887,2901,2901,2901,2901,2901,2914,2914,2914,2914,2901,2901,2901,2887,2887,2887,2887,2901,2887,2887,2901,2887,2887,2887,2914,2914,2914,2928,2928,2928,2928,2928,2942,2956,2956,2956,2970,2970,2970,2970,2970,2985,2985,2985,2985,2970,2970,2970,2970,2970,2970,2956,2956,2956,2956,2942,2928,2928,2928,2914,2914,2914,2942,2942,2928,2928,2914,2887,2887,2874,2874,2874,2860,2860,2847,2847,2847,2834,2834,2834,2821,2821,2808,2808,2808,2796,2796,2771,2771,2771,2758,2758,2746,2734,2734,2722,2710,2710,2698,2698,2698,2686,2686,2686,2675,2675,2675,2675,2675,2675,2675,2675,2675,2675,2675,2675,2675,2675,2675,2675,2675,2686,2686,2686,2686,2698,2698,2698,2698,2698,2698,2698,2698,2698,2698,2698,2686,2686,2686,2686,2686,2686,2686,2686,2675,2675,2663,2663,2640,2640,2640,2629,2607,2607,2596,2596,2585,2574,2574,2564,2564,2564,2543,2543,2522,2501,2501,2471,2471,2452,2423,2423,2395,2395,2376,2349,2349,2323,2323,2305,2288,2288,2272,2263,2263,2247,2247,2223,2207,2207,2183,2183,2168,2153,2153,2138,2123,2123,2116,2116,2102,2094,2094,2080,2080,2066,2046,2046,2026,2026,2006,1987,1987,1961,1943,1943,1919,1919,1907,1895,1895,1884,1884,1872,1861,1861,1850,1850,1839,1828,1828,1817,1801,1801,1786,1786,1775,1760,1760,1740,1740,1721,1702,1702,1688,1688,1674,1656,1656,1643,1643,1630,1617,1617,1609,1601,1601,1597,1597,1597,1592,1592,1592,1592,1592,1592,1592,1592,1592,1592,1592,1597,1601,1601,1617,1617,1643,1679,1679,1712,1745,1781,1781,1807,1807,1817,1817,1807,1781,1781,1750
0,0,0,0,0,0,0,0,0,0,0,0,0,0,0,0,0,0,0,0,0,0,0,0,0,0,0,0,0,0,0,0,0,0,0,0,0,0,0,0,0,0,0,0,0,0,0,0,0,0,0,0,0,0,0,0,0,0,0,0,0,0,0,0,0,0,0,0,0,0,0,0,0,0,0,0,0,0,0,0,0,0,0,0,0,0,0,0,0,0,0,0,0,0,0,0,0,0,0,0,0,0,0,0,0,0,0,0,0,0,0,0,0,0,0,0,0,0,0,0,0,0,0,0,0,0,0,0,0,0,0,0,0,0,0,0,0,0,0,0,0,0,0,0,0,0,0,0,0,0,0,0,0,0,0,0,0,0,0,0,0,0,0,0,0,0,0,0,0,0,0,0,0,0,0,0,0,0,0,0,0,0,0,0,0,0,0,0,0,0,0,0,0,0,0,0,2675,2675,2675,2686,2686,2686,2698,2710,2710,2710,2710,2710,2734,2734,2758,2771,2771,2783,2783,2796,2796,2796,2808,2821,2821,2834,2847,2847,2847,2847,2847,2874,2847,2847,2887,2887,2887,2887,2901,2914,2914,2928,2956,2956,2970,2970,2985,3014,3014,3029,3044,3044,3074,3089,3089,3105,3105,3136,3136,3136,3136,3152,3152,3168,3168,3168,3168,3152,3136,3136,3120,3120,3105,3074,3074,3044,3014,3014,2985,2985,2956,2942,2942,2928,2928,2928,2914,2914,2914,2914,2914,2901,2901,2901,2914,2914,2914,2914,2928,2928,2928,2928,2928,2942,2942,2956,2956,2956,2970,2970,2970,2970,2956,2956,2956,2956,2956,2956,2928,2928,2914,2914,2914,2887,2887,2874,2874,2874,2860,2847,2847,2834,2834,2834,2821,2821,2821,2821,2834,2834,2834,2834,2847,2847,2847,2847,2847,2847,2860,2860,2874,2874,2874,2887,2901,2901,2901,2901,2901,2914,2914,2901,2901,2901,2901,2901,2887,2887,2887,2887,2887,2887,2887,2887,2887,2887,2887,2914,2914,2914,2928,2928,2928,2928,2928,2942,2956,2956,2956,2970,2970,2970,2970,2970,2985,2985,2985,2985,2970,2970,2970,2970,2970,2970,2956,2956,2956,2956,2942,2928,2928,2928,2914,2914,2914,2914,2901,2874,2874,2874,2860,2860,2847,2847,2821,2808,2808,2808,2808,2808,2796,2796,2796,2796,2796,2783,2783,2783,2771,2771,2758,2746,2746,2734,2734,2722,2698,2698,2686,2675,2675,2663,2663,2663,2652,2652,2652,2652,2652,2640,2640,2640,2652,2652,2652,2652,2652,2640,2640,2640,2640,2640,2640,2640,2652,2652,2686,2686,2698,2698,2698,2698,2698,2698,2698,2698,2698,2698,2698,2698,2698,2686,2686,2686,2686,2686,2686,2675,2675,2663,2663,2640,2640,2640,2629,2607,2607,2596,2596,2585,2574,2574,2564,2564,2553,2532,2532,2522,2501,2501,2471,2471,2452,2423,2423,2395,2395,2376,2349,2349,2323,2323,2297,2288,2288,2272,2255,2255,2239,2239,2223,2207,2207,2183,2183,2168,2153,2153,2138,2123,2123,2116,2116,2109,2102,2102,2080,2080,2066,2053,2053,2032,2006,2006,1987,1987,1961,1937,1937,1913,1913,1907,1895,1895,1884,1884,1872,1861,1861,1850,1850,1839,1828,1828,1817,1801,1801,1786,1786,1775,1760,1760,1740,1740,1726,1707,1707,1693,1693,1674,1661,1661,1643,1643,1630,1622,1622,1609,1601,1601,1597,1597,1597,1592,1592,1592,1588,1588,1588,1588,1588,1588,1588,1588,1592,1597,1597,1613,1613,1639,1670,1670,1707,1745,1775,1775,1796,1796,1817,1817,1801,1775,1775,1745
0,0,0,0,0,0,0,0,0,0,0,0,0,0,0,0,0,0,0,0,0,0,0,0,0,0,0,0,0,0,0,0,0,0,0,0,0,0,0,0,0,0,0,0,0,0,0,0,0,0,0,0,0,0,0,0,0,0,0,0,0,0,0,0,0,0,0,0,0,0,0,0,0,0,0,0,0,0,0,0,0,0,0,0,0,0,0,0,0,0,0,0,0,0,0,0,0,0,0,0,0,0,0,0,0,0,0,0,0,0,0,0,0,0,0,0,0,0,0,0,0,0,0,0,0,0,0,0,0,0,0,0,0,0,0,0,0,0,0,0,0,0,0,0,0,0,0,0,0,0,0,0,0,0,0,0,0,0,0,0,0,0,0,0,0,0,0,0,0,0,0,0,0,0,0,0,0,0,0,0,0,0,0,0,0,0,0,0,0,0,0,0,0,0,0,2675,2675,2675,2675,2686,2686,2686,2698,2710,2710,2710,2710,2710,2734,2734,2758,2771,2771,2783,2783,2796,2796,2796,2808,2808,2808,2834,2847,2847,2847,2847,2847,2847,2847,2847,2860,2860,2860,2860,2860,2874,2874,0,0,0,0,0,0,0,0,0,0,0,0,0,0,0,0,0,0,0,0,0,0,0,0,0,0,0,0,0,0,0,0,0,0,3044,3014,3014,2985,2985,2956,2942,2942,2928,2928,2928,2914,2914,2914,2914,2914,2901,2901,2901,2914,2914,2914,2914,2914,2914,2928,2928,2928,2942,2942,2956,2956,2956,2970,2970,2970,2970,2956,2956,2956,2956,2956,2956,2928,2928,2914,2901,2901,2887,2887,2874,2860,2860,2847,2847,2847,2834,2834,2834,2821,2821,2821,2821,2834,2834,2834,2834,2847,2847,2847,2847,2847,2847,2860,2860,2874,2874,2874,2887,2901,2901,2901,2901,2901,2914,2914,2901,2901,2901,2901,2901,2887,2887,2887,2887,2887,2887,2887,2887,2887,2887,2887,2901,2914,2914,2914,2928,2928,2928,2928,2942,2956,2956,2956,2970,2970,2970,2970,2970,2985,2985,2985,2985,2970,2970,2970,2970,2970,2970,2942,2942,2942,2942,2942,2928,2928,2928,2914,2914,2914,2914,2901,2874,2874,2874,2860,2860,2847,2847,2821,2808,2808,2796,2796,2808,2796,2796,2796,2796,2796,2783,2783,2783,2771,2771,2758,2746,2746,2734,2734,2722,2698,2698,2686,2675,2675,2663,2663,2663,2652,2652,2652,2652,2652,2640,2640,2640,2652,2652,2652,2652,2652,2640,2640,2640,2640,2640,2640,2640,2652,2652,2663,2663,2663,2675,2675,2663,2663,2663,2675,2675,2675,2675,2675,2686,2686,2675,2675,2675,2663,2663,2663,2652,2652,2629,2629,2629,2618,2618,2607,2607,2585,2585,2585,2574,2564,2564,2553,2553,2543,2532,2532,2522,2501,2501,2471,2471,2442,2423,2423,2395,2395,2367,2349,2349,2314,2314,2297,2280,2280,2272,2255,2255,2239,2239,2223,2207,2207,2183,2183,2168,2153,2153,2138,2131,2131,2116,2116,2109,2102,2102,2087,2087,2066,2053,2053,2032,2006,2006,1987,1987,1961,1937,1937,1913,1913,1907,1895,1895,1878,1878,1867,1855,1855,1844,1833,1833,1823,1823,1812,1796,1796,1786,1786,1775,1760,1760,1740,1740,1726,1707,1707,1693,1693,1674,1661,1661,1643,1635,1630,1622,1622,1609,1605,1605,1601,1601,1597,1592,1592,1592,1588,1588,1588,1588,1584,1584,1584,1584,1588,1597,1597,1605,1605,1635,1665,1670,1702,1736,1770,1770,1796,1796,1817,1817,1801,1775,1775,1745
0,0,0,0,0,0,0,0,0,0,0,0,0,0,0,0,0,0,0,0,0,0,0,0,0,0,0,0,0,0,0,0,0,0,0,0,0,0,0,0,0,0,0,0,0,0,0,0,0,0,0,0,0,0,0,0,0,0,0,0,0,0,0,0,0,0,0,0,0,0,0,0,0,0,0,0,0,0,0,0,0,0,0,0,0,0,0,0,0,0,0,0,0,0,0,0,0,0,0,0,0,0,0,0,0,0,0,0,0,0,0,0,0,0,0,0,0,0,0,0,0,0,0,0,0,0,0,0,0,0,0,0,0,0,0,0,0,0,0,0,0,0,0,0,0,0,0,0,0,0,0,0,0,0,0,0,0,0,0,0,0,0,0,0,0,0,0,0,0,0,0,0,0,0,0,0,0,0,0,0,0,0,0,0,0,0,0,0,0,0,0,0,0,0,2675,2675,2675,2675,2675,2686,2686,2686,2698,2710,2710,2710,2710,2710,2746,2746,2758,2771,2771,2783,2783,2796,2796,2796,2808,2808,2808,2834,2847,2847,2847,2847,2847,2847,2847,2847,2860,2860,2860,2860,2860,2874,2874,2874,2887,2887,2901,2901,2914,2914,2914,2928,2928,2928,2942,2942,2956,2970,2956,2956,2970,2970,2985,2985,2985,2999,2999,2999,2999,2999,2999,2999,2999,2999,2999,2999,2999,2985,2985,2985,2970,2970,2970,2956,2956,2942,2942,2942,2942,2942,2928,2914,2914,2914,2914,2914,2914,2914,2914,2914,2914,2914,2928,2942,2942,0,0,0,0,0,0,0,0,0,0,0,0,0,0,0,2928,2928,2928,2901,2901,2887,2887,2874,2860,2860,2847,2847,2847,2834,2834,2834,2821,2821,2821,2834,2834,2821,2821,2821,2834,2834,2834,2847,2847,2847,2860,2860,2874,2874,2874,2887,2887,2887,2887,2901,2901,2901,2901,2901,2901,2901,2887,2887,2887,2887,2887,2887,2887,2887,2887,2887,2887,2887,2887,2901,2914,2914,2914,2928,2928,2928,2928,2942,2956,2956,2956,2970,2970,2970,2970,2970,2985,2985,2985,2985,2970,2970,2970,2970,2970,2970,2942,2942,2942,2942,2942,2942,0,0,0,0,0,0,0,0,0,0,0,0,0,0,0,0,0,2796,2796,0,0,0,0,0,0,0,0,2783,2771,2771,2758,2746,2746,2734,2734,2722,2698,2698,2686,2675,2675,2663,2663,2663,2652,2652,2652,2652,2652,2640,2640,2640,2652,2652,2652,2652,2652,2640,2640,2640,2640,2640,2640,2640,2652,2652,2663,2663,2663,2675,2675,2663,2663,2663,2675,2675,2675,2675,2652,2652,2652,2640,2640,2640,2640,2640,2640,2629,2629,2618,2618,2618,2618,2618,2607,2607,2585,2585,2585,2574,2564,2564,2553,2553,2543,2532,2532,2522,2501,2501,2471,2471,2442,2423,2423,2395,2395,2367,2349,2349,2314,2314,2297,2280,2280,2272,2255,2255,2239,2239,2223,2199,2199,2183,2183,2168,2145,2145,2138,2131,2131,2116,2116,2109,2102,2102,2087,2087,2066,2053,2053,2032,2006,2006,1980,1980,1955,1931,1931,1913,1913,1901,1889,1889,1878,1878,1867,1855,1855,1844,1833,1833,1823,1823,1812,1796,1796,1786,1786,1770,1760,1760,1745,1745,1731,1712,1712,1697,1697,1679,1661,1661,1648,1635,1635,1622,1622,1613,1605,1605,1601,1601,1597,1592,1592,1592,1588,1588,1588,1588,1584,1584,1584,1584,1588,1597,1597,1605,1605,1635,1665,1702,1702,1736,1770,1770,1791,1796,1807,1812,1796,1775,1775,1740
0,0,0,0,0,0,0,0,0,0,0,0,0,0,0,0,0,0,0,0,0,0,0,0,0,0,0,0,0,0,0,0,0,0,0,0,0,0,0,0,0,0,0,0,0,0,0,0,0,0,0,0,0,0,0,0,0,0,0,0,0,0,0,0,0,0,0,0,0,0,0,0,0,0,0,0,0,0,0,0,0,0,0,0,0,0,0,0,0,0,0,0,0,0,0,0,0,0,0,0,0,0,0,0,0,0,0,0,0,0,0,0,0,0,0,0,0,0,0,0,0,0,0,0,0,0,0,0,0,0,0,0,0,0,0,0,0,0,0,0,0,0,0,0,0,0,0,0,0,0,0,0,0,0,0,0,0,0,0,0,0,0,0,0,0,0,0,0,0,0,0,0,0,0,0,0,0,0,0,0,0,0,0,0,0,0,0,0,0,0,0,0,0,0,2675,2675,2675,2675,2675,2686,2686,2686,2698,2710,2710,2710,2710,2710,2734,2734,2758,2771,2771,2771,2771,2783,2796,2796,2796,2808,2808,2834,2847,2847,2847,2847,2847,2847,2847,2847,2860,2860,2860,2860,2860,2860,2860,2874,2874,2874,2887,2887,2887,2901,2901,2901,2914,2914,2914,2914,2914,2914,2914,2928,2928,2928,2942,2942,2942,2956,2956,2956,2999,2999,2999,2999,2999,2999,2999,2999,2999,2985,2985,2985,2970,2970,2970,2956,2956,2942,2942,2942,2942,2942,2928,2928,2928,2928,2928,2928,2928,2928,2928,2928,2942,2942,2942,2942,2942,2956,2956,2956,2956,2956,2956,2956,2956,2956,2956,2942,2942,2942,2942,2942,2928,2928,2901,2901,2901,2887,2887,2874,2860,2860,2847,2847,2847,2834,2834,2834,2821,2821,2821,2834,2834,2821,2821,2821,2834,2834,2834,2847,2847,2847,2860,2874,2874,2874,2874,2887,2887,2887,2887,2901,2901,2901,2901,2914,2914,2901,2887,2887,2887,2887,2887,2887,2887,2887,2887,2887,2887,2887,2887,0,0,0,0,0,0,0,0,0,0,2956,2956,2970,2970,2970,2970,2970,2985,2985,2985,2985,2970,2970,2970,2956,2956,2956,2942,2942,2942,2942,2942,2914,2914,2901,2901,2901,2887,2887,2874,2847,2847,2847,2834,2834,2821,2821,2796,2796,2796,2796,2796,2796,2796,2796,2796,2783,2783,2783,2783,2771,2758,2758,2746,2734,2734,2710,2710,2686,2675,2675,2663,2652,2652,2652,2652,2640,2640,2640,2629,2629,2629,2629,2629,2629,2629,0,0,0,0,0,0,0,0,0,0,0,0,0,0,0,0,0,0,0,0,0,0,0,0,0,2652,2652,2652,2640,2640,2640,2640,2640,2640,2629,2629,2618,2618,2607,2596,2596,2585,2574,2574,2574,2574,2564,2553,2553,2553,2553,2543,2522,2522,2522,2491,2491,2471,2471,2442,2414,2414,2395,2395,2367,2349,2349,2314,2297,2297,2280,2280,2272,2255,2255,2239,2239,2223,2199,2199,2183,2183,2160,2145,2145,2138,2131,2131,2116,2116,2109,2102,2102,2080,2080,2066,2053,2053,2032,2006,2006,1980,1980,1955,1931,1931,1913,1913,1901,1889,1889,1878,1878,1867,1855,1855,1844,1833,1833,1823,1823,1812,1796,1796,1786,1786,1770,1760,1760,1745,1745,1731,1712,1712,1697,1697,1679,1661,1661,1648,1635,1635,1622,1622,1613,1605,1605,1601,1601,1597,1592,1592,1592,1588,1588,1584,1584,1584,1584,1584,1584,1588,1592,1592,1601,1605,1630,1661,1693,1693,1731,1765,1765,1786,1807,1807,1807,1796,1796,0,1736
0,0,0,0,0,0,0,0,0,0,0,0,0,0,0,0,0,0,0,0,0,0,0,0,0,0,0,0,0,0,0,0,0,0,0,0,0,0,0,0,0,0,0,0,0,0,0,0,0,0,0,0,0,0,0,0,0,0,0,0,0,0,0,0,0,0,0,0,0,0,0,0,0,0,0,0,0,0,0,0,0,0,0,0,0,0,0,0,0,0,0,0,0,0,0,0,0,0,0,0,0,0,0,0,0,0,0,0,0,0,0,0,0,0,0,0,0,0,0,0,0,0,0,0,0,0,0,0,0,0,0,0,0,0,0,0,0,0,0,0,0,0,0,0,0,0,0,0,0,0,0,0,0,0,0,0,0,0,0,0,0,0,0,0,0,0,0,0,0,0,0,0,0,0,0,0,0,0,0,0,0,0,0,0,0,0,0,0,0,0,0,0,0,2675,2675,2675,2675,2675,2675,2686,2686,2686,2698,2698,2698,2710,2710,2710,2734,2734,2746,2758,2758,2771,2771,2783,2796,2796,2796,2808,2808,2847,2847,2847,2860,2847,2847,2847,2847,2860,2860,2860,2860,2860,2860,2860,2860,2874,2874,2874,2887,2887,2887,2901,2901,2901,2914,2914,2914,2914,2914,2914,2914,2928,2928,2928,2942,2942,2942,2956,2956,2956,2970,2970,2970,2985,2985,2985,2985,2985,2985,2985,2985,2985,2970,2970,2970,2956,2956,2942,2942,2942,2942,2942,2928,2928,2928,2928,2928,2928,2928,2928,2928,2928,2942,2942,2942,2942,2942,2956,2956,2956,2956,2956,2956,2956,2956,2956,2942,2942,2942,2942,2942,2942,2928,2928,2901,2901,2901,2887,2887,2874,2874,2874,2860,2860,2860,2860,2860,2860,2847,2847,2847,2860,2860,2860,2860,2860,2860,2860,2860,2860,2887,2887,2887,2901,2901,2901,2901,2914,2914,2914,2914,2914,2914,2914,2914,2914,2914,2901,2887,2887,2887,2887,2887,2887,2887,2887,2887,2887,2887,2887,2887,2914,2914,2914,2914,2928,2928,2928,2928,2942,2942,2942,2956,2970,2970,2970,2970,2970,2985,2985,2985,2985,2970,2970,2970,2956,2956,2956,2942,2942,2942,2942,2928,2914,2914,2901,2887,2887,2874,2874,2874,2847,2847,2834,2821,2821,2821,2821,2796,2796,2796,2796,2796,2796,2796,2796,2796,2783,2783,2783,2783,2771,2758,2758,2746,2734,2734,2710,2710,2686,2675,2675,2663,2652,2652,2652,2652,2640,2640,2640,2629,2629,2629,2629,2629,2629,2629,2629,2629,2629,2629,2629,2629,2629,2629,2629,2629,2629,2629,2629,2629,2629,2629,2640,2640,2640,2640,2640,2640,2629,2629,2629,2629,2629,2629,2629,2629,2629,2618,2618,2607,2596,2596,2585,2585,2585,2574,2574,2564,2564,2564,2553,2553,2553,2553,2553,2553,2543,2543,2522,2522,2512,2491,2491,2471,2471,2442,2414,2414,2395,2395,2367,2349,2349,2314,2297,2297,2280,2280,2272,2255,2255,2239,2239,2223,2199,2199,2183,2183,2160,2145,2145,2138,2131,2131,2116,2116,2109,2102,2102,2080,2080,2066,2053,2053,2026,2006,2006,1980,1980,1955,1931,1931,1913,1913,1901,1889,1889,1878,1878,1867,1855,1855,1844,1833,1833,1823,1823,1812,1796,1796,1786,1786,1770,1760,1760,1745,1745,1731,1712,1712,1697,1684,1679,1665,1665,1648,1635,1635,1626,1626,1613,1605,1605,1601,1601,1597,1592,1592,1592,1588,1588,1584,1584,1584,1584,1584,1584,1588,1592,1592,1601,1630,1630,1661,1693,1693,1731,1765,1765,1786,1807,1807,1807,1796,1796,0,1736
0,0,0,0,0,0,0,0,0,0,0,0,0,0,0,0,0,0,0,0,0,0,0,0,0,0,0,0,0,0,0,0,0,0,0,0,0,0,0,0,0,0,0,0,0,0,0,0,0,0,0,0,0,0,0,0,0,0,0,0,0,0,0,0,0,0,0,0,0,0,0,0,0,0,0,0,0,0,0,0,0,0,0,0,0,0,0,0,0,0,0,0,0,0,0,0,0,0,0,0,0,0,0,0,0,0,0,0,0,0,0,0,0,0,0,0,0,0,0,0,0,0,0,0,0,0,0,0,0,0,0,0,0,0,0,0,0,0,0,0,0,0,0,0,0,0,0,0,0,0,0,0,0,0,0,0,0,0,0,0,0,0,0,0,0,0,0,0,0,0,0,0,0,0,0,0,0,0,0,0,0,0,0,0,0,0,0,0,0,0,0,0,0,2675,2675,2675,2675,2675,2675,2686,2686,2686,2698,2698,2698,2710,2710,2710,2734,2734,2746,2758,2758,2771,2783,2783,2796,2796,2796,2821,2821,2847,2847,2847,2860,2847,2847,2847,2847,2860,2860,2860,2860,2860,2860,2860,2860,2874,2874,2874,2887,2887,2887,2901,2901,2901,2901,2901,2901,2901,2901,2914,2914,2914,2928,2928,2928,2942,2942,2942,2942,2956,2956,2956,2970,2985,2985,2985,2985,2985,2985,2985,2985,2985,2970,2970,2970,2970,2970,2956,2956,2956,2956,2956,2942,2942,2942,2942,2942,2942,2942,2942,2942,2942,2956,2956,2956,2956,2956,2956,2956,2956,2956,2956,2956,2956,2956,2956,2942,2942,2942,2942,2942,2942,2928,2928,2914,2914,2914,2901,2901,2874,2874,2874,2860,2860,2860,2860,2860,2860,2847,2847,2847,2860,2860,2860,2860,2860,2860,2860,2860,2860,2887,2887,2887,2901,2901,2901,2901,2914,2914,2914,2914,2914,2914,2914,2914,2914,2914,2914,2901,2901,2901,2901,2901,2901,2901,2901,2901,2901,2901,2901,2901,2914,2914,2914,2914,2928,2928,2928,2928,2942,2942,2942,2956,2970,2970,2970,2970,2970,2985,2985,2985,2985,2970,2970,2970,2970,2970,2956,2956,2956,2942,2942,2928,2914,2914,2901,2887,2887,2874,2874,2874,2847,2847,2834,2821,2821,2821,2821,2796,2796,2796,2796,2796,2796,2796,2796,2796,2783,2783,2783,2783,2771,2758,2758,2746,2734,2734,2710,2710,2686,2675,2675,2663,2652,2652,2652,2652,2640,2640,2640,2629,2629,2629,2629,2629,2629,2629,2629,2629,2629,2629,2629,2629,2629,2629,2629,2629,2629,2629,2629,2629,2629,2629,2640,2640,2640,2640,2640,2640,2629,2629,2629,2629,2629,2629,2629,2629,2629,2618,2618,2607,2596,2596,2585,2585,2585,2574,2574,2564,2564,2564,2553,2553,2553,2553,2553,2553,2543,2543,2522,2522,2512,2491,2491,2471,2471,2442,2414,2414,2395,2395,2367,2340,2340,2314,2297,2297,2280,2280,2272,2255,2255,2239,2239,2215,2199,2199,2183,2183,2160,2145,2145,2138,2123,2123,2116,2116,2109,2102,2102,2080,2066,2066,2053,2053,2026,2006,2006,1980,1980,1955,1931,1931,1913,1913,1901,1889,1889,1878,1878,1867,1855,1855,1844,1833,1833,1823,1823,1812,1796,1796,1786,1786,1770,1760,1760,1745,1745,1731,1712,1712,1697,1684,1684,1665,1665,1652,1639,1639,1626,1626,1617,1605,1605,1601,1601,1597,1597,1597,1592,1588,1588,1584,1584,1584,1584,1584,1584,1588,1592,1592,1601,1626,1626,1656,1693,1693,1731,1765,1765,1786,1801,1801,1801,1796,1760,1760,1726
0,0,0,0,0,0,0,0,0,0,0,0,0,0,0,0,0,0,0,0,0,0,0,0,0,0,0,0,0,0,0,0,0,0,0,0,0,0,0,0,0,0,0,0,0,0,0,0,0,0,0,0,0,0,0,0,0,0,0,0,0,0,0,0,0,0,0,0,0,0,0,0,0,0,0,0,0,0,0,0,0,0,0,0,0,0,0,0,0,0,0,0,0,0,0,0,0,0,0,0,0,0,0,0,0,0,0,0,0,0,0,0,0,0,0,0,0,0,0,0,0,0,0,0,0,0,0,0,0,0,0,0,0,0,0,0,0,0,0,0,0,0,0,0,0,0,0,0,0,0,0,0,0,0,0,0,0,0,0,0,0,0,0,0,0,0,0,0,0,0,0,0,0,0,0,0,0,0,0,0,0,0,0,0,0,0,0,0,0,0,0,0,0,2675,2675,2675,2675,2675,2675,2686,2686,2686,2698,2698,2698,2710,2710,2710,2734,2734,2746,2758,2758,2771,2783,2783,2796,2796,2796,2821,2821,2847,2860,2860,2874,2874,2874,2874,2874,2874,2887,2874,2874,2874,2874,2887,2887,2887,2887,2887,2887,2887,2887,2887,2887,2887,2887,2887,2887,2901,2901,2914,2914,2914,2928,2928,2928,2942,2942,2942,2942,2956,2956,2956,2970,2985,2985,2985,2985,2985,2985,2985,2985,2985,2985,2985,2985,2970,2970,2970,2970,2970,2956,2956,2942,2942,2942,2942,2942,2942,2942,2942,2942,2942,2956,2956,2956,2956,2956,2956,2956,2956,2956,2956,2956,2956,2956,2956,2942,2942,2942,2942,2942,2942,2928,2928,2914,2914,2914,2901,2901,2901,2901,2901,2887,2887,2887,2887,2887,2887,2874,2874,2874,2887,2887,2874,2874,2887,2887,2887,2887,2887,2887,2887,2901,2901,2901,2901,2901,2914,2914,2914,2914,2914,2914,2914,2914,2914,2914,2914,2901,2901,2901,2901,2901,2901,2901,2901,2901,2914,2914,2914,2914,2914,2914,2914,2928,2928,2928,2928,2928,2942,2942,2942,2956,2970,2970,2970,2970,2970,2985,2985,2985,2985,2970,2970,2970,2956,2956,2956,2956,2956,2942,2942,2928,2914,2914,2887,2887,2887,2874,2874,2860,2847,2847,2834,2821,2821,2821,2821,2796,2796,2796,2796,2796,2796,2796,2796,2796,2796,2796,2783,2783,2783,2771,2771,2746,2734,2734,2710,2710,2698,2675,2675,2663,2663,2663,2652,2652,2640,2640,2640,2629,2629,2629,2629,2629,2629,2629,2629,2629,2629,2629,2629,2629,2629,2629,2629,2629,2629,2629,2629,2629,2629,2640,2640,2640,2640,2640,2640,2640,2629,2629,2629,2618,2618,2618,2618,2618,2607,2596,2596,2596,2585,2585,2574,2574,2574,2564,2564,2553,2553,2553,2543,2543,2543,2553,2553,2553,2543,2543,2522,2522,2512,2491,2491,2471,2471,2442,2414,2414,2395,2395,2367,2340,2340,2314,2297,2297,2280,2280,2272,2255,2255,2239,2239,2215,2199,2199,2176,2160,2160,2145,2145,2138,2123,2123,2116,2116,2109,2102,2102,2080,2066,2066,2053,2053,2026,2006,2006,1980,1980,1955,1931,1931,1913,1913,1901,1889,1889,1878,1878,1867,1855,1855,1844,1833,1833,1823,1823,1812,1796,1796,1786,1786,1770,1760,1760,1745,1731,1731,1712,1712,1697,1684,1684,1665,1665,1652,1639,1639,1626,1626,1617,1605,1605,1601,1601,1597,1597,1597,1592,1588,1588,1584,1584,1584,1584,1588,1588,1588,1592,1592,1597,1626,1626,1656,1693,1693,1726,1765,1765,1786,1801,1796,1796,1791,1760,1760,1726
0,0,0,0,0,0,0,0,0,0,0,0,0,0,0,0,0,0,0,0,0,0,0,0,0,0,0,0,0,0,0,0,0,0,0,0,0,0,0,0,0,0,0,0,0,0,0,0,0,0,0,0,0,0,0,0,0,0,0,0,0,0,0,0,0,0,0,0,0,0,0,0,0,0,0,0,0,0,0,0,0,0,0,0,0,0,0,0,0,0,0,0,0,0,0,0,0,0,0,0,0,0,0,0,0,0,0,0,0,0,0,0,0,0,0,0,0,0,0,0,0,0,0,0,0,0,0,0,0,0,0,0,0,0,0,0,0,0,0,0,0,0,0,0,0,0,0,0,0,0,0,0,0,0,0,0,0,0,0,0,0,0,0,0,0,0,0,0,0,0,0,0,0,0,0,0,0,0,0,0,0,0,0,0,0,0,0,0,0,0,0,2686,2686,2675,2675,2675,2675,2675,2675,2675,2686,2686,2698,2710,2710,2710,2710,2722,2734,2734,2758,2771,2771,2783,2796,2796,2808,2808,2808,2834,2834,2860,2874,2874,2874,2874,2887,2901,2901,2901,2901,2901,2901,2901,2901,2901,2901,2901,2901,2887,2887,2887,2887,2887,2887,2887,2887,2887,2887,2901,2901,2901,2901,2901,2914,2914,2914,2928,2928,2942,2942,2942,2956,2956,2970,2970,2970,2985,2985,2985,2985,2985,2985,2985,2985,2985,2985,2970,2970,2970,2970,2970,2956,2956,2942,2942,2942,2942,2942,2942,2942,2956,2956,2956,2956,2956,2956,2956,2956,2956,2956,2956,2956,2956,2956,2956,2956,2956,2942,2942,2942,2942,2942,2942,2942,2942,2928,2928,2928,2914,2914,2914,2914,2914,2914,2901,2901,2901,2901,2901,2901,2901,2887,2887,2887,2887,2887,2887,2887,2887,2887,2887,2887,2887,2901,2901,2901,2901,2901,2914,2914,2914,2914,2914,2914,2914,2914,2914,2914,2914,2901,2901,2901,2901,2901,2901,2901,2901,2901,2914,2914,2914,2914,2914,2914,2914,2928,2928,2928,2928,2928,2942,2942,2942,2956,2970,2970,2970,2970,2970,2985,2985,2985,2985,2970,2956,2956,2956,2956,2956,2956,2956,2942,2942,2928,2914,2914,2887,2887,2887,2874,2874,2860,2860,2860,2847,2834,2834,2834,2847,2847,2847,2847,2834,2834,2847,2847,2847,2847,2834,2834,2821,2821,2821,2808,2808,2783,2758,2758,2734,2734,2722,2698,2698,2686,2663,2663,2652,2652,2640,2640,2640,2629,2629,2629,2629,2629,2629,2629,2629,2629,2629,2629,2629,2629,2629,2629,2629,2629,2629,2629,2629,2629,2629,2640,2640,2640,2640,2640,2629,2629,2629,2629,2629,2618,2618,2618,2607,2607,2607,2596,2596,2585,2585,2585,2574,2574,2564,2564,2564,2553,2553,2553,2543,2543,2543,2553,2553,2553,2543,2543,2522,2522,2512,2491,2491,2471,2471,2442,2414,2414,2395,2395,2367,2340,2340,2314,2297,2297,2280,2280,2272,2255,2255,2239,2239,2215,2199,2199,2176,2160,2160,2145,2145,2138,2123,2123,2116,2116,2109,2102,2102,2080,2066,2066,2053,2053,2026,2006,2006,1980,1980,1955,1931,1931,1913,1913,1901,1889,1889,1878,1878,1867,1855,1855,1844,1833,1833,1823,1823,1812,1796,1796,1786,1786,1770,1760,1760,1745,1731,1731,1712,1712,1697,1684,1684,1670,1670,1652,1639,1639,1630,1630,1617,1609,1609,1605,1601,1601,1597,1597,1592,1592,1592,1588,1588,1588,1588,1588,1588,1592,1592,1592,1597,1626,1626,1656,1693,1693,1726,1765,1765,1786,1801,1796,1796,1791,1791,0,0
0,0,0,0,0,0,0,0,0,0,0,0,0,0,0,0,0,0,0,0,0,0,0,0,0,0,0,0,0,0,0,0,0,0,0,0,0,0,0,0,0,0,0,0,0,0,0,0,0,0,0,0,0,0,0,0,0,0,0,0,0,0,0,0,0,0,0,0,0,0,0,0,0,0,0,0,0,0,0,0,0,0,0,0,0,0,0,0,0,0,0,0,0,0,0,0,0,0,0,0,0,0,0,0,0,0,0,0,0,0,0,0,0,0,0,0,0,0,0,0,0,0,0,0,0,0,0,0,0,0,0,0,0,0,0,0,0,0,0,0,0,0,0,0,0,0,0,0,0,0,0,0,0,0,0,0,0,0,0,0,0,0,0,0,0,0,0,0,0,0,0,0,0,0,0,0,0,0,0,0,0,0,0,0,0,0,0,0,0,0,0,2686,2686,2675,2675,2675,2675,2686,2675,2675,2686,2686,2698,2710,2710,2710,2710,2722,2746,2746,2758,2771,2771,2783,2796,2796,2808,2808,2808,2821,2821,2860,2860,2860,2874,2874,2887,2901,2901,2901,2901,2901,2901,2901,2901,2901,2901,2901,2901,2887,2887,2887,2887,2887,2887,2887,2887,2887,2887,2901,2901,2901,2901,2901,2914,2914,2914,2928,2928,2942,2942,2942,2956,2956,2970,2970,2970,2985,2985,2985,2985,2985,2985,2985,2985,2985,2985,2970,2970,2970,2970,2970,2970,2970,2970,2970,2970,2956,2956,2956,2956,2956,2956,2956,2956,2956,2956,2956,2956,2956,2956,2956,2956,2956,2956,2956,2956,2956,2942,2942,2942,2942,2942,2942,2942,2942,2928,2928,2928,2914,2914,2914,2914,2914,2914,2901,2901,2901,2901,2901,2901,2901,2887,2887,2887,2887,2887,2887,2887,2887,2887,2887,2887,2887,2901,2901,2901,2901,2901,2914,2914,2914,2914,2914,2914,2914,2914,2914,2914,2914,2914,2914,2901,2901,2901,2914,2914,2914,2914,2914,2914,2914,2914,2914,2914,2914,2928,2928,2928,2928,2942,2942,2942,2942,2956,2970,2970,2970,2970,2970,2985,2985,2985,2985,2970,2956,2956,2956,2956,2956,2956,2956,2942,2942,2942,2928,2928,2914,2887,2887,2874,2874,2860,2860,2860,2847,2834,2834,2834,2847,2847,2847,2847,2834,2834,2847,2847,2847,2847,2834,2834,2821,2821,2821,2808,2808,2783,2758,2758,2734,2722,2722,2698,2698,2686,2675,2675,2663,2663,2652,2652,2652,2652,2640,2640,2640,2640,2640,2629,2629,2629,2629,2629,2629,2629,2629,2629,2629,2629,2629,2640,2640,2640,2640,2640,2640,2640,2640,2640,2629,2629,2629,2629,2629,2629,2618,2618,2607,2607,2607,2596,2596,2585,2585,2585,2574,2574,2564,2564,2564,2553,2553,2553,2553,2553,2553,2553,2553,2553,2543,2543,2522,2522,2512,2491,2491,2462,2462,2442,2414,2414,2395,2367,2367,2340,2340,2314,2297,2297,2280,2280,2272,2255,2255,2231,2231,2207,2191,2191,2176,2153,2153,2145,2145,2131,2123,2123,2116,2116,2109,2102,2102,2080,2066,2066,2053,2053,2026,2006,2006,1980,1980,1955,1931,1931,1913,1913,1907,1895,1895,1878,1878,1867,1855,1855,1844,1833,1833,1823,1823,1812,1796,1796,1786,1786,1770,1760,1760,1745,1731,1731,1716,1716,1702,1684,1684,1670,1670,1652,1643,1643,1630,1630,1617,1609,1609,1605,1601,1601,1597,1597,1592,1592,1592,1588,1588,1588,1588,1588,1588,1592,1592,1592,1597,1626,1626,1656,1693,1693,1726,1765,1765,1786,1801,1796,1796,1791,1791,0,0
0,0,0,0,0,0,0,0,0,0,0,0,0,0,0,0,0,0,0,0,0,0,0,0,0,0,0,0,0,0,0,0,0,0,0,0,0,0,0,0,0,0,0,0,0,0,0,0,0,0,0,0,0,0,0,0,0,0,0,0,0,0,0,0,0,0,0,0,0,0,0,0,0,0,0,0,0,0,0,0,0,0,0,0,0,0,0,0,0,0,0,0,0,0,0,0,0,0,0,0,0,0,0,0,0,0,0,0,0,0,0,0,0,0,0,0,0,0,0,0,0,0,0,0,0,0,0,0,0,0,0,0,0,0,0,0,0,0,0,0,0,0,0,0,0,0,0,0,0,0,0,0,0,0,0,0,0,0,0,0,0,0,0,0,0,0,0,0,0,0,0,0,0,0,0,0,0,0,0,0,0,0,0,0,0,0,0,0,0,0,0,2686,2686,2675,2675,2675,2675,2686,2675,2675,2686,2686,2698,2710,2710,2710,2710,2722,2746,2746,2746,2771,2771,2783,2796,2796,2808,2808,2808,2821,2821,2860,2860,2860,2887,2901,2901,2901,2901,2901,2901,2901,2901,2901,2901,2901,2901,2901,2901,2901,2901,2901,2887,2887,2887,2887,2887,2887,2901,2901,2901,2901,2901,2901,2914,2914,2914,2928,2928,2942,2942,2942,2956,2956,2970,2970,2970,2985,2985,2985,2985,2985,2985,2985,2985,2985,2985,2970,2970,2970,2970,2970,2970,2970,2970,2970,2970,2956,2956,2956,2956,2956,2956,2956,2956,2956,2956,2956,2956,2956,2956,2956,2956,2956,2956,2956,2956,2956,2942,2942,2942,2942,2942,2942,2942,2942,2942,2928,2928,2928,2928,2928,2928,2928,2928,2928,2928,2928,2928,2928,2928,2928,2928,2928,2928,2914,2914,2914,2914,2914,2914,2914,2914,2914,2914,2914,2914,2914,2914,2928,2928,2914,2914,2914,2914,2914,2914,2914,2914,2914,2914,2914,2914,2914,2914,2914,2914,2914,2914,2928,2928,2928,2914,2914,2914,2914,2928,2928,2928,2928,2942,2942,2942,2942,2942,2956,2956,2956,2956,2956,2970,2970,2970,2970,2956,2956,2956,2956,2956,2956,2942,2942,2942,2928,2928,2914,2914,2914,2901,2901,2901,2887,2887,2887,2887,2874,2874,2874,2874,2874,2860,2860,2860,2860,2860,2860,2860,2860,2847,2847,2847,2834,2821,2821,2821,2821,2796,2771,2771,2746,2722,2722,2710,2710,2686,2675,2675,2663,2663,2652,2652,2652,2652,2640,2640,2640,2640,2640,2640,2640,2629,2629,2629,2629,2629,2629,2629,2629,2629,2640,2640,2640,2640,2640,2640,2640,2640,2640,2640,2629,2629,2629,2629,2629,2618,2618,2618,2607,2607,2607,2596,2596,2585,2585,2585,2574,2574,2564,2564,2564,2553,2553,2553,2553,2553,2553,2553,2553,2553,2543,2543,2532,2532,2512,2491,2491,2462,2462,2442,2414,2414,2395,2367,2367,2340,2340,2314,2297,2297,2280,2280,2272,2247,2247,2231,2231,2207,2191,2191,2176,2153,2153,2145,2145,2131,2123,2123,2116,2116,2109,2102,2102,2080,2066,2066,2053,2053,2032,2006,2006,1980,1980,1961,1937,1937,1919,1919,1907,1895,1895,1878,1867,1867,1855,1855,1844,1833,1833,1823,1823,1812,1796,1796,1786,1786,1770,1760,1760,1745,1731,1731,1716,1716,1702,1684,1684,1670,1670,1652,1643,1643,1630,1630,1617,1609,1609,1605,1601,1601,1597,1597,1597,1592,1592,1592,1592,1592,1588,1588,1588,1592,1597,1597,1601,1626,1626,1656,1693,1693,1731,1765,1765,1786,1801,1796,1796,1791,1791,0,0
0,0,0,0,0,0,0,0,0,0,0,0,0,0,0,0,0,0,0,0,0,0,0,0,0,0,0,0,0,0,0,0,0,0,0,0,0,0,0,0,0,0,0,0,0,0,0,0,0,0,0,0,0,0,0,0,0,0,0,0,0,0,0,0,0,0,0,0,0,0,0,0,0,0,0,0,0,0,0,0,0,0,0,0,0,0,0,0,0,0,0,0,0,0,0,0,0,0,0,0,0,0,0,0,0,0,0,0,0,0,0,0,0,0,0,0,0,0,0,0,0,0,0,0,0,0,0,0,0,0,0,0,0,0,0,0,0,0,0,0,0,0,0,0,0,0,0,0,0,0,0,0,0,0,0,0,0,0,0,0,0,0,0,0,0,0,0,0,0,0,0,0,0,0,0,0,0,0,0,0,0,0,0,0,0,0,0,0,0,0,0,2698,2698,2686,2675,2675,2675,2686,2675,2675,2686,2686,2698,2710,2710,2722,2734,2734,2746,2746,2746,2771,2771,2796,2808,2808,2821,2821,2821,2834,2834,2860,2874,2874,2901,2914,2914,2914,2914,2928,2928,2914,2914,2914,2901,2901,2901,2901,2901,2901,2901,2901,2887,2887,2887,2887,2887,2887,2901,2901,2901,2901,2901,2901,2914,2914,2914,2928,2928,2928,2928,2942,2956,2956,2956,2970,2970,2985,2985,2985,2985,2985,2985,2985,2985,2985,2985,2985,2985,2985,2970,2970,2970,2970,2970,2970,2970,2970,2970,2970,2970,2970,2956,2956,2956,2956,2956,2956,2956,2956,2956,2956,2956,2956,2956,2956,2956,2956,2942,2942,2942,2942,2942,2942,2942,2942,2942,2942,2942,2928,2928,2928,2928,2928,2928,2928,2928,2928,2928,2928,2928,2928,2928,2928,2928,2914,2914,2914,2914,2914,2914,2914,2914,2914,2914,2914,2914,2914,2914,2928,2928,2914,2914,2914,2914,2914,2914,2914,2914,2914,2914,2914,2914,2914,2914,2914,2914,2914,2914,2928,2928,2928,2928,2928,2928,2928,2928,2942,2942,2942,2942,2942,2942,2942,2942,2956,2956,2956,2956,2956,2956,2956,2956,2956,2956,2956,2956,2956,2956,2956,2942,2942,2942,2928,2928,2914,2914,2914,2901,2901,2901,2887,2887,2887,2887,2874,2874,2874,2874,2874,2874,2874,2874,2860,2860,2860,2860,2860,2860,2847,2847,2834,2821,2821,2821,2821,2796,2771,2771,2746,2722,2722,2710,2710,2686,2675,2675,2663,2663,2652,2652,2652,2652,2640,2640,2640,2640,2629,2629,2640,2629,2629,2629,2629,2629,2629,2629,2629,2629,2640,2640,2640,2640,2640,2640,2640,2640,2652,2652,2640,2640,2640,2629,2629,2618,2618,2618,2618,2618,2607,2596,2596,2585,2585,2585,2574,2574,2574,2574,2574,2564,2564,2564,2553,2553,2553,2553,2553,2553,2543,2543,2532,2532,2512,2491,2491,2462,2462,2442,2414,2414,2395,2367,2367,2340,2340,2314,2297,2297,2280,2280,2272,2247,2247,2231,2231,2207,2183,2183,2168,2153,2153,2138,2138,2131,2116,2116,2109,2109,2102,2102,2102,2080,2066,2066,2053,2053,2032,2006,2006,1980,1980,1961,1937,1937,1919,1919,1907,1895,1895,1884,1867,1867,1855,1855,1850,1839,1839,1823,1823,1812,1801,1801,1786,1786,1770,1760,1760,1745,1731,1731,1712,1712,1702,1684,1684,1670,1670,1652,1643,1643,1630,1630,1622,1613,1613,1605,1601,1601,1601,1601,1597,1597,1597,1592,1592,1592,1592,1592,1592,1592,1597,1597,1601,1626,1626,1656,1693,1693,1731,1765,1765,1786,1801,1796,1796,1786,1755,1755,1755
0,0,0,0,0,0,0,0,0,0,0,0,0,0,0,0,0,0,0,0,0,0,0,0,0,0,0,0,0,0,0,0,0,0,0,0,0,0,0,0,0,0,0,0,0,0,0,0,0,0,0,0,0,0,0,0,0,0,0,0,0,0,0,0,0,0,0,0,0,0,0,0,0,0,0,0,0,0,0,0,0,0,0,0,0,0,0,0,0,0,0,0,0,0,0,0,0,0,0,0,0,0,0,0,0,0,0,0,0,0,0,0,0,0,0,0,0,0,0,0,0,0,0,0,0,0,0,0,0,0,0,0,0,0,0,0,0,0,0,0,0,0,0,0,0,0,0,0,0,0,0,0,0,0,0,0,0,0,0,0,0,0,0,0,0,0,0,0,0,0,0,0,0,0,0,0,0,0,0,0,0,0,0,0,0,0,0,0,0,0,0,2698,2698,2686,2686,2686,2686,2686,2675,2675,2686,2686,2698,2698,2698,2710,2734,2734,2746,2746,2746,2758,2758,2783,2796,2796,2808,2808,2808,2821,2821,2847,2874,2874,2887,2914,2914,2914,2914,2928,2928,2914,2914,2914,2914,2914,2914,2914,2914,2901,2901,2901,2901,2901,2901,2901,2901,2901,2901,2901,2901,2901,2901,2901,2901,2901,2914,2914,2914,2928,2928,2942,2956,2956,2956,2970,2970,2985,2985,2985,2985,2985,2985,2985,2985,2985,2985,2985,2985,2985,2985,2985,2985,2985,2970,2970,2970,2970,2970,2970,2970,2970,2970,2956,2956,2956,2956,2956,2956,2956,2956,2956,2956,2956,2956,2956,2956,2956,2942,2942,2942,2942,2942,2942,2942,2942,2942,2942,2942,2928,2928,2928,2928,2928,2928,2928,2928,2928,2928,2928,2928,2928,2928,2928,2928,2928,2928,2928,2928,2928,2928,2928,2928,2928,2928,2928,2928,2928,2928,2928,2928,2928,2928,2928,2928,2928,2928,2928,2928,2928,2914,2914,2914,2914,2928,2928,2928,2928,2928,2928,2928,2928,2928,2928,2928,2928,2942,2942,2942,2942,2942,2942,2942,2942,2942,2956,2956,2956,2956,2956,2956,2956,2956,2956,2956,2956,2956,2942,2942,2942,2942,2942,2928,2928,2928,2914,2914,2901,2901,2901,2887,2887,2887,2887,2887,2874,2874,2874,2874,2874,2874,2874,2874,2860,2860,2860,2860,2860,2860,2847,2847,2834,2821,2821,2821,2821,2783,2771,2771,2746,2722,2722,2698,2698,2686,2675,2675,2663,2663,2663,2652,2652,2652,2640,2640,2640,2640,2629,2629,2640,2629,2629,2629,2629,2629,2629,2629,2629,2629,2652,2652,2652,2652,2652,2652,2652,2652,2652,2652,2652,2652,2640,2629,2629,2618,2618,2618,2618,2618,2607,2596,2596,2585,2585,2585,2574,2574,2574,2574,2574,2564,2564,2564,2553,2553,2553,2553,2553,2553,2543,2543,2522,2522,2501,2491,2491,2462,2462,2442,2414,2414,2395,2367,2367,2340,2340,2314,2297,2297,2280,2280,2272,2247,2247,2223,2223,2199,2183,2183,2160,2145,2145,2138,2138,2131,2116,2116,2109,2109,2102,2094,2094,2080,2066,2066,2053,2053,2032,2006,2006,1987,1987,1961,1937,1937,1919,1919,1913,1901,1901,1884,1872,1872,1861,1861,1850,1839,1839,1828,1828,1812,1801,1801,1786,1786,1770,1760,1760,1745,1731,1731,1712,1712,1702,1684,1684,1670,1670,1652,1643,1643,1630,1630,1622,1613,1613,1605,1601,1601,1601,1601,1597,1597,1597,1592,1592,1592,1592,1592,1592,1592,1597,1597,1601,1626,1626,1656,1693,1693,1731,1765,1765,1786,1801,1796,1796,1786,1755,1755,1716
0,0,0,0,0,0,0,0,0,0,0,0,0,0,0,0,0,0,0,0,0,0,0,0,0,0,0,0,0,0,0,0,0,0,0,0,0,0,0,0,0,0,0,0,0,0,0,0,0,0,0,0,0,0,0,0,0,0,0,0,0,0,0,0,0,0,0,0,0,0,0,0,0,0,0,0,0,0,0,0,0,0,0,0,0,0,0,0,0,0,0,0,0,0,0,0,0,0,0,0,0,0,0,0,0,0,0,0,0,0,0,0,0,0,0,0,0,0,0,0,0,0,0,0,0,0,0,0,0,0,0,0,0,0,0,0,0,0,0,0,0,0,0,0,0,0,0,0,0,0,0,0,0,0,0,0,0,0,0,0,0,0,0,0,0,0,0,0,0,0,0,0,0,0,0,0,0,0,0,0,0,0,0,0,0,0,0,0,0,2722,2722,2698,2698,2686,2686,2686,2686,2686,2686,2686,2686,2686,2686,2698,2698,2710,2722,2722,2746,2746,2746,2758,2758,2783,2796,2796,2808,2808,2808,2821,2821,2847,2860,2860,2887,2914,2914,2928,2928,2928,2942,2928,2928,2928,2914,2914,2914,2914,2914,2914,2901,2901,2901,2901,2901,2901,2901,2901,2901,2901,2901,2901,2901,2901,2901,2901,2914,2914,2914,2928,2928,2942,2942,2942,2956,2970,2970,2970,2985,2985,2985,2985,2985,2985,2985,2985,2985,2985,2985,2985,2985,2985,2985,2985,2970,2970,2970,2970,2970,2970,2970,2970,2970,2956,2956,2956,2956,2956,2956,2956,2956,2956,2956,2956,2956,2956,2956,2956,2956,2942,2942,2942,2942,2942,2942,2942,2942,2942,2942,2942,2942,2942,2942,2942,2942,2942,2942,2928,2928,2928,2928,2942,2942,2942,2942,2928,2928,2928,2928,2928,2928,2928,2928,2928,2928,2928,2928,2928,2928,2928,2928,2928,2928,2928,2928,2928,2928,2928,2928,2928,2914,2914,2914,2914,2928,2928,2928,2928,2928,2928,2928,2928,2928,2928,2928,2928,2942,2942,2942,2942,2942,2942,2942,2942,2942,2956,2956,2956,2956,2956,2956,2956,2956,2956,2956,2942,2942,2942,2942,2942,2928,2928,2928,2914,2914,2901,2901,2901,2901,2901,2887,2887,2887,2887,2887,2874,2874,2874,2874,2874,2874,2860,2860,2860,2874,2874,2860,2860,2860,2847,2847,2847,2834,2834,2821,2821,2783,2771,2771,2746,2722,2722,2698,2698,2686,2675,2675,2663,2663,2663,2652,2652,2652,2652,2652,2640,2640,2640,2640,2640,2629,2629,2629,2629,2629,2629,2629,2629,2629,2652,2652,2652,2652,2652,2652,2652,2652,2652,2652,2652,2652,2640,2629,2629,2618,2618,2618,2618,2618,2607,2585,2585,2585,2585,2585,2574,2574,2574,2574,2574,2564,2553,2553,2553,2553,2553,2553,2553,2553,2532,2532,2522,2522,2501,2491,2491,2462,2462,2442,2414,2414,2395,2367,2367,2340,2340,2314,2297,2297,2280,2280,2272,2247,2247,2223,2223,2199,2183,2183,2160,2145,2145,2138,2138,2131,2123,2123,2116,2109,2109,2094,2094,2080,2066,2066,2053,2053,2032,2006,2006,1987,1987,1961,1937,1937,1919,1919,1913,1901,1901,1884,1872,1872,1861,1861,1850,1839,1839,1828,1828,1812,1801,1801,1786,1770,1770,1755,1755,1745,1731,1731,1712,1712,1702,1684,1684,1670,1670,1656,1643,1643,1630,1630,1622,1613,1613,1605,1601,1601,1601,1601,1601,1597,1597,1597,1592,1592,1592,1597,1592,1592,1601,1601,1605,1630,1630,1661,1697,1697,1736,1770,1770,1791,1807,1796,1796,1786,1755,1755,1716
0,0,0,0,0,0,0,0,0,0,0,0,0,0,0,0,0,0,0,0,0,0,0,0,0,0,0,0,0,0,0,0,0,0,0,0,0,0,0,0,0,0,0,0,0,0,0,0,0,0,0,0,0,0,0,0,0,0,0,0,0,0,0,0,0,0,0,0,0,0,0,0,0,0,0,0,0,0,0,0,0,0,0,0,0,0,0,0,0,0,0,0,0,0,0,0,0,0,0,0,0,0,0,0,0,0,0,0,0,0,0,0,0,0,0,0,0,0,0,0,0,0,0,0,0,0,0,0,0,0,0,0,0,0,0,0,0,0,0,0,0,0,0,0,0,0,0,0,0,0,0,0,0,0,0,0,0,0,0,0,0,0,0,0,0,0,0,0,0,0,0,0,0,0,0,0,0,0,0,0,0,0,0,0,0,0,0,0,0,2722,2722,2698,2698,2686,2686,2686,2686,2686,2686,2686,2686,2686,2686,2698,2698,2710,2722,2722,2746,2746,2746,2758,2758,2783,2796,2796,2808,2808,2808,2821,2821,2847,2860,2860,2887,2914,2914,2928,2928,2928,2942,2928,2928,2928,2914,2914,2914,2914,2914,2914,2901,2901,2901,2901,2901,2901,2901,2887,2887,2887,2887,2887,2887,2901,2901,2901,2901,2914,2914,2928,2928,2928,2942,2942,2956,2956,2956,2970,2970,2970,2985,2985,2985,2985,2985,2985,2985,2985,2985,2985,2985,2985,2985,2985,2985,2970,2970,2970,2970,2970,2970,2970,2970,2970,2970,2956,2956,2956,2956,2956,2956,2956,2956,2956,2956,2956,2956,2956,2956,2942,2942,2942,2942,2942,2942,2942,2942,2942,2942,2942,2942,2942,2942,2942,2942,2942,2942,2928,2928,2928,2928,2942,2942,2942,2942,2928,2928,2928,2928,2928,2928,2928,2928,2928,2928,2928,2928,2928,2928,2928,2928,2928,2928,2928,2928,2928,2928,2928,2928,2928,2928,2928,2928,2928,2928,2928,2928,2928,2928,2928,2928,2928,2942,2942,2942,2942,2942,2942,2942,2942,2942,2942,2942,2942,2942,2956,2956,2956,2956,2956,2956,2956,2956,2956,2956,2942,2942,2942,2942,2942,2928,2928,2928,2914,2914,2901,2901,2901,2901,2901,2901,2887,2887,2887,2887,2887,2874,2874,2874,2874,2874,2860,2860,2860,2860,2860,2860,2847,2847,2847,2847,2834,2821,2821,2796,2796,2783,2758,2758,2734,2710,2710,2698,2698,2686,2675,2675,2663,2663,2663,2652,2652,2652,2652,2652,2640,2640,2640,2640,2652,2640,2640,2640,2640,2640,2640,2640,2640,2640,2652,2652,2652,2652,2652,2652,2652,2652,2663,2663,2652,2640,2640,2629,2629,2618,2618,2618,2618,2618,2607,2585,2585,2585,2585,2585,2574,2574,2574,2574,2574,2564,2553,2553,2553,2553,2553,2553,2553,2553,2532,2532,2522,2522,2501,2491,2491,2462,2462,2442,2414,2414,2395,2367,2367,2340,2340,2314,2297,2297,2280,2280,2263,2239,2239,2215,2215,2199,2176,2176,2153,2145,2145,2131,2131,2123,2116,2116,2116,2109,2109,2094,2094,2080,2066,2066,2053,2053,2032,2013,2013,1987,1987,1968,1943,1943,1925,1919,1913,1901,1901,1889,1878,1878,1867,1867,1855,1844,1844,1828,1828,1817,1801,1801,1786,1770,1770,1755,1755,1745,1731,1731,1712,1712,1702,1684,1684,1670,1670,1656,1643,1643,1635,1635,1622,1613,1613,1605,1605,1605,1605,1605,1601,1597,1597,1597,1597,1597,1597,1597,1592,1592,1601,1601,1605,1630,1630,1661,1697,1697,1736,1770,1770,1791,1807,1796,1796,1786,1755,1755,1716
0,0,0,0,0,0,0,0,0,0,0,0,0,0,0,0,0,0,0,0,0,0,0,0,0,0,0,0,0,0,0,0,0,0,0,0,0,0,0,0,0,0,0,0,0,0,0,0,0,0,0,0,0,0,0,0,0,0,0,0,0,0,0,0,0,0,0,0,0,0,0,0,0,0,0,0,0,0,0,0,0,0,0,0,0,0,0,0,0,0,0,0,0,0,0,0,0,0,0,0,0,0,0,0,0,0,0,0,0,0,0,0,0,0,0,0,0,0,0,0,0,0,0,0,0,0,0,0,0,0,0,0,0,0,0,0,0,0,0,0,0,0,0,0,0,0,0,0,0,0,0,0,0,0,0,0,0,0,0,0,0,0,0,0,0,0,0,0,0,0,0,0,0,0,0,0,0,0,0,0,0,0,0,0,0,0,0,0,0,2698,2698,2686,2686,2675,2675,2686,2686,2686,2686,2686,2686,2686,2686,2698,2698,2710,2722,2722,2734,2734,2746,2758,2758,2771,2783,2783,2808,2808,2808,2821,2821,2847,2860,2860,2887,2914,2914,2928,2928,2928,2942,2942,2928,2928,2928,2928,2914,2914,2914,2914,2901,2901,2901,2901,2901,2901,2901,2887,2887,2887,2887,2887,2887,2901,2901,2901,2901,2914,2914,2928,2928,2928,2942,2942,2956,2956,2956,2970,2970,2970,2985,2985,2985,2985,2985,2985,2985,2985,2985,2985,2985,2985,2985,2985,2985,2970,2970,2970,2970,2970,2970,2970,2970,2970,2970,2956,2956,2956,2956,2956,2956,2956,2956,2956,2956,2956,2956,2942,2942,2942,2942,2942,2942,2942,2942,2942,2942,2942,2942,2942,2942,2942,2942,2942,2942,2942,2942,2942,2942,2942,2942,2942,2942,2942,2942,2942,2942,2942,2942,2942,2942,2942,2942,2928,2928,2928,2928,2928,2928,2928,2928,2928,2928,2928,2928,2928,2928,2928,2928,2928,2928,2928,2928,2928,2928,2928,2942,2942,2942,2942,2942,2942,2942,2942,2942,2942,2942,2942,2942,2942,2956,2956,2956,2956,2956,2956,2956,2956,2956,2956,2956,2956,2956,2956,2942,2942,2942,2942,2942,2928,2928,2928,2914,2914,2914,2901,2901,2901,2901,2901,2901,2887,2887,2874,2874,2874,2874,2874,2860,2860,2860,2847,2847,2834,2834,2834,2834,2834,2834,2834,2834,2821,2808,2808,2783,2783,2771,2746,2746,2722,2710,2710,2698,2698,2686,2675,2675,2663,2663,2663,2663,2663,2652,2652,2663,2652,2652,2652,2652,2663,2652,2652,2652,2652,2652,2652,2652,2652,2652,2663,2675,2675,2663,2663,2663,2663,2663,2663,2663,2652,2640,2640,2629,2629,2618,2618,2618,2607,2596,2596,2585,2585,2585,2574,2574,2574,2574,2574,2574,2574,2564,2553,2553,2553,2553,2553,2553,2553,2543,2532,2532,2522,2522,2501,2491,2491,2462,2442,2442,2414,2414,2395,2367,2367,2340,2340,2314,2288,2288,2280,2280,2255,2239,2239,2215,2191,2191,2168,2168,2153,2138,2138,2131,2131,2123,2116,2116,2116,2109,2109,2094,2094,2080,2066,2066,2053,2053,2039,2013,2013,1993,1993,1974,1949,1949,1931,1919,1919,1907,1907,1895,1878,1878,1867,1867,1855,1844,1844,1828,1828,1817,1801,1801,1786,1770,1770,1755,1755,1740,1726,1726,1712,1712,1702,1684,1684,1670,1670,1656,1643,1643,1630,1622,1622,1613,1613,1605,1605,1605,1601,1601,1601,1597,1597,1597,1597,1597,1597,1597,1597,1597,1601,1601,1609,1635,1635,1665,1702,1702,1736,1775,1775,1796,1812,1801,1801,1791,1755,1755,1721
0,0,0,0,0,0,0,0,0,0,0,0,0,0,0,0,0,0,0,0,0,0,0,0,0,0,0,0,0,0,0,0,0,0,0,0,0,0,0,0,0,0,0,0,0,0,0,0,0,0,0,0,0,0,0,0,0,0,0,0,0,0,0,0,0,0,0,0,0,0,0,0,0,0,0,0,0,0,0,0,0,0,0,0,0,0,0,0,0,0,0,0,0,0,0,0,0,0,0,0,0,0,0,0,0,0,0,0,0,0,0,0,0,0,0,0,0,0,0,0,0,0,0,0,0,0,0,0,0,0,0,0,0,0,0,0,0,0,0,0,0,0,0,0,0,0,0,0,0,0,0,0,0,0,0,0,0,0,0,0,0,0,0,0,0,0,0,0,0,0,0,0,0,0,0,0,0,0,0,0,0,0,0,0,0,0,0,0,0,2675,2675,2663,2663,2663,2663,2675,2675,2675,2686,2686,2686,2686,2686,2698,2698,2710,2722,2722,2734,2734,2734,2758,2758,2771,2783,2783,2808,2808,2808,2821,2821,2847,2860,2860,2887,2914,2914,2928,2928,2956,2956,2942,2928,2928,2928,2928,2928,2914,2914,2914,2914,2914,2901,2901,2901,2901,2901,2887,2887,2887,2887,2887,2887,2901,2901,2901,2901,2914,2914,2928,2928,2928,2942,2942,2956,2956,2956,2970,2970,2970,2985,2985,2985,2985,2985,2985,2985,2985,2985,2985,2985,2985,2985,2985,2985,2970,2970,2970,2970,2970,2970,2970,2970,2970,2970,2956,2956,2956,2956,2956,2956,2956,2956,2956,2956,2956,2956,2942,2942,2942,2942,2942,2942,2942,2942,2942,2942,2942,2942,2942,2942,2942,2942,2942,2942,2942,2942,2942,2942,2942,2942,2942,2942,2942,2942,2942,2942,2942,2942,2942,2942,2942,2942,2942,2928,2928,2928,2928,2928,2928,2928,2928,2928,2928,2928,2928,2928,2928,2928,2928,2928,2928,2928,2928,2928,2928,2942,2942,2942,2942,2942,2942,2942,2942,2942,2942,2942,2942,2942,2942,2956,2942,2942,2942,2942,2942,2942,2956,2956,2956,2956,2956,2942,2942,2942,2928,2928,2928,2928,2928,2914,2914,2914,2901,2901,2901,2901,2901,2887,2887,2887,2887,2887,2874,2874,2874,2874,2874,2860,2860,2860,2847,2847,2834,2834,2834,2834,2834,2834,2834,2834,2821,2808,2808,2783,2783,2771,2746,2746,2722,2710,2710,2698,2698,2686,2675,2675,2663,2663,2663,2663,2663,2652,2652,2663,2652,2652,2652,2652,2663,2652,2652,2652,2652,2652,2652,2652,2652,2652,2663,2675,2675,2663,2663,2663,2663,2663,2663,2663,2652,2640,2640,2629,2629,2618,2618,2618,2607,2596,2596,2585,2585,2574,2574,2574,2574,2574,2585,2574,2574,2564,2553,2553,2553,2553,2553,2553,2553,2543,2532,2532,2522,2522,2501,2491,2491,2471,2442,2442,2414,2414,2395,2367,2367,2340,2340,2314,2288,2288,2280,2280,2255,2239,2239,2215,2191,2191,2168,2168,2153,2138,2138,2131,2131,2123,2116,2116,2109,2109,2109,2094,2094,2080,2066,2066,2053,2053,2039,2013,2013,1993,1993,1974,1949,1949,1931,1919,1919,1907,1907,1895,1878,1878,1867,1867,1855,1844,1844,1828,1817,1817,1801,1801,1786,1770,1770,1755,1755,1740,1726,1726,1712,1712,1702,1684,1684,1670,1670,1656,1643,1643,1630,1622,1622,1613,1613,1609,1605,1605,1601,1601,1601,1597,1597,1597,1597,1597,1597,1597,1597,1601,1601,1601,1613,1639,1639,1674,1707,1707,1745,1781,1781,1801,1817,1807,1807,1791,1760,1760,1726
0,0,0,0,0,0,0,0,0,0,0,0,0,0,0,0,0,0,0,0,0,0,0,0,0,0,0,0,0,0,0,0,0,0,0,0,0,0,0,0,0,0,0,0,0,0,0,0,0,0,0,0,0,0,0,0,0,0,0,0,0,0,0,0,0,0,0,0,0,0,0,0,0,0,0,0,0,0,0,0,0,0,0,0,0,0,0,0,0,0,0,0,0,0,0,0,0,0,0,0,0,0,0,0,0,0,0,0,0,0,0,0,0,0,0,0,0,0,0,0,0,0,0,0,0,0,0,0,0,0,0,0,0,0,0,0,0,0,0,0,0,0,0,0,0,0,0,0,0,0,0,0,0,0,0,0,0,0,0,0,0,0,0,0,0,0,0,0,0,0,0,0,0,0,0,0,0,0,0,0,0,0,0,0,0,0,0,0,0,2675,2675,2663,2663,2663,2663,2675,2675,2675,2686,2686,2686,2686,2686,2698,2698,2710,2722,2722,2734,2734,2734,2758,2758,2771,2783,2783,2796,2808,2808,2821,2821,2847,2860,2860,2887,2914,2914,2928,2928,2956,2956,2942,2928,2928,2928,2928,2928,2914,2914,2914,2914,2914,2901,2901,2901,2901,2901,2901,2901,2901,2901,2901,2901,2901,2901,2901,2914,2914,2914,2928,2928,2928,2942,2942,2956,2956,2956,2970,2970,2970,2985,2985,2985,2985,2985,2985,2985,2985,2985,2985,2985,2985,2985,2985,2985,2985,2985,2985,2970,2970,2970,2970,2970,2970,2970,2970,2956,2956,2956,2956,2956,2956,2956,2956,2956,2956,2956,2956,2956,2942,2942,2942,2942,2942,2942,2942,2942,2942,2942,2942,2942,2942,2942,2942,2942,2942,2942,2942,2942,2942,2942,2942,2942,2942,2942,2942,2942,2942,2942,2942,2942,2942,2942,2942,2928,2928,2928,2928,2928,2928,2928,2928,2928,2928,2928,2928,2928,2928,2928,2928,2928,2928,2928,2928,2942,2942,2942,2942,2942,2942,2942,2942,2942,2942,2942,2942,2942,2942,2942,2956,2956,2942,2942,2942,2942,2942,2942,2956,2956,2956,2956,2956,2942,2942,2942,2928,2928,2928,2928,2928,2914,2914,2914,2901,2901,2901,2901,2901,2887,2887,2887,2887,2887,2874,2874,2874,2860,2860,2847,2847,2847,2834,2834,2821,2808,2808,2796,2796,2808,2796,2796,2783,2771,2771,2758,2758,2746,2734,2734,2722,2698,2698,2698,2698,2686,2675,2675,2663,2663,2663,2663,2663,2663,2663,2663,2663,2663,2663,2663,2675,2663,2663,2675,2675,2663,2663,2663,2675,2675,2686,2686,2686,2675,2675,2675,2675,2675,2675,2675,2663,2652,2652,2629,2629,2618,2618,2618,2607,2596,2596,2585,2585,2574,2574,2574,2574,2574,2585,2574,2574,2564,2553,2553,2553,2553,2553,2553,2553,2543,2532,2532,2522,2522,2501,2491,2491,2471,2442,2442,2414,2414,2395,2367,2367,2340,2340,2314,2288,2288,2272,2272,2255,2231,2231,2207,2183,2183,2168,2168,2153,2131,2131,2123,2123,2123,2116,2116,2109,2102,2102,2094,2094,2080,2066,2066,2053,2053,2039,2019,2019,1993,1980,1974,1955,1955,1937,1925,1925,1913,1913,1895,1884,1884,1872,1872,1861,1844,1844,1833,1817,1817,1801,1801,1786,1770,1770,1755,1755,1740,1726,1726,1712,1712,1702,1684,1684,1670,1670,1656,1643,1643,1630,1622,1622,1613,1613,1609,1605,1605,1601,1601,1601,1597,1597,1597,1597,1597,1597,1597,1597,1601,1601,1601,1613,1639,1639,1674,1707,1707,1745,1781,1781,1801,1817,1807,1796,1791,1760,1760,1726
0,0,0,0,0,0,0,0,0,0,0,0,0,0,0,0,0,0,0,0,0,0,0,0,0,0,0,0,0,0,0,0,0,0,0,0,0,0,0,0,0,0,0,0,0,0,0,0,0,0,0,0,0,0,0,0,0,0,0,0,0,0,0,0,0,0,0,0,0,0,0,0,0,0,0,0,0,0,0,0,0,0,0,0,0,0,0,0,0,0,0,0,0,0,0,0,0,0,0,0,0,0,0,0,0,0,0,0,0,0,0,0,0,0,0,0,0,0,0,0,0,0,0,0,0,0,0,0,0,0,0,0,0,0,0,0,0,0,0,0,0,0,0,0,0,0,0,0,0,0,0,0,0,0,0,0,0,0,0,0,0,0,0,0,0,0,0,0,0,0,0,0,0,0,0,0,0,0,0,0,0,0,0,0,0,0,0,0,2652,2652,2652,2652,2652,2652,2652,2663,2663,2675,2686,2686,2686,2686,2686,2698,2698,2710,2722,2722,2734,2734,2734,2758,2758,2771,2783,2783,2796,2821,2821,2834,2834,2847,2874,2874,2901,2914,2914,2942,2942,2956,2970,2956,2942,2942,2942,2942,2928,2928,2928,2928,2914,2914,2914,2914,2914,2901,2901,2901,2901,2901,2901,2901,2901,2901,2901,2901,2914,2914,2914,2928,2942,2942,2942,2942,2956,2970,2970,2970,2970,2970,2985,2985,2985,2985,2985,2985,2985,2985,2985,2985,2985,2985,2985,2985,2985,2985,2985,2985,2970,2970,2970,2970,2970,2970,2970,2970,2956,2956,2956,2956,2956,2956,2956,2956,2956,2956,2956,2956,2956,2956,2956,2956,2956,2956,2942,2942,2942,2942,2942,2942,2942,2942,2942,2942,2942,2942,2942,2942,2942,2942,2942,2942,2942,2942,2942,2942,2942,2942,2942,2942,2942,2942,2942,2942,2942,2942,2942,2942,2942,2942,2942,2942,2942,2942,2942,2942,2942,2942,2942,2942,2942,2942,2942,2942,2942,2942,2942,2942,2942,2942,2942,2942,2942,2942,2942,2942,2942,2942,2942,2956,2956,2942,2942,2942,2942,2942,2942,2956,2956,2942,2942,2942,2942,2942,2928,2928,2928,2928,2928,2914,2914,2914,2901,2901,2901,2901,2901,2901,2887,2887,2887,2887,2887,2874,2874,2874,2847,2847,2834,2834,2834,2808,2808,2808,2808,2808,2796,2783,2783,2783,2783,2771,2771,2771,2746,2746,2746,2734,2734,2722,2698,2698,2698,2698,2686,2675,2675,2663,2663,2663,2663,2663,2663,2663,2675,2675,2675,2675,2675,2675,2675,2675,2686,2675,2675,2675,2675,2686,2686,2698,2698,2686,2675,2675,2675,2675,2675,2675,2675,2663,2652,2652,2629,2629,2618,2607,2607,2596,2585,2585,2585,2585,2574,2574,2574,2574,2574,2585,2574,2574,2564,2553,2553,2553,2553,2553,2543,2543,2543,2532,2532,2522,2522,2501,2491,2491,2471,2442,2442,2423,2423,2395,2367,2367,2340,2340,2314,2288,2288,2272,2272,2247,2223,2223,2207,2183,2183,2168,2168,2153,2131,2131,2123,2123,2123,2116,2116,2109,2102,2102,2094,2094,2080,2066,2066,2060,2060,2039,2019,2019,2000,1980,1980,1955,1955,1943,1931,1931,1913,1913,1895,1884,1884,1872,1872,1861,1844,1844,1833,1817,1817,1801,1801,1786,1770,1770,1755,1755,1740,1726,1726,1712,1712,1702,1684,1684,1670,1670,1656,1643,1643,1630,1622,1622,1613,1613,1609,1605,1605,1601,1601,1601,1601,1601,1597,1597,1601,1601,1601,1601,1601,1605,1605,1622,1652,1652,1684,1716,1716,1755,1791,1791,1812,1823,1812,1796,1796,1765,1765,1731
0,0,0,0,0,0,0,0,0,0,0,0,0,0,0,0,0,0,0,0,0,0,0,0,0,0,0,0,0,0,0,0,0,0,0,0,0,0,0,0,0,0,0,0,0,0,0,0,0,0,0,0,0,0,0,0,0,0,0,0,0,0,0,0,0,0,0,0,0,0,0,0,0,0,0,0,0,0,0,0,0,0,0,0,0,0,0,0,0,0,0,0,0,0,0,0,0,0,0,0,0,0,0,0,0,0,0,0,0,0,0,0,0,0,0,0,0,0,0,0,0,0,0,0,0,0,0,0,0,0,0,0,0,0,0,0,0,0,0,0,0,0,0,0,0,0,0,0,0,0,0,0,0,0,0,0,0,0,0,0,0,0,0,0,0,0,0,0,0,0,0,0,0,0,0,0,0,0,0,0,0,0,0,0,0,0,0,0,2629,2629,2640,2640,2640,2640,2652,2663,2663,2675,2686,2686,2686,2686,2686,2698,2698,2722,2734,2734,2734,2734,2746,2758,2758,2771,2783,2783,2808,2821,2821,2834,2834,2860,2874,2874,2901,2914,2914,2942,2970,2970,2970,2970,2942,2942,2942,2942,2928,2928,2928,2928,2914,2914,2914,2914,2914,2901,2901,2901,2901,2901,2901,2901,2901,2901,2901,2901,2914,2914,2914,2928,2942,2942,2942,2942,2956,2970,2970,2970,2970,2970,2970,2970,2985,2985,2985,2985,2985,2985,2985,2985,2985,2985,2985,2985,2985,2985,2985,2985,2985,2985,2985,2970,2970,2970,2970,2970,2970,2970,2970,2956,2956,2956,2956,2956,2956,2956,2956,2956,2956,2956,2956,2956,2956,2956,2956,2956,2956,2956,2956,2942,2942,2942,2942,2942,2956,2956,2956,2956,2956,2956,2956,2956,2956,2956,2956,2942,2942,2942,2942,2942,2942,2942,2942,2942,2942,2942,2942,2942,2942,2942,2942,2942,2942,2942,2942,2942,2942,2942,2942,2942,2942,2942,2942,2942,2942,2942,2942,2942,2942,2942,2942,2942,2942,2942,2956,2956,2956,2956,2956,2956,2956,2956,2956,2956,2956,2956,2956,2956,2956,2942,2942,2942,2942,2942,2928,2928,2928,2914,2914,2914,2914,2914,2901,2901,2901,2901,2901,2901,2901,2901,2901,2901,2901,2887,2887,2874,2847,2847,2834,2834,2834,2808,2808,2808,2808,2808,2796,2783,2783,2783,2783,2771,2771,2771,2746,2746,2734,2722,2722,2710,2698,2698,2686,2686,2686,2675,2675,2663,2663,2663,2663,2663,2663,2663,2675,2675,2675,2675,2675,2675,2675,2675,2686,2675,2675,2675,2675,2686,2686,2698,2698,2698,2686,2686,2686,2686,2686,2675,2675,2675,2652,2652,2629,2629,2618,2607,2607,2596,2585,2585,2574,2574,2564,2564,2574,2574,2574,2574,2574,2574,2564,2553,2553,2553,2553,2553,2543,2543,2543,2532,2532,2522,2522,2501,2491,2491,2471,2452,2452,2423,2423,2404,2376,2376,2340,2340,2314,2288,2288,2272,2272,2247,2223,2223,2199,2183,2183,2168,2168,2145,2131,2131,2123,2123,2123,2116,2116,2109,2102,2102,2094,2094,2080,2066,2066,2060,2060,2039,2019,2019,2000,1980,1980,1955,1955,1943,1931,1931,1913,1913,1901,1889,1889,1872,1872,1861,1850,1850,1833,1817,1817,1801,1801,1786,1770,1770,1755,1755,1740,1726,1726,1712,1712,1702,1684,1684,1670,1670,1656,1643,1643,1635,1622,1622,1617,1617,1609,1605,1605,1601,1601,1601,1601,1601,1597,1597,1601,1601,1601,1605,1605,1613,1613,1630,1661,1661,1688,1726,1726,1765,1801,1801,1812,1823,1812,1796,1796,1765,1765,1731
0,0,0,0,0,0,0,0,0,0,0,0,0,0,0,0,0,0,0,0,0,0,0,0,0,0,0,0,0,0,0,0,0,0,0,0,0,0,0,0,0,0,0,0,0,0,0,0,0,0,0,0,0,0,0,0,0,0,0,0,0,0,0,0,0,0,0,0,0,0,0,0,0,0,0,0,0,0,0,0,0,0,0,0,0,0,0,0,0,0,0,0,0,0,0,0,0,0,0,0,0,0,0,0,0,0,0,0,0,0,0,0,0,0,0,0,0,0,0,0,0,0,0,0,0,0,0,0,0,0,0,0,0,0,0,0,0,0,0,0,0,0,0,0,0,0,0,0,0,0,0,0,0,0,0,0,0,0,0,0,0,0,0,0,0,0,0,0,0,0,0,0,0,0,0,0,0,0,0,0,0,0,0,0,0,0,0,0,2629,2629,2640,2640,2640,2640,2652,2663,2663,2686,2686,2686,2686,2686,2686,2698,2698,2722,2734,2734,2734,2734,2746,2758,2758,2771,2783,2783,2808,2821,2821,2834,2834,2860,2874,2874,2901,2914,2914,2942,2970,2970,2970,2970,2942,2942,2942,2942,2942,2928,2928,2928,2914,2914,2914,2914,2914,2914,2914,2901,2901,2901,2901,2901,2901,2901,2914,2914,2914,2928,2928,2928,2942,2942,2942,2942,2956,2970,2970,2970,2970,2970,2970,2970,2985,2985,2985,2985,2985,2985,2985,2985,2985,2985,2985,2985,2985,2985,2985,2985,2985,2985,2985,2970,2970,2970,2970,2970,2970,2970,2970,2956,2956,2956,2956,2956,2956,2956,2956,2956,2956,2956,2956,2956,2956,2956,2956,2956,2956,2956,2956,2942,2942,2942,2942,2942,2956,2956,2956,2956,2956,2956,2956,2956,2956,2956,2956,2956,2956,2956,2942,2942,2942,2942,2942,2942,2942,2942,2942,2942,2942,2942,2942,2942,2942,2942,2942,2942,2942,2942,2942,2942,2942,2942,2942,2942,2942,2942,2942,2942,2956,2956,2956,2956,2956,2956,2956,2956,2956,2956,2956,2956,2956,2956,2956,2956,2956,2956,2956,2956,2956,2942,2942,2942,2942,2942,2928,2928,2928,2914,2914,2914,2914,2914,2901,2901,2901,2901,2901,2901,2901,2901,2901,2901,2901,2887,2887,2874,2847,2847,2834,2834,2834,2808,2808,2796,2783,2783,2771,2771,2771,2758,2758,2746,2746,2746,2734,2734,2722,2722,2722,2710,2698,2698,2686,2686,2675,2675,2675,2663,2663,2675,2675,2675,2675,2675,2675,2675,2675,2686,2686,2686,2686,2686,2686,2686,2686,2686,2686,2686,2686,2698,2710,2698,2698,2698,2686,2686,2686,2686,2686,2675,2652,2652,2629,2629,2618,2607,2607,2596,2585,2585,2574,2574,2564,2564,2574,2574,2574,2574,2564,2564,2553,2543,2543,2543,2543,2543,2543,2543,2543,2532,2532,2512,2512,2501,2491,2491,2471,2452,2452,2423,2423,2404,2376,2376,2340,2340,2314,2288,2288,2272,2272,2247,2223,2223,2199,2176,2176,2160,2160,2145,2131,2131,2123,2123,2123,2116,2116,2109,2102,2102,2094,2094,2080,2066,2066,2060,2046,2039,2019,2019,2000,1980,1980,1961,1961,1943,1937,1937,1919,1919,1907,1889,1889,1878,1878,1861,1850,1850,1833,1817,1817,1801,1801,1786,1770,1770,1755,1755,1740,1726,1726,1712,1712,1702,1684,1684,1670,1670,1656,1643,1643,1635,1622,1622,1617,1617,1609,1605,1605,1601,1601,1601,1601,1601,1597,1597,1601,1601,1601,1605,1605,1613,1613,1630,1661,1661,1688,1726,1726,1765,1801,1801,1817,1833,1817,1796,1796,1770,1770,1736
0,0,0,0,0,0,0,0,0,0,0,0,0,0,0,0,0,0,0,0,0,0,0,0,0,0,0,0,0,0,0,0,0,0,0,0,0,0,0,0,0,0,0,0,0,0,0,0,0,0,0,0,0,0,0,0,0,0,0,0,0,0,0,0,0,0,0,0,0,0,0,0,0,0,0,0,0,0,0,0,0,0,0,0,0,0,0,0,0,0,0,0,0,0,0,0,0,0,0,0,0,0,0,0,0,0,0,0,0,0,0,0,0,0,0,0,0,0,0,0,0,0,0,0,0,0,0,0,0,0,0,0,0,0,0,0,0,0,0,0,0,0,0,0,0,0,0,0,0,0,0,0,0,0,0,0,0,0,0,0,0,0,0,0,0,0,0,0,0,0,0,0,0,0,0,0,0,0,0,0,0,0,0,0,0,0,2585,2585,2585,2607,2607,2607,2629,2629,2640,2663,2663,2686,2686,2686,2686,2686,2698,2710,2710,2734,2734,2734,2746,2746,2758,2771,2771,2783,2796,2796,2821,2821,2821,2847,2847,2860,2874,2874,2901,2914,2914,2942,2970,2970,2970,2970,2956,2956,2956,2956,2956,2942,2942,2942,2942,2942,2928,2914,2914,2914,2914,2914,2914,2914,2914,2914,2914,2914,2914,2914,2914,2928,2928,2928,2942,2942,2942,2942,2956,2970,2970,2970,2970,2970,2970,2970,2985,2985,2985,2985,2985,2985,2985,2985,2985,2985,2985,2985,2985,2985,2985,2985,2985,2985,2985,2970,2970,2970,2970,2970,2970,2970,2970,2970,2970,2970,2970,2956,2956,2956,2956,2956,2956,2956,2956,2956,2956,2956,2956,2956,2956,2956,2956,2956,2956,2956,2956,2956,2956,2956,2956,2956,2956,2956,2956,2956,2956,2956,2956,2956,2956,2956,2956,2942,2942,2942,2942,2942,2942,2942,2942,2942,2942,2942,2956,2942,2942,2942,2942,2956,2956,2956,2956,2956,2942,2942,2942,2942,2942,2942,2942,2942,2956,2956,2956,2956,2956,2956,2956,2956,2956,2956,2956,2956,2956,2956,2956,2956,2956,2956,2956,2942,2942,2942,2942,2942,2928,2928,2928,2914,2914,2914,2914,2914,2901,2901,2901,2901,2901,2901,2901,2901,2901,2901,2901,2901,2901,2887,2887,2860,2847,2847,2834,2808,2808,2796,2796,2796,2783,2783,2771,2771,2771,2758,2758,2746,2746,2746,2734,2734,2722,2722,2722,2710,2698,2698,2698,2698,2675,2675,2686,2675,2675,2675,2675,2675,2675,2675,2675,2675,2675,2686,2686,2686,2686,2686,2686,2686,2686,2686,2686,2686,2686,2698,2710,2698,2698,2698,2686,2686,2686,2675,2675,2663,2652,2652,2629,2629,2607,2596,2596,2585,2574,2574,2564,2564,2564,2564,2564,2564,2564,2564,2564,2564,2543,2543,2543,2532,2532,2543,2543,2543,2532,2532,2532,2512,2501,2501,2491,2491,2481,2452,2452,2433,2433,2404,2376,2376,2349,2349,2314,2288,2288,2272,2272,2247,2223,2223,2199,2176,2176,2160,2160,2145,2131,2131,2123,2123,2123,2116,2116,2109,2109,2109,2094,2094,2080,2066,2066,2066,2046,2039,2019,2019,2000,1980,1980,1961,1961,1943,1937,1937,1919,1919,1907,1889,1889,1878,1878,1861,1850,1850,1833,1817,1817,1801,1801,1786,1770,1770,1755,1755,1740,1726,1726,1712,1712,1702,1684,1684,1670,1656,1656,1648,1648,1635,1626,1626,1617,1617,1613,1605,1605,1605,1605,1605,1601,1601,1601,1601,1601,1601,1601,1605,1605,1617,1617,1635,1665,1665,1697,1736,1736,1770,1807,1807,1828,1844,1828,1807,1807,1775,1775,1745
0,0,0,0,0,0,0,0,0,0,0,0,0,0,0,0,0,0,0,0,0,0,0,0,0,0,0,0,0,0,0,0,0,0,0,0,0,0,0,0,0,0,0,0,0,0,0,0,0,0,0,0,0,0,0,0,0,0,0,0,0,0,0,0,0,0,0,0,0,0,0,0,0,0,0,0,0,0,0,0,0,0,0,0,0,0,0,0,0,0,0,0,0,0,0,0,0,0,0,0,0,0,0,0,0,0,0,0,0,0,0,0,0,0,0,0,0,0,0,0,0,0,0,0,0,0,0,0,0,0,0,0,0,0,0,0,0,0,0,0,0,0,0,0,0,0,0,0,0,0,0,0,0,0,0,0,0,0,0,0,0,0,0,0,0,0,0,0,0,0,0,0,0,0,0,0,0,0,0,0,0,0,0,0,0,0,2585,2585,2585,2607,2607,2607,2629,2629,2640,2663,2663,2686,2698,2698,2710,2710,2722,2734,2734,2746,2758,2758,2758,2771,2771,2771,2771,2796,2796,2796,2821,2834,2834,2860,2860,2874,2887,2887,2901,2914,2914,2942,2970,2970,2970,2970,2956,2956,2956,2956,2956,2942,2942,2942,2942,2942,2928,2914,2914,2914,2914,2914,2914,2914,2914,2914,2914,2914,2914,2914,2914,2928,2928,2928,2942,2942,2942,2942,2956,2970,2970,2970,2970,2970,2970,2970,2985,2985,2985,2985,2985,2985,2985,2985,2985,2985,2985,2985,2985,2985,2985,2985,2985,2985,2985,2985,2985,2970,2970,2970,2970,2970,2970,2970,2970,2970,2970,2970,2970,2970,2970,2956,2956,2956,2956,2956,2956,2956,2956,2956,2956,2956,2956,2956,2956,2956,2956,2956,2956,2956,2956,2956,2956,2956,2956,2956,2956,2956,2956,2956,2956,2956,2956,2942,2942,2942,2942,2942,2942,2942,2942,2942,2942,2942,2956,2942,2942,2942,2942,2956,2956,2956,2956,2956,2942,2942,2942,2942,2942,2942,2956,2956,2956,2956,2956,2956,2956,2956,2956,2956,2956,2956,2956,2956,2956,2956,2956,2956,2956,2956,2956,2942,2942,2942,2942,2942,2928,2928,2928,2914,2914,2914,2914,2914,2901,2901,2901,2901,2901,2901,2901,2901,2901,2901,2901,2901,2901,2887,2887,2860,2847,2847,2834,2808,2808,2796,2796,2783,2771,2771,2758,2746,2746,2746,2746,2734,2722,2722,2722,2710,2710,2710,2710,2710,2698,2698,2686,2686,2675,2675,2675,2675,2675,2675,2675,2675,2675,2675,2675,2675,2675,2686,2686,2686,2698,2698,2698,2698,2698,2698,2698,2698,2698,2698,2698,2698,2698,2698,2686,2686,2686,2675,2675,2663,2640,2640,2618,2618,2596,2596,2596,2585,2574,2574,2564,2564,2564,2564,2564,2564,2564,2564,2564,2564,2543,2543,2543,2532,2532,2543,2543,2543,2532,2532,2532,2512,2501,2501,2501,2501,2481,2462,2462,2433,2433,2404,2376,2376,2349,2349,2314,2288,2288,2272,2247,2247,2223,2223,2199,2176,2176,2160,2160,2145,2131,2131,2123,2123,2123,2116,2116,2109,2109,2109,2094,2094,2080,2066,2066,2066,2046,2046,2026,2026,2006,1987,1987,1961,1961,1949,1937,1937,1925,1925,1907,1895,1895,1878,1861,1861,1850,1850,1833,1817,1817,1801,1801,1786,1770,1770,1755,1755,1740,1726,1726,1712,1712,1702,1688,1688,1674,1656,1656,1648,1648,1639,1626,1626,1617,1617,1613,1609,1609,1605,1605,1605,1601,1601,1601,1601,1601,1601,1605,1605,1605,1617,1617,1635,1665,1665,1697,1736,1736,1770,1807,1807,1828,1844,1828,1807,1807,1775,1775,1745
0,0,0,0,0,0,0,0,0,0,0,0,0,0,0,0,0,0,0,0,0,0,0,0,0,0,0,0,0,0,0,0,0,0,0,0,0,0,0,0,0,0,0,0,0,0,0,0,0,0,0,0,0,0,0,0,0,0,0,0,0,0,0,0,0,0,0,0,0,0,0,0,0,0,0,0,0,0,0,0,0,0,0,0,0,0,0,0,0,0,0,0,0,0,0,0,0,0,0,0,0,0,0,0,0,0,0,0,0,0,0,0,0,0,0,0,0,0,0,0,0,0,0,0,0,0,0,0,0,0,0,0,0,0,0,0,0,0,0,0,0,0,0,0,0,0,0,0,0,0,0,0,0,0,0,0,0,0,0,0,0,0,0,0,0,0,0,0,0,0,0,0,0,0,0,0,0,0,0,0,0,0,0,0,0,0,2564,2564,2564,2574,2574,2585,2596,2596,2629,2663,2663,2686,2698,2698,2710,2710,2722,2734,2734,2746,2758,2758,2758,2771,2771,2771,2771,2796,2796,2796,2821,2834,2834,2860,2860,2874,2887,2887,2914,2928,2928,2956,2985,2985,2999,2999,2970,2970,2970,2970,2970,2956,2956,2956,2956,2956,2942,2928,2928,2928,2928,2928,2928,2928,2928,2928,2942,2942,2942,2942,2942,2956,2956,2956,2970,2970,2970,2970,2970,2985,2985,2985,2985,2985,2985,2985,2999,2999,2999,2999,2999,2999,2999,2999,2999,2999,2999,2999,2999,2985,2985,2985,2985,2985,2985,2985,2985,2970,2970,2970,2970,2970,2970,2970,2970,2970,2970,2970,2970,2970,2970,2956,2956,2956,2956,2956,2956,2956,2956,2956,2956,2956,2956,2956,2956,2956,2956,2956,2956,2956,2956,2956,2956,2956,2956,2956,2956,2956,2956,2956,2956,2956,2956,2956,2956,2956,2956,2956,2956,2956,2956,2956,2956,2956,2956,2956,2956,2956,2956,2956,2956,2956,2956,2956,2956,2956,2956,2956,2956,2956,2956,2956,2956,2956,2956,2956,2956,2956,2956,2956,2956,2956,2956,2956,2956,2956,2956,2956,2956,2956,2956,2942,2942,2942,2942,2942,2928,2928,2914,2914,2914,2914,2901,2901,2901,2901,2901,2901,2901,2901,2901,2901,2901,2901,2901,2901,2901,2887,2887,2860,2847,2847,2821,2808,2808,2783,2783,2771,2746,2746,2746,2734,2734,2734,2734,2722,2722,2722,2710,2698,2698,2698,2698,2698,2686,2686,2686,2686,2686,2675,2675,2675,2675,2675,2675,2675,2675,2675,2686,2686,2686,2686,2686,2686,2698,2698,2698,2698,2698,2698,2698,2698,2710,2698,2698,2698,2698,2698,2686,2686,2686,2675,2675,2663,2640,2640,2618,2618,2596,2585,2585,2574,2564,2564,2553,2553,2553,2553,2553,2553,2553,2564,2553,2553,2532,2532,2543,2532,2532,2543,2543,2543,2532,2522,2522,2512,2501,2501,2501,2501,2481,2462,2462,2433,2433,2414,2386,2386,2349,2349,2314,2288,2288,2272,2247,2247,2223,2223,2191,2176,2176,2160,2160,2145,2131,2131,2131,2123,2123,2116,2116,2116,2109,2109,2094,2094,2080,2066,2066,2066,2046,2046,2026,2026,2006,1987,1987,1961,1961,1949,1937,1937,1925,1925,1907,1895,1895,1878,1861,1861,1850,1850,1833,1817,1817,1801,1801,1786,1770,1770,1755,1755,1740,1726,1726,1712,1712,1702,1688,1688,1674,1656,1656,1648,1648,1639,1626,1626,1617,1617,1613,1609,1609,1605,1605,1605,1601,1601,1601,1601,1601,1601,1605,1609,1609,1622,1622,1648,1674,1674,1707,1745,1745,1781,1817,1817,1839,1850,1839,1817,1817,1791,1791,1755
0,0,0,0,0,0,0,0,0,0,0,0,0,0,0,0,0,0,0,0,0,0,0,0,0,0,0,0,0,0,0,0,0,0,0,0,0,0,0,0,0,0,0,0,0,0,0,0,0,0,0,0,0,0,0,0,0,0,0,0,0,0,0,0,0,0,0,0,0,0,0,0,0,0,0,0,0,0,0,0,0,0,0,0,0,0,0,0,0,0,0,0,0,0,0,0,0,0,0,0,0,0,0,0,0,0,0,0,0,0,0,0,0,0,0,0,0,0,0,0,0,0,0,0,0,0,0,0,0,0,0,0,0,0,0,0,0,0,0,0,0,0,0,0,0,0,0,0,0,0,0,0,0,0,0,0,0,0,0,0,0,0,0,0,0,0,0,0,0,0,0,0,0,0,0,0,0,0,0,0,0,0,0,0,0,0,2543,2543,2543,2553,2553,2564,2585,2585,2618,2652,2652,2686,2698,2698,2710,2710,2734,2746,2746,2758,2771,2771,2771,2783,2783,2783,2783,2808,2808,2808,2834,2847,2847,2874,2887,2887,2901,2901,2928,2942,2942,2970,2999,2999,3014,2999,2985,2985,2985,2970,2970,2970,2970,2956,2956,2956,2956,2942,2942,2942,2942,2942,2928,2928,2928,2928,2942,2942,2942,2942,2942,2956,2956,2956,2970,2970,2970,2970,2970,2985,2985,2985,2985,2985,2985,2985,2999,2999,2999,2999,2999,2999,2999,2999,2999,2999,2999,2999,2999,2999,2999,2999,2999,2999,2999,2999,2999,2999,2999,2999,2985,2985,2985,2985,2985,2985,2985,2985,2985,2985,2985,2985,2985,2970,2970,2970,2970,2970,2970,2970,2970,2970,2970,2970,2970,2970,2970,2970,2970,2970,2970,2970,2970,2970,2970,2970,2970,2970,2970,2970,2970,2970,2956,2956,2956,2956,2956,2956,2956,2956,2956,2956,2956,2956,2956,2956,2956,2956,2956,2956,2956,2956,2956,2956,2956,2956,2956,2956,2956,2956,2956,2956,2956,2956,2956,2956,2956,2956,2956,2956,2956,2956,2956,2956,2956,2956,2956,2956,2956,2956,2956,2942,2942,2942,2942,2942,2928,2928,2914,2914,2914,2914,2901,2901,2901,2901,2901,2901,2901,2901,2901,2901,2901,2901,2901,2901,2901,2887,2887,2860,2847,2847,2821,2808,2808,2783,2783,2771,2746,2746,2746,2734,2734,2734,2734,2722,2722,2722,2710,2698,2698,2698,2698,2698,2686,2686,2686,2686,2686,2675,2675,2675,2675,2675,2675,2675,2675,2675,2686,2686,2686,2686,2686,2686,2698,2698,2698,2698,2698,2698,2698,2698,2710,2698,2698,2698,2698,2698,2686,2686,2686,2663,2663,2652,2629,2629,2618,2618,2596,2585,2585,2574,2564,2564,2553,2553,2553,2553,2553,2553,2553,2564,2543,2543,2532,2532,2532,2532,2532,2543,2532,2532,2532,2522,2522,2512,2501,2501,2501,2501,2481,2462,2462,2442,2442,2414,2386,2386,2349,2349,2314,2288,2288,2272,2247,2247,2223,2223,2191,2176,2176,2160,2160,2145,2138,2138,2131,2123,2123,2116,2116,2116,2109,2109,2094,2094,2080,2066,2066,2066,2046,2046,2026,2026,2006,1987,1987,1961,1961,1949,1937,1937,1925,1925,1907,1889,1889,1878,1861,1861,1844,1844,1833,1817,1817,1801,1801,1786,1770,1770,1755,1755,1740,1726,1726,1712,1702,1702,1688,1688,1674,1661,1661,1652,1652,1643,1630,1630,1622,1622,1613,1609,1609,1605,1605,1605,1605,1605,1601,1601,1601,1601,1605,1613,1613,1630,1656,1656,1684,1716,1716,1750,1786,1786,1823,1850,1850,1861,1850,1828,1828,1801,1801,1765
