0,0,0,0,0,0,0,0,0,0,0,0,0,0,0,0,0,0,0,0,0,0,0,0,0,0,0,0,0,0,0,0,0,0,2087,2087,2087,2102,2116,2116,2131,2138,2138,2160,2160,2168,0,2199,2199,2215,2215,2239,2255,2255,2263,2263,2272,2280,2280,2297,2323,2323,2340,2340,2340,2349,2349,2349,2358,2358,2376,2386,2386,2386,2386,2386,2386,2386,2395,2395,2395,2404,2395,2395,2395,2395,2386,2386,2376,2376,2376,2376,2376,2376,2386,2386,2386,2386,2386,0,0,0,0,0,0,0,0,0,0,0,0,0,0,0,0,0,0,0,0,0,0,0,0,0,0,0,0,0,0,0,0,0,0,0,0,0,0,0,0,0,0,0,0,0,0,0,0,0,0,0,0,0,0,0,0,0,0,0,0,0,0,0,0,0,0,0,0,0,0,0,0,0,0,0,0,0,0,0,0,0,0,0,0,0,0,0,0,0,0,0,0,0,0,0,0,0,0,0,0,0,0,0,0,0,0,0,0,0,0,0,0,0,0,0,0,0,0,0,0,0,0,0,0,0,0,0,0,0,0,0,0,0,0,0,0,0,0,0,0,0,0,0,0,0,0,0,0,0,0,0,0,0,0,0,0,0,0,0,0,0,0,0,0,0,0,0,0,0,0,0,0,0,0,0,0,0,0,0,2722,2722,2734,2734,2746,2746,2746,2758,2758,2771,2771,2771,2758,2758,2758,2758,2758,2746,2746,2746,2746,2746,2746,2758,2758,2758,2758,2758,2783,2783,2783,2783,2783,2796,2796,2783,2783,2783,2783,2783,2783,2771,2771,2771,2771,2771,2771,2771,2771,2771,2783,2771,2758,2758,2758,2758,2758,2758,2758,2746,2734,2734,2722,2722,2710,2710,2710,2710,2710,2722,2722,2722,2722,2722,2734,2734,2734,2734,2734,2734,2734,2722,2722,2722,2710,2710,2710,2722,2710,2698,2698,2698,2698,2698,2686,2686,2686,2698,2698,2698,2698,2698,2686,2686,2686,2663,2663,2640,2618,2618,2596,2596,2564,2532,2532,2501,2501,2481,2452,2452,2423,2423,2404,2376,2376,2349,2332,2332,2314,2314,2297,2280,2280,2263,2263,2247,2239,2239,2223,2207,2207,2199,2199,2183,2168,2168,2153,2153,2131,2109,2109,2094,2080,2080,2073,2073,2060,2046,2046,2032,2032,2013,2000,2000,1987,1987,1968,1949,1949,1925,1907,1907,1884,1884,1861,1844,1844,1823,1823,1807,1791,1791,1781,1781,1775,1765,1765,1760,1755,1755,1755,1755,1755,1755,1760,1760,1781,1807,1807,1833,1867,1867,1907,1949,1949,1993,2032,2032,2053,2060,2060,2060,2053,2053,2053,2039,2039,2032,2019,2019,2000,1980,1980,1955,1955,1937,1913,1913,1895,1895,1872,1861,1861,1844,1844,1839,1828,1828,1823,1812,1812,1807,1807,1807,1801,1801,1801,1801,1801,1801,1801,1801,1801,1801,1801,1807,1807,1807,0,0,0,0,0,0,0,0,0,4543,4543,4577,4577,4577,4611,4611,4646,4646,4681,4681,4681,4681,4753,4753,4753,4753,4790,4790,4790,4790,4827,4827,4827,4790,4790,4790,4790,4716,4716,4716,4716,4716,4716,4716,4681,4681,4681,4681,4716,4716,4716,4753,4753,4753,4753,4716,4716,4681,4681,4681,4681,4681,4681,4646,4646,4646,4611,4611,4577,4577,4577,4510,4510,4510,4510,4510,4477,4445,4445,4413,4413,4382,4382,4382,4382,4382,4382,4382,4382,4382,4382,4382,4382,4382,4382,4382,4382,4382,4382,4382,4382,4382,4382,4382
0,0,0,0,0,0,0,0,0,0,0,0,0,0,0,0,0,0,0,0,0,0,0,0,0,0,0,0,0,0,0,0,0,0,2087,2087,2087,2102,2116,2116,2131,2138,2138,2160,2160,2168,2183,2183,2199,2215,2215,2231,2247,2247,2255,2255,2263,2272,2272,2297,2314,2314,2332,2332,2332,2340,2340,2349,2358,2358,2358,2367,2367,2376,2376,2376,2376,2376,2376,2376,2376,2386,2386,2386,2386,2376,2367,2367,2367,2376,2376,2376,2376,2376,2386,2386,2386,2386,2386,0,0,0,0,0,0,0,0,0,0,0,0,0,0,0,0,0,0,0,0,0,0,0,0,0,0,0,0,0,0,0,0,0,0,0,0,0,0,0,0,0,0,0,0,0,0,0,0,0,0,0,0,0,0,0,0,0,0,0,0,0,0,0,0,0,0,0,0,0,0,0,0,0,0,0,0,0,0,0,0,0,0,0,0,0,0,0,0,0,0,0,0,0,0,0,0,0,0,0,0,0,0,0,0,0,0,0,0,0,0,0,0,0,0,0,0,0,0,0,0,0,0,0,0,0,0,0,0,0,0,0,0,0,0,0,0,0,0,0,0,0,0,0,0,0,0,0,0,0,0,0,0,0,0,0,0,0,0,0,0,0,0,0,0,0,0,0,0,0,0,0,0,0,0,0,0,0,0,0,0,0,0,0,0,0,0,0,0,0,0,0,0,0,0,0,0,0,0,0,0,0,0,0,0,0,0,0,0,0,0,0,0,0,0,0,0,0,0,0,0,0,0,0,0,0,0,0,0,0,0,0,0,0,0,0,0,0,0,0,0,0,0,0,2710,2710,2710,2710,2710,2722,2722,2722,2722,2722,2734,2734,2734,2734,2734,2734,2734,2722,2722,2722,2710,2710,2710,2722,2710,2698,2698,2698,2698,2698,2686,2686,2686,2698,2698,2698,2698,2698,2686,2686,2686,2663,2663,2640,2618,2618,2585,2585,2564,2532,2532,2501,2501,2471,2452,2452,2423,2423,2395,2367,2367,2349,2332,2332,2314,2314,2297,2280,2280,2263,2263,2247,2239,2239,2223,2207,2207,2199,2199,2183,2168,2168,2153,2153,2131,2109,2109,2094,2080,2080,2073,2073,2060,2046,2046,2032,2032,2013,2000,2000,1987,1987,1968,1943,1943,1925,1901,1901,1884,1884,1861,1844,1844,1823,1823,1807,1791,1791,1781,1781,1775,1765,1765,1760,1755,1755,1755,1755,1755,1755,1760,1760,1781,1807,1807,1839,1872,1872,1913,1955,1955,2000,2032,2032,2053,2060,2060,2060,2053,2046,2046,2039,2032,2032,2019,2019,2000,1980,1980,1961,1961,1937,1919,1919,1895,1895,1878,1861,1861,1850,1850,1839,1828,1828,1823,1817,1817,1807,1807,1807,1801,1801,1801,1801,1801,1801,1801,1801,1801,1801,1801,1807,1807,1807,0,0,0,0,0,0,0,0,0,4543,4543,4543,4543,4577,4611,4611,4646,4646,4681,4681,4681,4681,4753,4753,4753,4753,4790,4790,4790,4790,4827,4827,4827,4790,4790,4790,4790,4716,4716,4681,4681,4681,4681,4681,4681,4681,4681,4681,4716,4716,4716,4716,4716,4753,4753,4753,4753,4716,4716,4716,4716,4681,4681,4681,4681,4646,4611,4611,4577,4577,4577,4510,4510,4510,4510,4510,4477,4445,4445,4413,4413,4382,4382,4382,4382,4382,4382,4382,4382,4382,4382,4382,4382,4382,4382,4382,4382,4382,4382,4382,4382,4382,4382,4382
0,0,0,0,0,0,0,0,0,0,0,0,0,0,0,0,0,0,0,0,0,0,0,0,0,0,0,0,0,0,0,0,0,2080,2080,2087,2087,2102,2116,2116,2131,2138,2138,2160,2160,2168,2183,2183,2199,2215,2215,2231,2239,2239,2255,2255,2255,2263,2263,2297,2314,2314,2332,2332,2332,2340,2340,2349,2349,2349,2358,2367,2367,2376,2376,2376,2376,2376,2376,2376,2376,2386,2386,2386,2386,2376,2367,2367,2367,0,0,0,0,0,0,0,0,0,0,0,0,0,0,0,0,0,0,0,0,0,0,0,0,0,0,0,0,0,0,0,0,0,0,0,0,0,0,0,0,0,0,0,0,0,0,0,0,0,0,0,0,0,0,0,0,0,0,0,0,0,0,0,0,0,0,0,0,0,0,0,0,0,0,0,0,0,0,0,0,0,0,0,0,0,0,0,0,0,0,0,0,0,0,0,0,0,0,0,0,0,0,0,0,0,0,0,0,0,0,0,0,0,0,0,0,0,0,0,0,0,0,0,0,0,0,0,0,0,0,0,0,0,0,0,0,0,0,0,0,0,0,0,0,0,0,0,0,0,0,0,0,0,0,0,0,0,0,0,0,0,0,0,0,0,0,0,0,0,0,0,0,0,0,0,0,0,0,0,0,0,0,0,0,0,0,0,0,0,0,0,0,0,0,0,0,0,0,0,0,0,0,0,0,0,0,0,0,0,0,0,0,0,0,0,0,0,0,0,0,0,0,0,0,0,0,0,0,0,0,0,0,0,0,0,0,0,0,0,0,0,0,0,0,0,0,0,0,0,0,0,0,0,0,0,0,0,0,0,0,0,0,0,0,0,0,0,0,0,0,0,0,0,0,0,0,0,0,0,0,0,0,0,0,0,0,0,0,0,0,0,0,0,2686,2663,2663,2640,2618,2618,2585,2585,2564,2532,2532,2501,2501,2471,2452,2452,2423,2423,2395,2367,2367,2349,2332,2332,2314,2314,2288,2272,2272,2255,2255,2247,2239,2239,2223,2207,2207,2191,2191,2176,2160,2160,2145,2145,2131,2109,2109,2094,2080,2080,2066,2066,2053,2039,2039,2026,2026,2013,2000,2000,1987,1987,1968,1943,1943,1925,1901,1901,1884,1884,1861,1844,1844,1823,1823,1807,1796,1796,1786,1786,1775,1765,1765,1760,1755,1755,1755,1755,1755,1755,1760,1760,1786,1817,1817,1844,1884,1884,1913,1955,1955,2000,2039,2039,2053,2060,2060,2060,2053,2046,2046,2039,2032,2032,2019,2019,2006,1980,1980,1961,1961,1937,1919,1919,1895,1895,1878,1861,1861,1850,1850,1839,1828,1828,1823,1817,1817,1807,1807,1807,1801,1801,1801,1801,1801,1796,1796,1796,1796,1801,1801,1801,1801,1801,0,0,0,0,0,0,0,0,0,4543,4543,4543,4543,4577,4611,4611,4646,4646,4681,4681,4681,4716,4753,4753,4790,4790,4790,4827,4827,4827,4827,4827,4827,4827,4790,4790,4790,4716,4716,4681,4681,4681,4681,4681,4681,4681,4681,4681,4716,4716,4716,4716,4716,4753,4790,4753,4753,4716,4716,4716,4716,4716,4716,4681,4681,4681,4611,4611,4577,4577,4577,4510,4510,4510,4510,4510,4477,4445,4445,4413,4413,4382,4382,4382,4382,4382,4382,4382,4382,4382,4382,4382,4382,4382,4382,4382,4382,4382,4382,4382,4382,4382,4382,4382
0,0,0,0,0,0,0,0,0,0,0,0,0,0,0,0,0,0,0,0,0,0,0,0,0,0,0,0,0,0,0,0,0,2080,2080,2087,2087,2102,2116,2116,2131,2145,2145,2168,2168,2176,2191,2191,2199,2215,2215,2231,2239,2239,2255,2255,2255,2263,2263,2297,2314,2314,2332,2332,2332,2340,2340,2349,2349,2349,2358,2367,2367,2367,2358,2358,2367,2367,2367,2367,2367,2386,2367,2367,2376,2376,2367,2367,2367,0,0,0,0,0,0,0,0,0,0,0,0,0,0,0,0,0,0,0,0,0,0,0,0,0,0,0,0,0,0,0,0,0,0,0,0,0,0,0,0,0,0,0,0,0,0,0,0,0,0,0,0,0,0,0,0,0,0,0,0,0,0,0,0,0,0,0,0,0,0,0,0,0,0,0,0,0,0,0,0,0,0,0,0,0,0,0,0,0,0,0,0,0,0,0,0,0,0,0,0,0,0,0,0,0,0,0,0,0,0,0,0,0,0,0,0,0,0,0,0,0,0,0,0,0,0,0,0,0,0,0,0,0,0,0,0,0,0,0,0,0,0,0,0,0,0,0,0,0,0,0,0,0,0,0,0,0,0,0,0,0,0,0,0,0,0,0,0,0,0,0,0,0,0,0,0,0,0,0,0,0,0,0,0,0,0,0,0,0,0,0,0,0,0,0,0,0,0,0,0,0,0,0,0,0,0,0,0,0,0,0,0,0,0,0,0,0,0,0,0,0,0,0,0,0,0,0,0,0,0,0,0,0,0,0,0,0,0,0,0,0,0,0,0,0,0,0,0,0,0,0,0,0,0,0,0,0,0,0,0,0,0,0,0,0,0,0,0,0,0,0,0,0,0,0,0,0,0,0,0,0,0,0,0,0,0,0,0,0,0,0,0,0,2686,2663,2663,2640,2607,2607,2585,2585,2553,2522,2522,2491,2491,2462,2442,2442,2414,2414,2395,2367,2367,2349,2332,2332,2305,2305,2288,2272,2272,2255,2255,2247,2231,2231,2215,2199,2199,2191,2191,2176,2160,2160,2145,2145,2123,2109,2109,2094,2080,2080,2066,2066,2053,2039,2039,2026,2026,2013,2000,2000,1987,1987,1968,1943,1943,1925,1901,1901,1884,1884,1867,1844,1844,1828,1828,1812,1796,1796,1786,1786,1775,1765,1765,1760,1755,1755,1755,1755,1755,1755,1760,1760,1786,1817,1817,1844,1884,1884,1913,1955,1955,2000,2039,2039,2053,2060,2060,2060,2053,2046,2046,2039,2032,2032,2019,2019,2006,1980,1980,1961,1961,1937,1919,1919,1901,1901,1878,1861,1861,1850,1850,1839,1833,1833,1828,1817,1817,1812,1812,1807,1801,1801,1801,1801,1801,1796,1796,1796,1796,1801,1801,1801,1801,1801,0,0,0,0,0,0,0,0,0,4543,4543,4577,4577,4611,4611,4611,4646,4646,4681,4716,4716,4716,4753,4753,4790,4790,4790,4827,4827,4827,4827,4827,4827,4827,4790,4790,4790,4716,4716,4681,4681,4681,4681,4681,4681,4681,4681,4681,4716,4716,4716,4716,4716,4753,4790,4753,4753,4716,4716,4716,4716,4716,4716,4681,4681,4681,4611,4611,4577,4577,4577,4543,4543,4510,4510,4510,4477,4445,4445,4382,4382,4382,4382,4382,4382,4382,4382,4382,4382,4382,4382,4382,4382,4382,4382,4382,4382,4382,4382,4382,4382,4382,4382,4382
0,0,0,0,0,0,0,0,0,0,0,0,0,0,0,0,0,0,0,0,0,0,0,0,0,0,0,0,0,0,0,0,0,2080,2080,2087,2087,2102,2116,2116,2131,2145,2145,2168,2168,2176,2191,2191,2199,2215,2215,2231,2239,2239,2247,2247,2255,2263,2263,2288,2305,2305,2323,2332,2332,2340,2340,2340,2349,2349,2358,2367,2358,2358,2358,2349,2349,2349,2367,2367,2367,0,2367,2367,2376,2376,0,0,0,0,0,0,0,0,0,0,0,0,0,0,0,0,0,0,0,0,0,0,0,0,0,0,0,0,0,0,0,0,0,0,0,0,0,0,0,0,0,0,0,0,0,0,0,0,0,0,0,0,0,0,0,0,0,0,0,0,0,0,0,0,0,0,0,0,0,0,0,0,0,0,0,0,0,0,0,0,0,0,0,0,0,0,0,0,0,0,0,0,0,0,0,0,0,0,0,0,0,0,0,0,0,0,0,0,0,0,0,0,0,0,0,0,0,0,0,0,0,0,0,0,0,0,0,0,0,0,0,0,0,0,0,0,0,0,0,0,0,0,0,0,0,0,0,0,0,0,0,0,0,0,0,0,0,0,0,0,0,0,0,0,0,0,0,0,0,0,0,0,0,0,0,0,0,0,0,0,0,0,0,0,0,0,0,0,0,0,0,0,0,0,0,0,0,0,0,0,0,0,0,0,0,0,0,0,0,0,0,0,0,0,0,0,0,0,0,0,0,0,0,0,0,0,0,0,0,0,0,0,0,0,0,0,0,0,0,0,0,0,0,0,0,0,0,0,0,0,0,0,0,0,0,0,0,0,0,0,0,0,0,0,0,0,0,0,0,0,0,0,0,0,0,0,0,0,0,0,0,0,0,0,0,0,0,0,0,0,0,0,0,0,0,0,0,0,0,2640,2607,2607,2585,2585,2553,2522,2522,2491,2491,2462,2442,2442,2414,2414,2395,2376,2376,2349,2332,2332,2305,2305,2288,2272,2272,2255,2255,2247,2231,2231,2215,2199,2199,2191,2191,2176,2160,2160,2145,2145,2123,2109,2109,2094,2080,2080,2066,2066,2053,2039,2039,2026,2026,2013,2000,2000,1980,1961,1961,1943,1943,1925,1901,1901,1884,1884,1867,1844,1844,1828,1828,1812,1796,1796,1786,1786,1775,1770,1770,1765,1760,1760,1760,1760,1760,1760,1765,1765,1791,1817,1817,1855,1884,1884,1925,1961,1961,2000,2039,2039,2053,2060,2053,2053,2053,2046,2046,2039,2032,2032,2019,2019,2006,1987,1987,1961,1961,1943,1925,1925,1901,1901,1884,1867,1867,1855,1855,1844,1839,1839,1828,1823,1823,1817,1817,1812,1807,1807,1807,1801,1801,1796,1796,1796,1796,1796,1796,1796,1801,1801,0,0,0,0,0,0,0,4477,4477,4477,4543,4577,4577,4611,4611,4611,4646,4646,4681,4716,4716,4716,4753,4753,4790,4790,4790,4827,4827,4827,4827,4827,4827,4827,4827,4827,4790,4716,4716,4681,4681,4681,4681,4681,4681,4681,4681,4681,4716,4716,4716,4753,4753,4753,4790,4753,4753,4753,4716,4716,4716,4716,4716,4681,4681,4681,4646,4646,4577,4577,4577,4543,4543,4510,4510,4510,4477,4445,4445,4382,4382,4382,4382,4382,4382,4382,4382,4382,4382,4382,4382,4382,4382,4382,4382,4382,4382,4382,4382,4382,4382,4382,4382,4382
0,0,0,0,0,0,0,0,0,0,0,0,0,0,0,0,0,0,0,0,0,0,0,0,0,0,0,0,0,2073,2073,2073,2080,2080,2080,2087,2087,2102,2123,2123,2138,2145,2145,2168,2183,2183,2191,2191,2207,2215,2215,2231,2239,2239,2247,2247,2255,2263,2263,2288,2305,2305,2323,2332,2332,2340,2340,2340,2349,2349,2358,2367,2358,2358,2358,2349,2349,2349,0,0,0,0,0,0,0,0,0,0,0,0,0,0,0,0,0,0,0,0,0,0,0,0,0,0,0,0,0,0,0,0,0,0,0,0,0,0,0,0,0,0,0,0,0,0,0,0,0,0,0,0,0,0,0,0,0,0,0,0,0,0,0,0,0,0,0,0,0,0,0,0,0,0,0,0,0,0,0,0,0,0,0,0,0,0,0,0,0,0,0,0,0,0,0,0,0,0,0,0,0,0,0,0,0,0,0,0,0,0,0,0,0,0,0,0,0,0,0,0,0,0,0,0,0,0,0,0,0,0,0,0,0,0,0,0,0,0,0,0,0,0,0,0,0,0,0,0,0,0,0,0,0,0,0,0,0,0,0,0,0,0,0,0,0,0,0,0,0,0,0,0,0,0,0,0,0,0,0,0,0,0,0,0,0,0,0,0,0,0,0,0,0,0,0,0,0,0,0,0,0,0,0,0,0,0,0,0,0,0,0,0,0,0,0,0,0,0,0,0,0,0,0,0,0,0,0,0,0,0,0,0,0,0,0,0,0,0,0,0,0,0,0,0,0,0,0,0,0,0,0,0,0,0,0,0,0,0,0,0,0,0,0,0,0,0,0,0,0,0,0,0,0,0,0,0,0,0,0,0,0,0,0,0,0,0,0,0,0,0,0,0,0,0,0,0,0,0,0,0,0,0,0,0,0,0,0,0,0,0,0,0,0,2522,2522,2491,2491,2462,2442,2442,2414,2395,2395,2376,2376,2349,2332,2332,2305,2305,2288,2272,2272,2255,2255,2239,2231,2231,2215,2199,2199,2183,2183,2168,2153,2153,2145,2145,2123,2102,2102,2087,2073,2073,2060,2060,2046,2039,2039,2026,2026,2006,2000,2000,1980,1961,1961,1943,1943,1919,1901,1901,1884,1884,1867,1850,1850,1828,1828,1812,1801,1801,1791,1791,1781,1775,1775,1765,1765,1765,1760,1760,1760,1760,1765,1765,1796,1828,1828,1855,1889,1889,1925,1961,1961,2000,2039,2039,2053,2060,2053,2053,2053,2046,2046,2039,2032,2032,2019,2019,2006,1987,1987,1961,1961,1943,1925,1925,1901,1901,1884,1867,1867,1855,1850,1844,1839,1839,1828,1823,1823,1817,1817,1812,1807,1807,1807,1807,1807,1801,1801,1801,1796,1796,1796,1796,1801,1801,0,0,0,0,0,0,0,4477,4477,4477,4543,4611,4577,4577,4611,4611,4646,4646,4681,4716,4716,4753,4753,4753,4790,4790,4827,4827,4827,4827,4827,4827,4827,4827,4827,4827,4790,4753,4753,4716,4716,4681,4681,4681,4681,4716,4716,4716,4716,4716,4716,4753,4753,4753,4790,4753,4753,4753,4716,4716,4716,4716,4716,4681,4681,4681,4646,4646,4577,4577,4577,4543,4543,4510,4510,4510,4477,4445,4445,4382,4382,4382,4382,4382,4382,4382,4382,4382,4382,4382,4382,4382,4382,4382,4382,4382,4382,4382,4382,4382,4382,4382,4382,4382
0,0,0,0,0,0,0,0,0,0,0,0,0,0,0,0,0,0,0,0,0,0,0,0,0,0,0,0,0,2073,2073,2073,2080,2080,2080,2094,2094,2109,0,2138,2138,2153,2153,2176,2191,2191,2199,2199,2207,2223,2223,2231,2239,2239,2247,2255,2255,2263,2263,2288,2305,2305,2323,2332,2332,2332,2332,2340,2349,2349,2349,2358,2349,2349,2349,2349,2349,2349,2358,2358,2358,2358,2358,2358,2367,2367,2367,2367,2367,2358,2358,2349,2349,2340,2332,2332,2323,2323,2314,2305,2305,2297,2297,2297,2297,2297,2297,2305,2314,2314,2323,2340,2340,2349,2349,2349,2358,2358,2358,0,0,0,0,0,0,0,0,0,0,0,0,0,0,0,0,0,0,0,0,0,0,0,0,0,0,0,0,0,0,0,0,0,0,0,0,0,0,0,0,0,0,0,0,0,0,0,0,0,0,0,0,0,0,0,0,0,0,0,0,0,0,0,0,0,0,0,0,0,0,0,0,0,0,0,0,0,0,0,0,0,0,0,0,0,0,0,0,0,0,0,0,0,0,0,0,0,0,0,0,0,0,0,0,0,0,0,0,0,0,0,0,0,0,0,0,0,0,0,0,0,0,0,0,0,0,0,0,0,0,0,0,0,0,0,0,0,0,0,0,0,0,0,0,0,0,0,0,0,0,0,0,0,0,0,0,0,0,0,0,0,0,0,0,0,0,0,0,0,0,0,0,0,0,0,0,0,0,0,0,0,0,0,0,0,0,0,0,0,0,0,0,0,0,0,0,0,0,0,0,0,0,0,0,0,0,0,0,0,0,0,0,0,0,0,0,0,0,0,0,0,0,0,0,0,0,0,0,0,0,0,0,0,0,0,0,0,0,0,0,0,0,0,0,0,0,0,0,0,0,0,0,0,0,0,0,0,0,0,0,0,0,0,0,0,0,0,0,0,0,0,2532,2512,2512,2481,2481,2462,2433,2433,2423,2395,2395,2376,2376,2349,2323,2323,2305,2305,2288,2272,2272,2255,2239,2239,2231,2231,2215,2199,2199,2183,2183,2168,2153,2153,2145,2145,2123,2102,2102,2087,2073,2073,2060,2060,2046,2039,2039,2026,2026,2006,2000,2000,1980,1961,1961,1943,1943,1919,1901,1901,1884,1884,1867,1850,1850,1828,1828,1812,1801,1801,1791,1791,1781,1775,1775,1765,1765,1765,1760,1760,1760,1760,1765,1765,1796,1828,1828,1855,1889,1889,1925,1961,1961,2000,2039,2039,2053,2053,2053,2053,2046,2039,2039,2032,2026,2026,2019,2019,2006,1987,1987,1968,1968,1943,1925,1925,1907,1907,1889,1878,1878,1861,1850,1850,1844,1844,1833,1828,1828,1823,1823,1817,1812,1812,1812,1807,1807,1801,1801,1801,1801,1801,1801,1801,1801,1801,0,0,0,0,0,0,0,4477,4477,4477,4543,4611,4577,4577,4611,4611,4646,4646,4681,4716,4716,4753,4753,4753,4790,4790,4827,4827,4827,4827,4827,4827,4827,4827,4827,4827,4790,4753,4753,4716,4716,4681,4681,4681,4681,4716,4716,4716,4716,4716,4716,4753,4753,4753,4790,4753,4753,4753,4716,4716,4716,4716,4716,4681,4681,4646,4646,4646,4577,4577,4577,4543,4543,4510,4510,4510,4477,4445,4445,4382,4382,4382,4382,4382,4382,4382,4382,4382,4382,4382,4382,4382,4382,4382,4382,4382,4382,4382,4382,4382,4382,4382,4413,4413
0,0,0,0,0,0,0,0,0,0,0,0,0,0,0,0,0,0,0,0,0,0,0,0,0,0,0,0,2073,2073,2073,2073,2080,2080,2080,2094,2094,2109,2131,2131,2138,2153,2153,2176,2191,2191,2199,2199,2207,2223,2223,2231,2239,2239,2247,2255,2255,2263,2263,2288,2305,2305,2323,2332,2332,2332,2332,2340,2349,2349,2349,2349,2349,2349,2332,2332,2340,2340,2340,2340,2340,2340,2358,2358,2367,2367,2367,2367,2367,2358,2358,2349,2349,2340,2332,2332,2323,2323,2314,2305,2305,2297,2297,2297,2297,2297,2297,2305,2314,2314,2323,2340,2340,2349,2349,2349,2358,2358,2349,2349,2349,2349,0,0,0,0,0,0,0,0,0,0,0,0,0,0,0,0,0,0,0,0,0,0,0,0,0,0,0,0,0,0,0,0,0,0,0,0,0,0,0,0,0,0,0,0,0,0,0,0,0,0,0,0,0,0,0,0,0,0,0,0,0,0,0,0,0,0,0,0,0,0,0,0,0,0,0,0,0,0,0,0,0,0,0,0,0,0,0,0,0,0,0,0,0,0,0,0,0,0,0,0,0,0,0,0,0,0,0,0,0,0,0,0,0,0,0,0,0,0,0,0,0,0,0,0,0,0,0,0,0,0,0,0,0,0,0,0,0,0,0,0,0,0,0,0,0,0,0,0,0,0,0,0,0,0,0,0,0,0,0,0,0,0,0,0,0,0,0,0,0,0,0,0,0,0,0,0,0,0,0,0,0,0,0,0,0,0,0,0,0,0,0,0,0,0,0,0,0,0,0,0,0,0,0,0,0,0,0,0,0,0,0,0,0,0,0,0,0,0,0,0,0,0,0,0,0,0,0,0,0,0,0,0,0,0,0,0,0,0,0,0,0,0,0,0,0,0,0,0,0,0,0,0,0,0,0,0,0,0,0,0,0,0,0,0,0,0,0,0,2532,2512,2512,2481,2481,2462,2433,2433,2423,2395,2395,2376,2376,2349,2323,2323,2305,2305,2288,2272,2272,2255,2239,2239,2231,2231,2215,2199,2199,2183,2183,2168,2153,2153,2138,2138,2123,2102,2102,2087,2073,2073,2060,2060,2046,2032,2032,2019,2019,2006,1993,1993,1980,1961,1961,1937,1937,1919,1901,1901,1884,1884,1867,1850,1850,1828,1828,1817,1807,1807,1791,1786,1786,1781,1781,1770,1765,1765,1765,1765,1765,1765,1770,1770,1801,1828,1828,1861,1895,1895,1925,1968,1968,2000,2039,2039,2053,2053,2053,2053,2046,2039,2039,2032,2026,2026,2019,2019,2006,1987,1987,1968,1968,1949,1931,1931,1913,1913,1895,1884,1884,1867,1855,1855,1844,1844,1833,1828,1828,1823,1823,1817,1812,1812,1812,1807,1807,1801,1801,1801,1801,1801,1801,1801,1801,1801,0,0,0,0,0,0,0,4477,4477,4477,4510,4577,4577,4577,4611,4611,4646,4646,4681,4716,4716,4753,4753,4753,4790,4827,4827,4827,4827,4827,4827,4827,4827,4827,4827,4827,4790,4753,4753,4716,4716,4716,4681,4681,4681,4716,4716,4716,4716,4716,4716,4753,4753,4753,4790,4753,4753,4753,4716,4716,4716,4716,4716,4716,4716,4646,4646,4646,4611,4577,4577,4543,4543,4510,4510,4510,4477,4445,4445,4382,4382,4382,4382,4382,4382,4382,4382,4382,4382,4382,4382,4382,4382,4382,4382,4382,4382,4382,4382,4382,4382,4382,4413,4413
0,0,0,0,0,0,0,0,0,0,0,0,0,0,0,0,0,0,0,0,0,0,0,0,0,0,0,0,2073,2073,2073,2073,0,0,2094,2094,2094,2123,2131,2131,2145,2160,2160,2183,2191,2191,2207,2207,2215,2223,2223,2231,2247,2247,2247,2255,2255,2263,2263,2288,2305,2305,2323,2332,2332,2332,2332,2340,2349,2349,2349,2349,2349,2349,2332,2332,2340,2340,2340,2340,2340,2340,2340,2340,2349,2349,2349,2349,2349,2349,2349,2340,2340,2332,2314,2314,2305,2305,2305,2297,2297,2288,2288,2288,2288,2297,2297,2305,2314,2314,2323,2332,2332,2340,2349,2349,2358,2358,2349,2349,2349,2340,2340,2332,2332,2323,2323,0,0,0,0,0,0,0,0,0,0,0,0,0,0,0,0,0,0,0,0,0,0,0,0,0,0,0,0,0,0,0,0,0,0,0,0,0,0,0,0,0,0,0,0,0,0,0,0,0,0,0,0,0,0,0,0,0,0,0,0,0,2501,2501,2501,2522,2532,2532,2553,2553,2553,2553,2553,2553,2553,2553,2553,2532,2522,2522,2501,2501,2491,2481,2481,2481,2471,2471,2471,2471,2462,2462,2462,2462,2462,2471,2471,2471,2471,2471,2481,2481,2481,2491,2491,2501,2522,2522,2532,2532,2543,2543,2543,2553,2564,2564,2574,2574,0,0,0,0,0,0,0,0,0,0,0,0,0,0,0,0,0,0,0,0,0,0,0,0,0,0,0,0,0,0,0,0,0,0,0,0,0,0,0,0,0,0,0,0,0,0,0,0,0,0,0,0,0,0,0,0,0,0,0,0,0,0,0,0,0,0,0,0,0,0,0,0,0,0,0,0,0,0,0,0,0,0,0,0,0,0,0,0,0,0,0,0,0,0,0,0,0,0,0,0,0,0,0,0,0,0,0,0,0,0,0,0,0,0,0,0,0,0,0,0,0,0,0,0,0,0,0,0,0,0,0,0,0,0,0,0,0,0,0,0,0,0,0,0,0,0,2532,2501,2501,2471,2471,2452,2433,2433,2423,2395,2395,2376,2376,2349,2323,2323,2305,2305,2288,2272,2272,2255,2239,2239,2223,2223,2207,2191,2191,2176,2176,2168,2153,2153,2138,2123,2123,2102,2102,2087,2073,2073,2060,2060,2046,2032,2032,2019,2019,2006,1993,1993,1980,1961,1961,1937,1937,1919,1901,1901,1884,1884,1867,1850,1850,1828,1828,1817,1807,1807,1796,1786,1786,1781,1781,1775,1770,1770,1765,1765,1765,1765,1775,1775,1801,1828,1828,1867,1895,1895,1925,1968,1968,2000,2039,2039,2053,2053,2046,2046,2039,2039,2039,2032,2026,2026,2013,2013,2000,1980,1980,1968,1968,1949,1931,1931,1913,1901,1895,1884,1884,1867,1855,1855,1850,1850,1844,1839,1839,1828,1828,1828,1823,1823,1817,1817,1817,1807,1807,1807,1801,1801,1801,1801,1801,1801,0,0,0,0,0,0,0,4477,4477,4477,4510,4577,4577,4611,4611,4611,4646,4646,4681,4716,4716,4753,4753,4753,4790,4827,4827,4865,4865,4865,4865,4827,4827,4827,4827,4827,4790,4753,4753,4716,4716,4716,4716,4716,4716,4716,4716,4716,4716,4716,4716,4753,4753,4753,4753,4753,4716,4716,4681,4681,4681,4681,4681,4681,4681,4646,4646,4646,4611,4577,4577,4543,4543,4510,4510,4510,4477,4445,4445,4382,4382,4382,4382,4382,4382,4382,4382,4382,4382,4382,4382,4382,4382,4382,4382,4382,4382,4382,4382,4382,4382,4413,4413,4413
0,0,0,0,0,0,0,0,0,0,0,0,0,0,0,0,0,0,0,0,0,0,0,0,0,0,0,0,2073,2073,2080,2080,0,0,2102,2102,2102,2123,2138,2138,2153,2176,2176,2183,2191,2191,2207,2207,2215,2223,2223,2231,2247,2247,2247,2255,2255,2263,2263,2288,2305,2305,2314,2323,2323,2332,2332,2340,2349,2349,2349,2349,2340,2332,2332,2332,2340,2340,2340,2340,2332,2332,2332,2332,2349,2349,2349,2349,2349,2349,2349,2340,2340,2332,2314,2314,2305,2305,2305,2297,2297,2288,2288,2288,2288,2297,2297,2305,2314,2314,2323,2332,2332,2340,2349,2349,2358,2358,2349,2349,2349,2340,2340,2332,2332,2323,2323,0,0,0,0,0,0,0,0,0,0,0,0,0,0,0,0,0,0,0,0,0,0,0,0,0,0,0,0,0,0,0,0,0,0,0,0,0,0,0,0,0,0,0,0,0,2532,2532,2512,2512,2501,2481,2481,2481,2481,2481,2481,2481,2471,2471,2481,2481,2491,2501,2501,2522,2532,2532,2553,2553,2553,2553,2553,2553,2553,2553,2553,2532,2512,2512,2501,2501,2491,2481,2481,2481,2471,2471,2471,2471,2462,2462,2462,2462,2462,2471,2471,2471,2471,2471,2481,2481,2481,2491,2491,2501,2522,2522,2532,2532,2543,2543,2543,2553,2564,2564,2574,2574,2574,2574,2574,2574,0,0,0,0,0,0,0,0,0,0,0,0,0,0,0,0,0,0,0,0,0,0,0,0,0,0,0,0,0,0,0,0,0,0,0,0,0,0,0,0,0,0,0,0,0,0,0,0,0,0,0,0,0,0,0,0,0,0,0,0,0,0,0,0,0,0,0,0,0,0,0,0,0,0,0,0,0,0,0,0,0,0,0,0,0,0,0,0,0,0,0,0,0,0,0,0,0,0,0,0,0,0,0,0,0,0,0,0,0,0,0,0,0,0,0,0,0,0,0,0,0,0,0,0,0,0,0,0,0,0,0,0,0,0,0,0,0,0,0,0,0,0,0,2501,2501,2471,2471,2452,2442,2442,2423,2395,2395,2376,2376,2349,2323,2323,2305,2305,2288,2272,2272,2255,2239,2239,2223,2223,2207,2191,2191,2176,2176,2168,2153,2153,2138,2123,2123,2102,2102,2087,2073,2073,2060,2060,2046,2032,2032,2019,2019,2006,1993,1993,1974,1961,1961,1937,1937,1919,1901,1901,1884,1884,1867,1850,1850,1828,1828,1817,1807,1807,1796,1786,1786,1781,1781,1775,1770,1770,1765,1765,1765,1765,1775,1775,1801,1828,1828,1867,1895,1895,1925,1961,1961,2000,2032,2032,2046,2046,2039,2039,2039,2032,2032,2026,2019,2019,2006,2006,1993,1980,1980,1961,1961,1949,1931,1931,1913,1901,1901,1884,1884,1872,1867,1867,1855,1855,1850,1844,1844,1839,1833,1833,1833,1833,1828,1828,1828,1812,1812,1812,1812,1812,1807,1807,1807,1807,0,0,0,0,0,0,0,4477,4477,4477,4510,4577,4577,4577,4611,4611,4646,4646,4681,4716,4716,4753,4753,4753,4790,4827,4827,4865,4865,4865,4865,4827,4827,4827,4827,4827,4790,4753,4753,4716,4716,4716,4716,4716,4716,4716,4716,4716,4716,4716,4716,4753,4753,4753,4753,4716,4716,4716,4646,4646,4646,4646,4646,4646,4611,4611,4611,4611,4577,4577,4577,4543,4543,4510,4510,4510,4477,4445,4445,4382,4382,4382,4382,4382,4382,4382,4382,4382,4382,4382,4382,4382,4382,4382,4382,4382,4413,4413,4413,4413,4413,4413,4413,4413
0,0,0,0,0,0,0,0,0,0,0,0,0,0,0,0,0,0,0,0,0,0,0,0,0,0,2073,2073,2073,2073,2080,2080,0,0,2102,2102,2102,2123,2138,2138,2153,2176,2176,2191,2207,2207,2215,2215,2223,2231,2231,2239,2247,2247,2255,2255,2255,2263,2263,2288,2305,2305,2314,2323,2323,2332,2349,2349,2358,2349,2349,2349,2340,2332,2332,2332,2340,2340,2340,2340,2332,2332,2332,2332,2349,2349,2349,2349,2349,2349,2349,2340,2340,2332,2323,2323,2314,2314,2305,2297,2297,2297,2297,2297,2297,2297,2297,2305,2314,2314,2323,2332,2332,2340,2349,2349,2358,2358,2349,2349,2349,2340,2340,2332,2332,2323,2323,0,0,0,0,0,0,0,0,0,0,0,0,0,0,0,0,0,0,0,0,0,0,0,0,0,0,0,0,0,0,0,0,0,0,0,0,0,0,0,0,2553,2553,2553,0,0,2532,2532,2512,2512,2501,2481,2481,2481,2481,2481,2481,2481,2471,2471,2481,2481,2491,2512,2512,2532,2553,2553,2553,2553,2564,2564,2564,2564,2564,2553,2553,2532,2512,2512,2491,2481,2481,2471,2471,2462,2462,2462,2452,2452,2452,2452,2452,2452,2452,2462,2462,2462,2471,2471,2471,2471,2481,2491,2491,2491,2501,2501,2512,2512,2522,2532,2532,2532,2553,2553,2553,2553,2553,2553,2553,2543,2543,2543,2543,2543,2532,2532,2532,2532,2532,2522,2522,2522,2522,2522,2522,2512,2512,2512,2512,2501,2501,0,0,0,0,0,0,0,0,0,0,0,0,0,0,0,0,0,0,0,0,0,0,0,0,0,0,0,0,0,0,0,0,0,0,0,0,0,0,0,0,0,0,0,0,0,0,0,0,0,0,0,0,0,0,0,0,0,0,0,0,0,0,0,0,0,0,0,0,0,0,0,0,0,0,0,0,0,0,0,0,0,0,0,0,0,0,0,0,0,0,0,0,0,0,0,0,0,0,0,0,0,0,0,0,0,0,0,0,0,0,0,0,0,0,0,0,0,0,0,0,0,0,0,0,0,0,2452,2442,2442,2423,2395,2395,2376,2376,2349,2323,2323,2305,2305,2288,2272,2272,2255,2239,2239,2223,2223,2207,2191,2191,2176,2176,2160,2145,2145,2138,2116,2116,2102,2102,2080,2073,2073,2060,2060,2046,2032,2032,2019,2019,2000,1993,1993,1974,1955,1955,1937,1937,1919,1901,1901,1884,1884,1867,1850,1850,1833,1833,1817,1807,1807,1796,1791,1791,1781,1781,1775,1770,1770,1770,1765,1765,1765,1775,1775,1801,1833,1833,1867,1895,1895,1931,1961,1961,2000,2032,2032,2046,2046,2039,2039,2039,2032,2032,2026,2019,2019,2006,2006,1993,1980,1980,1961,1961,1949,1931,1931,1913,1901,1901,1884,1884,1872,1867,1867,1855,1855,1850,1844,1844,1839,1833,1833,1833,1833,1828,1828,1828,1812,1812,1812,1812,1812,1807,1807,1807,1807,0,0,0,0,0,0,0,4477,4477,4477,4510,4543,4543,4577,4611,4611,4646,4646,4681,4716,4716,4753,4790,4790,4827,4865,4865,4865,4865,4865,4865,4827,4827,4827,4827,4827,4790,4753,4753,4716,4716,4716,4716,4753,4753,4716,4716,4716,4716,4716,4716,4753,4753,4753,4753,4716,4716,4716,4646,4646,4646,4646,4646,4646,4611,4611,4611,4611,4577,4543,4543,4510,4510,4510,4510,4510,4445,4413,4413,4382,4382,4382,4382,4382,4382,4382,4382,4382,4382,4382,4382,4382,4382,4382,4382,4382,4413,4413,4413,4413,4413,4413,4413,4413
0,0,0,0,0,0,0,0,0,0,0,0,0,0,0,0,0,0,0,0,0,0,0,0,0,0,2073,2073,2073,2073,2080,2080,0,0,2109,2109,2109,2131,2153,2153,2168,2183,2183,2207,2215,2215,2231,2239,2239,2247,2247,2255,2263,2263,2263,2263,2263,2280,2280,2297,2314,2314,2323,2332,2332,2332,2349,2349,2358,2349,2349,2349,2340,2332,2332,2332,2340,2340,2340,2340,2332,2332,2332,2332,2349,2349,2349,2349,2349,2349,2349,2340,2340,2332,2323,2323,2314,2305,2305,2297,2297,2297,2297,2297,2297,2297,2305,2305,2323,2323,2332,2340,2340,2349,2349,2349,2358,2358,2349,2349,2349,2340,2340,2332,2332,2323,2323,2323,2323,0,0,0,0,0,0,0,0,0,0,0,0,0,0,0,0,0,0,0,0,0,0,0,0,0,0,0,0,0,0,0,0,0,0,0,0,0,0,2553,2553,2543,2543,2543,2532,2532,2512,2512,2501,2481,2481,2481,2481,2481,2481,2481,2471,2471,2481,2481,2491,2512,2512,2532,2553,2553,2553,2553,2564,2564,2564,2564,2564,2543,2543,2532,2512,2512,2491,2481,2481,2471,2471,2462,2452,2452,2452,2452,2442,2442,2442,2442,2452,2452,2452,2462,2462,2462,2462,2462,2471,2481,2481,2491,2501,2501,2512,2512,2522,2532,2532,2532,2553,2553,2553,2553,2553,2553,2553,2543,2543,2543,2543,2543,2532,2532,2532,2532,2532,2522,2522,2522,2522,2522,2522,2512,2512,2512,2512,2501,2501,2501,2491,2491,0,2471,2471,2452,2442,2442,2433,2414,2414,2404,2404,2395,2386,2386,2386,2386,2386,2386,2395,2395,2404,2414,2414,2423,2433,2433,2452,2452,2462,2481,2481,2491,2501,2501,2501,2501,2501,2501,2501,0,0,0,0,0,0,0,0,0,0,0,0,0,0,0,0,0,0,0,0,0,0,0,0,0,0,0,0,0,0,0,0,0,0,0,0,0,0,0,0,0,0,0,0,0,0,0,0,0,0,0,0,0,0,0,0,0,0,0,0,0,0,0,0,0,0,0,0,0,0,0,0,0,0,0,0,0,0,0,0,0,0,2471,2452,2452,2442,2442,2423,2395,2395,2376,2376,2349,2323,2323,2305,2305,2280,2272,2272,2255,2239,2239,2223,2223,2207,2191,2191,2176,2176,2160,2145,2145,2131,2116,2116,2094,2094,2080,2073,2073,2060,2060,2046,2032,2032,2019,2019,2000,1993,1993,1974,1955,1955,1937,1937,1919,1901,1901,1884,1884,1867,1850,1850,1833,1833,1823,1812,1812,1801,1791,1791,1786,1786,1775,1770,1770,1770,1765,1765,1765,1775,1775,1801,1833,1833,1861,1895,1895,1925,1961,1961,1993,2032,2032,2039,2039,2039,2039,2032,2026,2026,2019,2013,2013,2000,2000,1987,1974,1974,1961,1961,1943,1931,1931,1913,1901,1901,1889,1889,1878,1872,1872,1867,1867,1855,1850,1850,1844,1844,1844,1839,1839,1839,1833,1833,1823,1817,1817,1817,1817,1817,1817,1817,1817,0,0,0,0,0,0,0,4477,4477,4477,4510,4543,4543,4577,4611,4611,4646,4681,4681,4716,4716,4753,4790,4790,4827,4865,4865,4865,4865,4865,4865,4827,4827,4827,4827,4827,4790,4753,4753,4716,4716,4716,4716,4753,4753,4716,4716,4716,4716,4716,4716,4753,4753,4753,4753,4716,4681,4681,4611,4611,4577,4577,4577,4577,4577,4577,4543,4543,4543,4510,4510,4477,4477,4477,4477,4477,4413,4413,4413,4413,4413,4382,4382,4382,4382,4382,4382,4382,4382,4382,4382,4382,4382,4382,4413,4413,4413,4413,4413,4413,4413,4413,4413,4413
0,0,0,0,0,0,0,0,0,0,0,0,0,0,0,0,0,0,0,0,0,0,0,0,0,0,2073,2073,2073,2080,2080,2080,2102,2102,2102,2109,2109,2131,2153,2153,2168,2183,2183,2207,2215,2215,2231,2239,2239,2247,2247,2255,2263,2263,2263,2263,2263,2280,2280,2297,2314,2314,2323,2332,2332,2332,2349,2349,2358,2358,2349,2349,2349,2332,2332,2332,2340,2340,2340,2340,2332,2332,2332,2332,2349,2349,2349,2349,2349,2349,2349,2349,2349,2340,2332,2332,2323,2305,2305,2305,2305,2297,2297,2297,2297,2297,2314,2314,2323,2323,2332,2340,2340,2349,2358,2358,2358,2358,2349,2349,2349,2340,2340,2332,2332,2323,2323,2323,2323,0,0,0,0,0,0,0,0,0,0,0,0,0,0,0,0,2404,2404,2404,2414,2423,2423,2433,2433,2442,2462,2462,2481,2491,2491,2501,2532,2532,2553,2553,2553,2564,2564,2553,2553,2543,2543,2543,2532,2532,2522,2512,2512,2501,2501,2491,2491,2491,2491,2491,2491,2491,2491,2491,2501,2522,2522,2532,2553,2553,2564,2564,2564,2564,2564,2564,2564,2543,2543,2532,2512,2512,2491,2481,2481,2471,2471,2462,2452,2452,2452,2452,2442,2442,2442,2442,2452,2452,2452,2462,2462,2462,2462,2462,2471,2481,2481,2491,2501,2501,2512,2512,2522,2532,2532,2532,2543,2543,2543,2543,2543,2543,2543,2532,2532,2522,2522,2522,2522,2522,2512,2512,2512,2512,2512,2501,2501,2501,2501,2501,2501,2501,2501,2501,2491,2491,2491,2481,2481,2462,2462,2452,2433,2433,2423,2414,2414,2404,2404,2386,2386,2386,2386,2386,2386,2386,2386,2386,2395,2404,2404,2423,2433,2433,2452,2452,2462,2481,2481,2491,2501,2501,2501,2501,2501,2501,2501,0,0,0,0,0,0,0,0,0,0,0,0,0,0,0,0,0,0,0,0,0,0,0,0,0,0,0,0,0,0,0,0,0,0,0,0,0,0,0,0,0,0,0,0,0,0,0,0,0,0,0,2629,2629,2629,2640,2640,2640,2652,2640,2640,0,2618,2607,2607,2574,2574,2553,2532,2532,2512,2512,2491,2481,2481,2481,2481,2501,2501,2501,2501,2491,2491,2471,2452,2452,2442,2442,2423,2404,2404,2376,2376,2349,2323,2323,2305,2305,2280,2272,2272,2255,2239,2239,2223,2223,2207,2191,2191,2176,2176,2160,2145,2145,2131,2116,2116,2094,2094,2080,2066,2066,2060,2060,2046,2032,2032,2019,2000,2000,1993,1993,1974,1955,1955,1937,1937,1919,1901,1901,1884,1884,1867,1850,1850,1833,1823,1823,1812,1812,1801,1791,1791,1786,1786,1775,1770,1770,1770,1770,1770,1770,1781,1781,1801,1828,1828,1861,1889,1889,1919,1955,1955,1987,2019,2019,2032,2032,2032,2032,2026,2026,2026,2019,2013,2013,2000,2000,1987,1974,1974,1961,1961,1943,1931,1931,1913,1901,1901,1895,1895,1884,1878,1878,1872,1872,1867,1861,1861,1855,1850,1850,1850,1850,1844,1844,1844,1823,1817,1817,1817,1817,1817,1817,1817,1817,0,0,0,0,0,0,0,4477,4477,4477,4510,4543,4543,4577,4611,4611,4646,4681,4681,4716,4716,4753,4790,4790,4827,4865,4865,4865,4865,4865,4865,4865,4865,4865,4827,4827,4827,4790,4790,4753,4753,4753,4753,4753,4753,4753,4753,4753,4753,4753,4753,4753,4753,4716,4716,4681,4611,4611,4611,4611,4577,4577,4577,4577,4577,4577,4543,4543,4543,4510,4510,4477,4477,4477,4477,4477,4413,4413,4413,4413,4413,4382,4382,4382,4382,4382,4413,4413,4413,4413,4413,4413,4413,4413,4413,4413,4413,4413,4413,4413,4413,4413,4413,4413
0,0,0,0,0,0,0,0,0,0,0,0,0,0,0,0,0,0,0,0,0,0,0,0,2080,2080,2073,2073,2073,2080,2087,2087,2102,2102,2102,2123,2138,2138,2160,2160,2176,2191,2191,2215,2223,2223,2239,2247,2247,2255,2255,2263,2263,2263,2272,2272,2272,2280,2280,2297,2314,2314,2323,2332,2332,2340,2349,2349,2358,2358,2349,2349,2349,2340,2340,2340,2340,2340,2340,2340,2332,2332,2340,2340,2349,2349,2358,2358,2358,2358,2358,2358,2358,2340,2332,2332,2323,2305,2305,2305,2305,2297,2297,2297,2297,2297,2314,2314,2323,2323,2332,2340,2340,2349,2358,2358,2358,2358,2349,2349,2349,2340,2340,2332,2332,2323,2323,2323,2323,2332,0,2340,2340,2340,0,0,0,0,0,0,0,0,0,0,2404,2404,2404,2404,2414,2423,2423,2433,2433,2442,2462,2462,2481,2491,2491,2501,2532,2532,2553,2553,2553,2564,2564,2553,2553,2553,2553,2543,2532,2532,2522,2512,2512,2501,2501,2501,2491,2491,2491,2491,2491,2491,2491,2491,2512,2522,2522,2543,2553,2553,2564,2564,2564,2564,2553,2553,2553,2543,2543,2522,2501,2501,2481,2471,2471,2462,2462,2452,2452,2452,2442,2442,2433,2433,2442,2442,2442,2442,2442,2452,2452,2452,2462,2462,2462,2471,2471,2481,2491,2491,2501,2501,2501,2512,2512,2522,2532,2522,2522,2522,2522,2522,2522,2522,2522,2522,2522,2522,2512,2512,2512,2512,2512,2512,2512,2501,2501,2501,2501,2501,2501,2501,2501,2501,2491,2491,2491,2481,2481,2462,2462,2452,2433,2433,2423,2414,2414,2404,2404,2386,2386,2386,2386,2386,2386,2386,2386,2386,2395,2404,2404,2414,2423,2423,2442,2442,2452,2471,2471,2481,2491,2491,2491,2501,2491,2491,2491,2491,2491,2481,2481,2471,2471,2471,2471,2471,2471,2462,2462,2462,2462,0,0,0,0,0,0,2462,2452,2452,2452,2452,0,0,0,0,0,0,0,0,0,0,0,0,0,0,0,0,0,2553,2553,2564,2564,0,0,0,0,0,2629,2629,2629,2640,2640,2640,2652,2640,2640,0,2618,2607,2607,2574,2574,2553,2532,2532,2512,2512,2491,2481,2481,2481,2481,2501,2501,2501,2501,2491,2491,2471,2452,2452,2442,2442,2423,2404,2404,2376,2376,2349,2323,2323,2305,2305,2280,2263,2263,2255,2239,2239,2223,2223,2207,2191,2191,2176,2176,2160,2145,2145,2131,2116,2116,2094,2094,2080,2066,2066,2060,2060,2046,2032,2032,2019,2000,2000,1987,1987,1974,1955,1955,1937,1937,1919,1901,1901,1884,1884,1867,1850,1850,1833,1823,1823,1812,1812,1801,1791,1791,1786,1786,1781,1775,1775,1775,1770,1770,1770,1781,1781,1801,1828,1828,1861,1889,1889,1919,1955,1955,1987,2019,2019,2032,2032,2032,2032,2026,2019,2019,2013,2006,2006,1993,1993,1980,1968,1968,1955,1955,1943,1931,1931,1913,1901,1901,1895,1895,1884,1878,1878,1872,1872,1867,1861,1861,1855,1850,1850,1850,1850,1844,1844,1844,1833,1828,1828,1828,1828,1828,1823,1823,1823,0,0,0,0,0,0,0,4477,4477,4477,4510,4543,4543,4577,4611,4611,4646,4681,4681,4716,4716,4753,4790,4790,4827,4865,4865,4904,4904,4904,4904,4865,4865,4865,4865,4865,4827,4790,4790,4753,4753,4790,4790,4790,4790,4790,4790,4753,4753,4753,4753,4753,4753,4716,4716,4681,4611,4611,4543,4543,4543,4543,4543,4543,4510,4510,4477,4477,4477,4477,4477,4445,4445,4445,4445,4445,4413,4413,4413,4413,4413,4382,4382,4382,4382,4382,4413,4413,4413,4413,4413,4413,4413,4413,4413,4413,4413,4413,4413,4413,4413,4413,4413,4413
0,0,0,0,0,0,0,0,0,0,0,0,0,0,0,0,0,0,0,0,0,0,0,0,2080,2080,2080,2080,2080,2087,2094,2094,2109,2109,2109,2131,2153,2153,2176,2176,2183,2199,2199,2223,2239,2239,2247,2255,2255,2263,2263,2272,2272,2272,2272,2272,2272,2280,2280,2297,2314,2314,2323,2332,2332,2340,2349,2349,2358,2358,2349,2349,2349,2340,2340,2340,2340,2340,2340,2340,2332,2332,2340,2340,2349,2349,2358,2358,2358,2358,2358,2358,2358,2340,2340,2340,2323,2314,2314,2305,2305,2297,2297,2305,2305,2305,2314,2314,2323,2323,2332,2340,2340,2349,2358,2358,2358,2358,2358,2358,2349,2340,2340,2332,2332,2332,2332,2332,2332,2332,0,2340,2340,2340,0,0,0,0,0,0,0,0,0,0,2404,2404,2414,2414,2423,2433,2433,2442,2442,2462,2471,2471,2481,2491,2491,2501,2532,2532,2543,2543,2553,2553,2553,2553,2553,2543,2543,2543,2532,2532,2522,2512,2512,2501,2501,2501,2491,2491,2491,2491,2491,2491,2491,2491,2512,2522,2522,2532,2553,2553,2553,2553,2553,2553,2553,2543,2543,2532,2532,2512,2491,2491,2471,2462,2462,2452,2452,2442,2433,2433,2433,2433,2433,2433,2433,2433,2442,2442,2442,2452,2452,2452,2462,2462,2462,2471,2471,2481,2491,2491,2501,2501,2501,2512,2512,2522,2532,2522,2522,2522,2522,2522,2522,2522,2522,2522,2522,2522,2512,2512,2512,2512,2512,2501,2501,2501,2501,2501,2501,2501,2501,2491,2491,2491,2491,2491,2481,2471,2471,2462,2462,2452,2433,2433,2423,2414,2414,2395,2395,2386,2386,2386,2386,2386,2386,2386,2386,2386,2395,2404,2404,2414,2423,2423,2442,2442,2452,2471,2471,2481,2481,2481,2491,2491,2481,2481,2481,2481,2481,2481,2481,2462,2452,2452,2452,2471,2471,2462,2462,2462,2462,0,0,0,0,0,0,2462,2452,2452,2452,2452,0,0,0,0,0,0,0,0,0,0,0,0,0,0,0,0,0,2553,2553,2564,2564,2574,2585,2585,2596,2596,2618,2629,2629,2629,2640,2640,2640,2629,2629,2629,2618,2585,2585,2574,2574,2553,2532,2532,2501,2501,2491,2481,2481,2471,2471,2491,2491,2501,2501,2481,2481,2471,2452,2452,2433,2433,2423,2404,2404,2376,2376,2340,2314,2314,2297,2297,2280,2263,2263,2247,2239,2239,2223,2223,2207,2191,2191,2176,2176,2160,2145,2145,2131,2116,2116,2094,2094,2080,2066,2066,2060,2060,2046,2032,2032,2019,2000,2000,1987,1987,1974,1955,1955,1937,1937,1919,1901,1901,1884,1884,1867,1850,1850,1833,1823,1823,1812,1812,1801,1791,1791,1786,1786,1781,1775,1775,1775,1770,1770,1770,1781,1781,1801,1823,1823,1855,1884,1884,1913,1943,1943,1980,2013,2013,2019,2026,2019,2019,2019,2013,2013,2006,1993,1993,1987,1987,1974,1961,1961,1949,1937,1937,1925,1925,1913,1907,1907,1895,1895,1889,1884,1884,1878,1872,1872,1867,1867,1861,1855,1855,1855,1855,1855,1850,1850,1839,1839,1839,1839,1839,1839,1833,1833,1833,0,0,0,0,0,0,0,4477,4477,4477,4510,4543,4543,4577,4611,4611,4646,4681,4681,4716,4716,4753,4790,4790,4827,4865,4865,4904,4904,4904,4904,4865,4865,4865,4865,4865,4827,4790,4790,4753,4753,4790,4790,4790,4790,4790,4790,4753,4753,4753,4753,4753,4716,4716,4716,4646,4611,4611,4543,4543,4543,4510,4510,4510,4510,4510,4477,4477,4477,4477,4477,4445,4445,4445,4445,4445,4413,4413,4413,4413,4413,4413,4413,4413,4413,4413,4413,4413,4413,4413,4413,4413,4413,4413,4413,4413,4413,4413,4413,4413,4413,4413,4413,4413
0,0,0,0,0,0,0,0,0,0,0,0,0,0,0,0,0,0,0,0,0,0,0,0,2080,2080,2080,2080,2080,2087,2094,2094,2102,2109,2109,2131,2153,2153,2176,2176,2183,2199,2199,2223,2239,2239,2247,2255,2255,2263,2263,2272,2272,2272,2272,2272,2272,2288,2297,2297,2314,2314,2332,2340,2340,2349,2358,2358,2367,2367,2358,2358,2349,2340,2340,2340,2340,2340,2340,2340,2340,2340,2340,2340,2358,2358,2367,2367,2367,2367,2367,2367,2367,2358,2349,2349,2332,2323,2323,2305,2305,2305,2305,2305,2305,2305,2314,2314,2323,2323,2332,2340,2340,2349,2358,2358,2358,2358,2358,2358,2349,2340,2340,2332,2332,2332,2332,2332,2332,2332,2349,2340,2340,2340,0,0,0,0,0,0,0,0,2414,2414,2404,2404,2414,2414,2423,2433,2433,2442,2442,2462,2471,2471,2491,2501,2501,2512,2532,2532,2543,2543,2553,2553,2543,2543,2543,2543,2543,2543,2532,2532,2522,2512,2512,2501,2501,2501,2501,2501,2491,2491,2501,2501,2501,2501,2512,2522,2522,2532,2553,2553,2553,2553,2553,2553,2553,2543,2543,2532,2532,2512,2491,2491,2471,2462,2462,2452,2452,2442,2433,2433,2433,2433,2433,2433,2433,2433,2433,2442,2442,2442,2452,2452,2452,2452,2452,2471,2462,2462,2471,2471,2481,2481,2491,2491,2491,2501,2512,2512,2512,2512,2512,2522,2501,2501,2512,2501,2501,2501,2501,2501,2501,2501,2501,2501,2501,2501,2501,2501,2501,2501,2501,2491,2491,2491,2491,2491,2481,2471,2471,2462,2462,2452,2433,2433,2414,2404,2404,2395,2395,2386,2386,2386,2386,2386,2386,2386,2395,2395,2404,2404,2404,2414,2433,2433,2442,2442,2462,2471,2471,2481,2481,2481,2491,2491,2481,2481,2481,2481,2481,2481,2481,2462,2452,2452,2452,2462,2462,2452,2452,2442,2442,2442,2442,0,0,2442,2442,2442,2442,2452,2442,2442,2442,2442,2442,2452,2452,2452,2452,0,0,0,0,0,0,0,0,0,0,2543,2543,2553,2553,2564,2574,2574,2596,2596,2607,2618,2618,2629,2629,2629,2629,2629,2618,2618,2607,2585,2585,2574,2574,2543,2522,2522,2501,2501,2491,2481,2481,2471,2471,2491,2491,2501,2501,2481,2481,2471,2462,2462,2433,2433,2423,2404,2404,2376,2376,2340,2314,2314,2297,2297,2280,2263,2263,2247,2239,2239,2223,2223,2207,2191,2191,2176,2176,2160,2145,2145,2131,2109,2109,2087,2087,2073,2066,2066,2060,2060,2039,2026,2026,2019,2000,2000,1987,1987,1974,1955,1955,1937,1937,1919,1901,1901,1884,1884,1867,1850,1850,1833,1823,1823,1812,1812,1801,1791,1791,1786,1786,1775,1775,1775,1775,1770,1770,1770,1781,1781,1801,1823,1823,1844,1878,1878,1913,1943,1943,1980,2013,2013,2019,2026,2019,2019,2019,2013,2013,2006,1993,1993,1987,1987,1974,1961,1961,1949,1937,1937,1925,1925,1913,1907,1907,1895,1895,1889,1884,1884,1884,1872,1872,1867,1867,1861,1855,1855,1855,1855,1855,1850,1850,1839,1839,1839,1839,1839,1839,1833,1833,1833,0,0,0,0,0,0,0,4477,4477,4477,4510,4543,4543,4577,4611,4611,4646,4681,4681,4681,4681,4716,4790,4790,4827,4865,4865,4865,4904,4904,4904,4865,4865,4865,4865,4865,4827,4790,4790,4790,4790,4790,4790,4790,4790,4790,4790,4753,4753,4753,4753,4753,4716,4716,4716,4646,4611,4611,4543,4543,4543,4510,4510,4510,4510,4510,4477,4477,4477,4477,4477,4445,4445,4445,4445,4445,4413,4413,4413,4413,4413,4413,4413,4413,4413,4413,4413,4413,4413,4413,4413,4413,4413,4413,4413,4413,4413,4413,4413,4413,4413,4413,4413,4413
0,0,0,0,0,0,0,0,0,0,0,0,0,0,0,0,0,0,0,0,0,0,0,0,2080,2080,2080,2080,2080,2087,2094,2094,2102,2116,2116,2138,2153,2153,2176,2176,2191,2215,2215,2231,2247,2247,2255,2263,2263,2263,2263,2272,2280,2280,2280,2280,2280,2288,2305,2305,2323,2323,2332,2349,2349,2349,2367,2367,2367,2367,2367,2367,2358,2349,2349,2349,2349,2349,2349,2358,2340,2340,2340,2340,2358,2358,2367,2367,2367,2367,2367,2367,2367,2358,2349,2349,2332,2323,2323,2305,2305,2305,2305,2305,2305,2305,2314,2314,2323,2323,2332,2340,2340,2349,2358,2349,2349,2358,2349,2349,2349,2340,2340,2340,2340,2332,2332,2332,2332,2332,2349,2349,2349,2367,2367,0,2395,2395,2395,2395,2404,2414,2414,2414,2414,2414,2423,2423,2442,2442,2442,2452,2471,2471,2481,2481,2491,2501,2501,2512,2532,2532,2543,2543,2553,2553,2543,2543,2543,2543,2543,2543,2532,2532,2522,2512,2512,2501,2501,2501,2501,2501,2491,2491,2491,2491,2491,2491,2501,2522,2522,2532,2543,2543,2553,2553,2543,2543,2543,2532,2532,2522,2522,2501,2481,2481,2462,2442,2442,2433,2433,2423,2423,2423,2414,2414,2414,2414,2414,2414,2423,2423,2423,2423,2433,2433,2433,2433,2433,2442,2442,2452,2462,2462,2471,2471,2471,2481,2481,2481,2491,2491,2491,2491,2491,2522,2501,2501,2512,2501,2501,2501,2501,2501,2501,2501,2501,2501,2501,2501,2501,2501,2501,2501,2501,2491,2491,2491,2491,2491,2481,2471,2471,2462,2462,2452,2433,2433,2414,2404,2404,2395,2395,2386,2386,2386,2386,2386,2386,2386,2386,2386,2395,2404,2404,2414,2433,2433,2442,2442,2452,2471,2471,2481,2481,2481,2481,2481,2481,2481,2481,2481,2481,2471,2462,2462,2452,2452,2442,2442,2452,2442,2442,2433,2433,2433,2433,2433,2433,2433,2433,2442,2433,2433,2433,2433,2442,2442,2442,2452,2452,2452,2452,0,0,0,0,0,0,0,0,0,0,2543,2543,2553,2553,2564,2574,2574,2596,2596,2607,2618,2618,2629,2629,2629,2629,2629,2618,2618,2607,2585,2585,2574,2574,2543,2522,2522,2501,2501,2491,2481,2481,2471,2471,2481,2481,2491,2491,2481,2481,2462,2452,2452,2433,2433,2423,2404,2404,2376,2376,2340,2314,2314,2297,2280,2280,2255,2255,2247,2231,2231,2223,2223,2199,2183,2183,2168,2153,2153,2138,2138,2123,2109,2109,2087,2087,2073,2060,2060,2053,2053,2039,2026,2026,2013,2000,2000,1987,1987,1974,1955,1955,1937,1937,1919,1901,1901,1884,1884,1867,1850,1850,1833,1823,1823,1812,1812,1801,1791,1791,1786,1786,1775,1775,1775,1775,1770,1770,1770,1781,1781,1801,1823,1823,1844,1878,1878,1901,1937,1937,1968,2000,2000,2006,2013,2013,2013,2006,2006,2006,2000,1987,1987,1974,1974,1968,1955,1955,1943,1931,1931,1919,1919,1913,1901,1901,1895,1895,1889,1884,1884,1884,1878,1878,1872,1872,1867,1867,1867,1861,1861,1861,1855,1855,1850,1850,1850,1850,1844,1844,1844,1844,1844,0,0,0,0,0,0,0,4477,4477,4510,4510,4543,4543,4577,4611,4611,4646,4681,4681,4681,4681,4716,4790,4790,4827,4865,4865,4865,4904,4904,4904,4865,4865,4865,4865,4865,4827,4827,4827,4790,4790,4790,4790,4790,4790,4790,4790,4753,4753,4753,4753,4753,4716,4716,4716,4646,4611,4611,4543,4543,4477,4477,4510,4510,4510,4510,4477,4477,4477,4477,4477,4445,4445,4445,4445,4445,4413,4413,4413,4413,4413,4413,4413,4413,4413,4413,4413,4413,4413,4413,4413,4413,4413,4413,4413,4413,4413,4413,4413,4413,4413,4413,4413,4413
0,0,0,0,0,0,0,0,0,0,0,0,0,0,0,0,0,0,0,0,0,0,0,0,2080,2080,2080,2087,2094,2094,2102,2102,2109,2123,2123,2145,2168,2168,2183,2199,2199,2223,2223,2239,2247,2247,2255,2263,2263,2263,2263,2272,2280,2280,2280,2280,2280,2288,2305,2305,2323,2323,2332,2349,2349,2349,2367,2367,2367,2367,2367,2367,2358,2349,2349,2349,2349,2349,2349,2358,2349,2349,2349,2349,2367,2376,2376,2376,2376,2376,2376,2376,2367,2367,2349,2349,2332,2323,2323,2305,2305,2305,2305,2305,2305,2314,2314,2314,2323,2323,2332,2340,2340,2349,2358,2349,2349,2358,2349,2349,2349,2340,2340,2340,2340,2340,2340,2340,2340,2349,2358,2358,2358,2367,2367,0,2395,2395,2395,2395,2404,2414,2414,2414,2414,2414,2423,2423,2442,2442,2442,2452,2471,2471,2481,2481,2491,2501,2501,2512,2532,2532,2543,2543,2543,2543,2543,2543,2543,2543,2543,2532,2532,2532,2522,2501,2501,2501,2501,2501,2501,2501,2491,2491,2491,2491,2491,2491,2501,2512,2512,2522,2532,2532,2543,2532,2532,2532,2522,2522,2522,2501,2501,2481,2462,2462,2462,2442,2442,2433,2433,2423,2423,2423,2414,2414,2414,2414,2414,2414,2423,2423,2423,2423,2433,2433,2433,2433,2433,2442,2442,2452,2462,2462,2471,2471,2471,2481,2481,2481,2491,2491,2491,2491,2491,2501,2491,2491,2491,2491,2491,2491,2491,2491,2491,2491,2491,2491,2491,2491,2491,2491,2491,2491,2491,2491,2491,2491,2491,2491,2481,2471,2471,2462,2462,2452,2433,2433,2414,2404,2404,2395,2395,2395,2386,2386,2386,2386,2386,2386,2386,2386,2395,2404,2404,2414,2433,2433,2442,2442,2452,2462,2462,2471,2481,2481,2481,2481,2481,2481,2481,2481,2481,2471,2462,2462,2452,2452,2442,2442,2452,2442,2442,2433,2433,2433,2433,2433,2433,2433,2433,2442,2433,2433,2433,2433,2442,2442,2442,2452,2452,2452,2452,0,0,0,0,0,0,0,2512,2512,2522,2522,2532,2543,2543,2564,2574,2574,2596,2596,2596,2607,2607,2618,2618,2618,2629,2618,2618,2618,2607,2585,2585,2574,2574,2543,2522,2522,2501,2501,2491,2481,2481,2471,2471,2481,2481,2481,2481,2481,2481,2462,2452,2452,2433,2433,2423,2404,2404,2376,2376,2340,2314,2314,2297,2280,2280,2255,2255,2247,2231,2231,2223,2223,2199,2183,2183,2168,2153,2153,2138,2138,2123,2109,2109,2087,2087,2073,2060,2060,2053,2053,2039,2026,2026,2013,2000,2000,1987,1987,1974,1955,1955,1937,1937,1919,1901,1901,1884,1884,1867,1850,1850,1833,1823,1823,1812,1812,1801,1791,1791,1786,1786,1775,1775,1775,1775,1770,1770,1770,1781,1781,1796,1817,1817,1839,1867,1867,1895,1925,1925,1955,1987,1987,2000,2000,2000,2000,2000,1993,1993,1987,1974,1974,1968,1968,1955,1943,1943,1937,1925,1925,1919,1919,1913,1901,1901,1895,1895,1889,1884,1884,1884,1878,1878,1878,1878,1872,1872,1872,1867,1867,1872,1867,1867,1855,1855,1855,1855,1855,1855,1855,1855,1855,0,0,0,0,0,0,0,4477,4477,4510,4510,4543,4543,4577,4611,4611,4611,4646,4646,4681,4681,4716,4753,4753,4827,4827,4827,4865,4865,4865,4904,4865,4865,4865,4865,4827,4827,4790,4790,4790,4790,4790,4790,4790,4790,4790,4790,4753,4753,4753,4716,4716,4753,4716,4716,4646,4611,4611,4543,4543,4477,4477,4510,4510,4510,4510,4477,4477,4477,4445,4445,4445,4445,4445,4445,4445,4413,4413,4413,4413,4413,4413,4413,4413,4413,4413,4413,4413,4413,4413,4413,4413,4413,4413,4413,4413,4413,4413,4413,4413,4413,4413,4413,4413
0,0,0,0,0,0,0,0,0,0,0,0,0,0,0,0,0,0,0,0,0,0,0,0,2080,2080,2080,2087,2094,2094,2102,2102,2109,2123,2123,2145,2168,2168,2183,2199,2199,2223,2223,2239,2255,2255,2263,2272,2272,2280,2280,2280,2280,2280,2280,2288,2288,2297,2314,2314,2332,2332,2340,2349,2349,2358,2367,2367,2376,2376,2367,2367,2367,2358,2358,2358,2358,2358,2358,2358,2358,2367,2367,2367,2386,2395,2386,2386,2386,2386,2386,2386,2367,2367,2358,2358,2340,2323,2323,2314,2314,2314,2314,2314,2314,2314,2314,2314,2323,2323,2332,2340,2340,2349,2358,2349,2349,2358,2349,2349,2349,2340,2340,2340,2340,2340,2340,2340,2340,2349,2358,2358,2358,2367,2367,2386,2386,2395,2395,2395,2404,2414,2414,2414,2414,2423,2433,2433,2442,2452,2452,2462,2471,2471,2481,2481,2491,2491,2491,2512,2522,2522,2532,2532,2543,2543,2543,2532,2532,2532,2543,2532,2532,2532,2522,2501,2501,2501,2501,2501,2501,2501,2491,2491,2491,2491,2491,2491,2501,2512,2512,2522,2532,2532,2543,2532,2532,2532,2522,2522,2522,2501,2501,2481,2462,2462,2442,2433,2433,2423,2423,2414,2414,2414,2404,2404,2404,2404,2404,2404,2404,2404,2404,2414,2423,2423,2423,2423,2423,2433,2433,2433,2442,2442,2452,2452,2452,2462,2462,2471,2471,2471,2481,2481,2481,2481,2481,2481,2481,2481,2481,2481,2481,2481,2481,2481,2481,2481,2481,2481,2481,2491,2491,2481,2481,2481,2481,2481,2481,2481,2481,2471,2471,2462,2462,2452,2433,2433,2423,2404,2404,2395,2395,2395,2386,2386,2386,2386,2386,2386,2386,2386,2395,2404,2404,2414,2433,2433,2442,2452,2452,2462,2462,2471,2481,2481,2481,2481,2481,2481,2481,2471,2471,2471,2462,2462,2452,2452,2442,2433,2433,2433,2433,2423,2423,2423,2414,2414,2423,2423,2423,2433,2433,2433,2433,2433,2433,2433,2433,2442,2442,2452,2452,2452,2462,2462,2471,2481,2481,2491,2491,2512,2522,2522,2532,2543,2543,2553,2574,2574,2585,2585,2596,2596,2596,2607,2618,2618,2618,2618,2618,2618,2607,2585,2585,2574,2574,2543,2522,2522,2512,2512,2491,2481,2481,2471,2471,2481,2481,2481,2481,2481,2481,2471,2452,2452,2433,2433,2423,2404,2404,2376,2376,2340,2314,2314,2297,2272,2272,2255,2255,2247,2231,2231,2215,2215,2199,2183,2183,2168,2153,2153,2138,2138,2123,2102,2102,2087,2087,2073,2060,2060,2053,2039,2039,2026,2026,2013,2000,2000,1987,1987,1974,1955,1955,1937,1937,1919,1901,1901,1884,1867,1867,1850,1850,1833,1823,1823,1807,1807,1796,1791,1791,1781,1781,1775,1775,1775,1775,1770,1770,1770,1781,1796,1796,1817,1817,1839,1867,1867,1895,1925,1925,1955,1987,1987,2000,2000,2000,2000,2000,1993,1993,1987,1974,1974,1968,1968,1955,1943,1943,1937,1925,1925,1919,1919,1907,1901,1901,1895,1895,1889,1884,1884,1884,1878,1878,1878,1878,1872,1872,1872,1867,1867,1872,1867,1867,1855,1855,1855,1855,1855,1855,1855,1855,1855,0,0,0,0,0,0,0,4477,4477,4510,4510,4543,4543,4577,4577,4577,4611,4646,4646,4681,4681,4681,4716,4716,4753,4827,4827,4827,4865,4865,4865,4865,4865,4865,4865,4827,4827,4790,4790,4790,4790,4790,4790,4790,4790,4790,4790,4753,4753,4753,4716,4716,4753,4716,4716,4681,4611,4611,4543,4543,4477,4477,4510,4510,4510,4510,4477,4477,4477,4445,4445,4445,4445,4445,4445,4445,4413,4413,4413,4413,4413,4413,4413,4413,4413,4413,4413,4413,4413,4413,4413,4413,4413,4413,4413,4413,4413,4413,4413,4413,4413,4413,4413,4413
0,0,0,0,0,0,0,0,0,0,0,0,0,0,0,0,0,0,0,0,0,0,0,0,2087,2087,2087,2087,2094,2094,2102,2102,2116,2131,2131,2153,2168,2168,2191,2207,2207,2231,2231,2247,2255,2255,2272,2272,2272,2280,2280,2280,2280,2280,2288,2288,2288,2297,2314,2314,2332,2332,2340,2358,2358,2358,2367,2367,2376,2376,2367,2367,2367,2358,2358,2358,2358,2358,2358,2358,2358,2367,2367,2367,2386,2395,2386,2386,2386,2386,2386,2386,2367,2367,2358,2358,2340,2323,2323,2314,2314,2314,2314,2314,2314,2314,2323,2323,2332,2332,2332,2349,2349,2349,2358,2358,2358,2358,2358,2358,2349,2349,2349,2349,2340,2340,2340,2349,2349,2358,2358,2358,2367,2376,2376,2386,2386,2404,2404,2404,2414,2414,2414,2423,2423,2423,2442,2442,2442,2452,2452,2462,2471,2471,2481,2481,2491,2491,2491,2512,2522,2522,2532,2532,2543,2543,2543,2532,2532,2532,2532,2532,2522,2522,2522,2501,2501,2501,2501,2501,2501,2501,2491,2491,2491,2491,2491,2491,2491,2512,2512,2512,2522,2522,2522,2522,2512,2512,2512,2501,2501,2491,2491,2462,2452,2452,2433,2423,2423,2414,2414,2404,2404,2404,2395,2395,2395,2395,2395,2395,2395,2395,2395,2404,2404,2404,2414,2414,2414,2414,2414,2423,2442,2442,2452,2452,2452,2462,2462,2471,2471,2471,2481,2481,2481,2481,2481,2481,2481,2481,2481,2481,2481,2481,2481,2481,2481,2481,2481,2481,2481,2491,2491,2481,2481,2481,2481,2481,2481,2481,2471,2462,2462,2452,2452,2452,2433,2433,2423,2404,2404,2395,2395,2386,2386,2386,2386,2386,2386,2386,2386,2386,2395,2404,2404,2414,2423,2423,2433,2452,2452,2462,2462,2471,2481,2481,2481,2481,2481,2481,2471,2471,2471,2462,2452,2452,2452,2452,2442,2433,2433,2433,2423,2423,2423,2423,2414,2414,2423,2423,2423,2433,2433,2433,2433,2433,2433,2433,2433,2442,2442,2452,2452,2452,2462,2462,2471,2481,2481,2491,2491,2512,2522,2522,2532,2543,2543,2553,2574,2574,2585,2585,2596,2596,2596,2607,2618,2618,2618,2618,2607,2607,2596,2585,2585,2564,2564,2543,2522,2522,2512,2512,2491,2481,2481,2471,2471,2471,2471,2481,2481,2471,2471,2462,2452,2452,2433,2433,2414,2395,2395,2376,2376,2340,2314,2314,2288,2272,2272,2255,2255,2239,2223,2223,2207,2207,2191,2176,2176,2160,2145,2145,2131,2131,2116,2102,2102,2080,2080,2066,2060,2060,2053,2039,2039,2026,2026,2013,2000,2000,1987,1987,1974,1955,1955,1937,1937,1919,1901,1901,1884,1867,1867,1850,1850,1833,1823,1823,1807,1807,1796,1791,1791,1781,1781,1775,1775,1775,1770,1770,1770,1770,1781,1796,1796,1812,1812,1833,1855,1855,1884,1913,1913,1943,1974,1974,1987,1987,1987,1987,1987,1987,1987,1974,1968,1968,1961,1961,1943,1937,1937,1931,1919,1919,1913,1913,1901,1895,1895,1889,1889,1889,1884,1884,1878,1878,1878,1878,1878,1872,1872,1872,1872,1872,1872,1872,1872,1867,1867,1867,1867,1867,1867,1867,1867,1867,0,0,0,0,0,0,0,0,4510,4510,4510,4543,4543,4577,4577,4577,4611,4646,4646,4681,4681,4681,4716,4716,4753,4827,4827,4827,4865,4865,4865,4865,4865,4865,4865,4827,4827,4790,4790,4790,4790,4790,4790,4790,4790,4790,4790,4753,4753,4753,4716,4716,4753,4716,4716,4681,4577,4577,4510,4510,4477,4477,4477,4477,4477,4477,4477,4477,4477,4445,4445,4445,4445,4445,4445,4445,4413,4413,4413,4413,4413,4413,4413,4413,4413,4413,4413,4413,4413,4413,4413,4413,4413,4413,4413,4413,4413,4413,4413,4413,4413,4413,4413,4413
0,0,0,0,0,0,0,0,0,0,0,0,0,0,0,0,0,0,0,0,0,0,0,0,2094,2094,2094,2094,2102,2102,2116,2116,2116,2131,2131,2153,2168,2168,2191,2207,2207,2231,2231,2247,2255,2255,2272,2272,2272,2280,2280,2280,2280,2280,2288,2288,2288,2297,2314,2314,2332,2332,2340,2358,2358,2358,2367,2367,2376,2376,2376,2376,2367,2367,2367,2367,2367,2367,2367,2376,2376,2376,2395,2395,2404,2414,2404,2404,2404,2404,2404,2395,2376,2376,2367,2367,2349,2332,2332,2314,2314,2314,2314,2314,2314,2323,2323,2323,2332,2340,2340,2349,2349,2358,2358,2358,2358,2358,2358,2358,2358,2349,2349,2349,2349,2349,2349,2358,2358,2367,2367,2367,2367,2376,2376,2386,2386,2404,2404,2404,2404,2414,2414,2414,2423,2423,2433,2433,2433,2442,2442,2452,2462,2462,2471,2471,2481,2481,2481,2501,2512,2512,2522,2532,2532,2532,2532,2532,2532,2532,2532,2532,2522,2522,2512,2501,2501,2501,2501,2491,2491,2491,2491,2491,2491,2491,2491,2491,2491,2491,2491,2501,2501,2501,2501,2522,2512,2512,2512,2501,2501,2491,2491,2462,2452,2452,2433,2423,2423,2414,2414,2404,2404,2404,2395,2395,2395,2395,2395,2395,2395,2395,2395,2404,2404,2404,2414,2414,2414,2414,2414,2423,2433,2433,2433,2433,2433,2442,2442,2442,2452,2452,2452,2452,2462,2462,2462,2462,2462,2462,2471,2471,2471,2471,2471,2471,2471,2471,2471,2481,2481,2481,2481,2481,2481,2481,2481,2481,2471,2471,2471,2462,2462,2452,2452,2442,2433,2433,2414,2404,2404,2395,2395,2386,2386,2386,2376,2376,2386,2386,2386,2386,2395,2404,2404,2414,2423,2423,2433,2452,2452,2462,2462,2471,2481,2481,2481,2481,2481,2481,2471,2471,2471,2462,2452,2452,2452,2452,2442,2442,2442,2433,2423,2423,2423,2423,2423,2423,2423,2423,2423,2433,2433,2433,2433,2433,2433,2433,2433,2442,2442,2442,2442,2452,2462,2462,2462,2481,2481,2491,2491,2501,2512,2512,2522,2532,2532,2553,2564,2564,2574,2574,2585,2585,2585,2596,2607,2607,2607,2596,2596,2596,2585,2564,2564,2553,2553,2543,2522,2522,2512,2491,2491,2481,2481,2462,2462,2471,2471,2471,2471,2462,2462,2452,2452,2452,2433,2433,2414,2395,2395,2376,2376,2340,2314,2314,2288,2272,2272,2255,2255,2239,2223,2223,2207,2207,2191,2176,2176,2160,2145,2145,2131,2131,2116,2102,2102,2080,2080,2066,2060,2060,2053,2039,2039,2026,2026,2013,1993,1993,1987,1987,1974,1955,1955,1937,1937,1919,1901,1901,1884,1867,1867,1850,1850,1833,1817,1817,1807,1807,1796,1786,1786,1781,1775,1775,1770,1770,1770,1770,1770,1770,1781,1796,1796,1812,1812,1828,1850,1850,1867,1895,1895,1919,1949,1949,1961,1974,1974,1974,1974,1974,1974,1974,1968,1968,1961,1961,1943,1937,1937,1931,1919,1919,1913,1913,1901,1895,1895,1889,1889,1889,1884,1884,1878,1878,1878,1878,1878,1872,1872,1872,1872,1878,1878,1872,1872,1872,1867,1867,1867,1867,1867,1867,1867,1867,0,0,0,0,0,0,0,0,4510,4510,4510,4543,4543,4577,4577,4577,4611,4646,4646,4646,4646,4646,4716,4716,4753,4827,4827,4827,4827,4827,4827,4827,4827,4865,4827,4827,4827,4790,4790,4753,4753,4753,4753,4753,4790,4753,4753,4753,4753,4753,4716,4716,4716,4716,4716,4646,4577,4577,4510,4510,4477,4477,4477,4477,4477,4477,4477,4477,4477,4445,4445,4445,4445,4445,4445,4445,4413,4413,4413,4413,4413,4413,4413,4413,4413,4413,4413,4413,4413,4413,4413,4413,4413,4413,4413,4413,4413,4413,4413,4413,4413,4413,4413,4413
0,0,0,0,0,0,0,0,0,0,0,0,0,0,0,0,0,0,0,0,0,0,0,0,2094,2094,2094,2094,2102,2102,2116,2116,2123,2145,2145,2160,2183,2183,2199,2215,2215,2239,2239,2247,2263,2263,2272,2280,2280,2280,2288,2288,2288,2288,2288,2297,2297,2305,2314,2314,2332,2332,2340,2358,2358,2367,2376,2376,2376,2386,2376,2376,2376,2367,2367,2367,2376,2376,2376,2386,2386,2395,2404,2404,2423,2433,2423,2423,2423,2414,2414,2404,2376,2376,2367,2367,2349,2332,2332,2314,2314,2314,2314,2314,2314,2323,2323,2323,2332,2340,2340,2349,2349,2358,2358,2358,2358,2358,2349,2349,2349,2349,2349,2349,2349,2349,2349,2358,2358,2367,2367,2367,2367,2386,2386,2395,2395,2395,2404,2404,2404,2414,2414,2414,2423,2423,2433,2433,2433,2442,2442,2442,2452,2452,2462,2462,2471,2481,2481,2501,2512,2512,2522,2532,2532,2532,2532,2532,2532,2532,2532,2532,2522,2522,2512,2501,2501,2501,2501,2491,2491,2491,2491,2491,2491,2491,2491,2491,2491,2491,2491,2501,2501,2501,2501,2501,2501,2501,2481,2481,2481,2462,2462,2452,2433,2433,2423,2404,2404,2404,2404,2395,2395,2395,2386,2386,2386,2386,2386,2386,2386,2386,2386,2386,2395,2395,2395,2395,2404,2404,2404,2404,2414,2414,2414,2414,2414,2423,2423,2423,2433,2433,2433,2433,2442,2452,2452,2452,2452,2452,2462,2462,2462,2462,2462,2462,2471,2471,2471,2481,2481,2481,2481,2481,2481,2481,2481,2481,2471,2471,2471,2462,2462,2452,2452,2442,2433,2433,2414,2404,2404,2395,2395,2386,2386,2386,2376,2376,2386,2386,2386,2386,2395,2404,2404,2414,2423,2423,2433,2442,2442,2462,2462,2471,2481,2481,2481,2481,2481,2481,2471,2471,2471,2462,2452,2452,2452,2452,2442,2442,2442,2433,2423,2423,2423,2423,2423,2423,2423,2423,2423,2433,2433,2433,2433,2433,2433,2433,2433,2442,2442,2442,2442,2452,2452,2452,2462,2471,2471,2481,2481,2491,2501,2501,2512,2532,2532,2553,2564,2564,2574,2574,2585,2585,2585,2596,2607,2607,2607,2596,2596,2596,2585,2564,2564,2553,2553,2543,2522,2522,2512,2491,2491,2481,2481,2462,2462,2471,2471,2471,2471,2462,2462,2452,2442,2442,2423,2423,2414,2395,2395,2367,2367,2340,2314,2314,2288,2272,2272,2255,2255,2239,2223,2223,2207,2207,2183,2168,2168,2153,2138,2138,2123,2123,2109,2094,2094,2080,2080,2066,2060,2060,2046,2032,2032,2026,2026,2013,1993,1993,1987,1987,1974,1955,1955,1937,1937,1919,1901,1901,1884,1867,1867,1850,1850,1833,1817,1817,1807,1807,1796,1786,1786,1781,1775,1775,1770,1770,1770,1770,1770,1770,1781,1796,1796,1812,1812,1828,1850,1850,1867,1895,1895,1919,1949,1949,1961,1974,1974,1974,1974,1974,1974,1968,1961,1961,1949,1949,1937,1931,1931,1925,1913,1913,1907,1907,1895,1889,1889,1889,1889,1884,1878,1878,1878,1878,1878,1872,1872,1872,1872,1872,1872,1872,1878,1872,1872,1872,1872,1872,1872,1872,1872,1872,1878,0,0,0,0,0,0,0,0,0,4510,4510,4510,4543,4543,4577,4577,4577,4611,4611,4611,4611,4611,4646,4716,4716,4753,4827,4827,4827,4827,4827,4827,4827,4827,4865,4827,4827,4827,4790,4790,4753,4753,4753,4753,4753,4790,4753,4753,4753,4753,4753,4753,4716,4716,4716,4716,4646,4577,4577,4510,4510,4477,4477,4477,4477,4477,4477,4477,4477,4477,4445,4445,4445,4445,4445,4445,4445,4413,4413,4413,4413,4413,4413,4413,4413,4413,4413,4413,4413,4413,4413,4413,4413,4413,4413,4413,4413,4413,4413,4413,4413,4413,4413,4413,4413
0,0,0,0,0,0,0,0,0,0,0,0,0,0,0,0,0,0,0,0,0,0,0,0,2094,2094,2094,2102,2109,2109,2123,2123,2131,2145,2145,2168,2191,2191,2207,2223,2223,2239,2255,2255,2263,2263,2272,2280,2280,2288,2288,2288,2288,2288,2288,2297,2297,2305,2314,2314,2332,2332,2340,2358,2358,2358,2367,2367,2376,2376,2376,2376,2376,2367,2367,2367,2376,2376,2376,2386,2386,2395,2404,2404,2423,2433,2423,2423,2423,2414,2414,2404,2386,2386,2376,2376,2358,2332,2332,2323,2323,2314,2314,2323,2323,2323,2323,2323,2332,2340,2340,2349,2349,2358,2358,2358,2358,2358,2349,2349,2349,2358,2358,2358,2358,2358,2358,2358,2358,2367,2376,2376,2376,2386,2386,2395,2395,2395,2404,2404,2404,2414,2414,2423,2423,2423,2433,2433,2433,2442,2442,2442,2452,2452,2462,2462,2471,2481,2481,2481,2501,2501,2512,2522,2522,2522,2522,2522,2522,2522,2522,2522,2512,2512,2512,2501,2501,2491,2491,2491,2491,2491,2491,2491,2491,2481,2481,2481,2481,2481,2481,2481,2481,2481,2481,2471,2471,2471,2462,2452,2452,2442,2442,2433,2414,2414,2404,2395,2395,2395,2395,2386,2386,2386,2376,2376,2376,2376,2376,2376,2386,2386,2386,2386,2395,2395,2395,2395,2404,2404,2404,2404,2414,2414,2414,2414,2414,2423,2423,2423,2433,2433,2433,2433,2442,2452,2452,2452,2452,2452,2462,2462,2462,2462,2462,2462,2471,2462,2462,2471,2471,2471,2471,2471,2471,2471,2471,2471,2471,2471,2462,2462,2462,2452,2442,2442,2433,2433,2414,2404,2404,2395,2395,2386,2386,2386,2376,2376,2386,2386,2386,2386,2395,2404,2404,2414,2423,2423,2433,2442,2442,2452,2452,2462,2471,2471,2471,2471,2471,2471,2471,2462,2462,2462,2452,2452,2442,2442,2442,2442,2442,2433,2423,2423,2423,2423,2423,2423,2423,2423,2423,2433,2433,2433,2433,2433,2433,2433,2433,2442,2442,2452,2452,2452,2452,2452,2462,2471,2471,2481,2481,2491,2501,2501,2512,2532,2532,2543,2553,2553,2574,2574,2574,2585,2585,2596,2596,2596,2596,2596,2585,2585,2585,2564,2564,2553,2553,2543,2522,2522,2512,2491,2491,2481,2481,2462,2462,2471,2471,2471,2471,2462,2462,2452,2442,2442,2423,2423,2404,2395,2395,2367,2340,2340,2314,2314,2288,2272,2272,2247,2247,2231,2215,2215,2199,2199,2183,2168,2168,2153,2138,2138,2123,2123,2109,2094,2094,2080,2080,2066,2060,2060,2046,2032,2032,2026,2026,2013,1993,1993,1987,1987,1974,1955,1955,1937,1937,1919,1901,1901,1884,1867,1867,1850,1850,1833,1817,1817,1807,1807,1796,1786,1786,1781,1775,1775,1770,1770,1770,1770,1770,1770,1781,1791,1791,1807,1807,1817,1839,1839,1861,1878,1878,1907,1931,1931,1943,1955,1955,1961,1961,1961,1961,1961,1955,1955,1943,1943,1937,1925,1925,1919,1907,1907,1901,1901,1889,1884,1884,1884,1884,1884,1878,1878,1872,1872,1872,1872,1872,1872,1872,1872,1872,1872,1878,1878,1878,1878,1878,1878,1878,1878,1884,1884,1884,0,0,0,0,0,0,0,0,0,4510,4510,4510,4543,4543,4577,4577,4577,4611,4611,4611,4611,4611,4646,4681,4681,4716,4753,4753,4827,4827,4827,4827,4827,4827,4827,4827,4827,4827,4790,4790,4716,4716,4753,4753,4753,4753,4753,4753,4753,4753,4753,4716,4716,4716,4681,4681,4646,4577,4577,4510,4510,4477,4477,4477,4477,4477,4477,4477,4477,4445,4445,4445,4445,4445,4445,4445,4445,4413,4413,4413,4413,4413,4413,4413,4413,4413,4413,4413,4413,4413,4413,4413,4413,4413,4413,4413,4413,4413,4413,4413,4413,4413,4413,4413,4413
0,0,0,0,0,0,0,0,0,0,0,0,0,0,0,0,0,0,0,0,0,0,0,0,2094,2094,2094,2102,2109,2109,2123,2123,2131,2145,2145,2168,2191,2191,2207,2223,2223,2239,2255,2255,2263,2263,2272,2280,2280,2288,2288,2288,2288,2288,2288,2297,2297,2305,2323,2323,2340,2349,2349,2358,2358,2358,2367,2367,2376,2376,2376,2376,2376,2376,2376,2376,2386,2386,2386,2395,2395,2414,2433,2433,2442,2442,2442,2442,2433,2423,2423,2414,2395,2395,2386,2386,2358,2340,2340,2332,2332,2332,2332,2332,2323,2323,2332,2332,2340,2340,2340,2358,2358,2358,2358,2358,2358,2358,2349,2349,2349,2358,2358,2358,2358,2358,2358,2358,2358,2367,2376,2376,2376,2386,2386,2395,2395,2395,2404,2404,2404,2414,2414,2414,2423,2423,2423,2423,2433,2433,2433,2442,2442,2442,2452,2452,2462,2471,2471,2481,2491,2491,2501,2501,2501,2512,2512,2512,2512,2512,2512,2512,2501,2501,2501,2491,2491,2491,2491,2481,2481,2481,2481,2491,2491,2481,2481,2481,2481,2481,2481,2481,2481,2481,2481,2471,2471,2471,2462,2452,2452,2442,2442,2433,2414,2414,2404,2395,2395,2395,2395,2386,2386,2386,2376,2376,2376,2376,2376,2376,2386,2386,2376,2376,2386,2386,2386,2386,2395,2395,2395,2395,2395,2395,2395,2395,2404,2404,2404,2404,2414,2414,2423,2423,2433,2433,2433,2433,2442,2442,2452,2452,2452,2462,2462,2462,2462,2462,2462,2462,2462,2471,2471,2471,2471,2471,2462,2462,2462,2462,2462,2462,2462,2452,2442,2442,2423,2423,2414,2404,2404,2395,2395,2395,2386,2386,2386,2386,2386,2386,2395,2395,2395,2404,2404,2414,2423,2423,2433,2442,2442,2452,2452,2462,2471,2471,2471,2471,2471,2471,2471,2462,2462,2462,2452,2452,2442,2442,2442,2442,2442,2433,2423,2423,2423,2423,2423,2423,2423,2423,2423,2433,2433,2433,2433,2433,2433,2433,2433,2442,2442,2442,2442,2452,2452,2452,2462,2471,2471,2481,2481,2491,2501,2501,2501,2522,2522,2532,2543,2543,2553,2553,2564,2574,2574,2585,2585,2585,2596,2585,2585,2585,2585,2564,2564,2553,2553,2543,2522,2522,2512,2491,2491,2481,2481,2462,2462,2471,2471,2471,2471,2462,2462,2452,2442,2442,2423,2423,2404,2395,2395,2367,2340,2340,2314,2314,2288,2272,2272,2247,2247,2231,2215,2215,2199,2199,2183,2168,2168,2153,2138,2138,2123,2123,2109,2094,2094,2073,2073,2066,2053,2053,2046,2032,2032,2019,2019,2013,1993,1993,1980,1980,1974,1955,1955,1931,1913,1913,1895,1895,1884,1861,1861,1850,1850,1833,1817,1817,1807,1807,1796,1786,1786,1781,1770,1770,1770,1770,1770,1770,1770,1770,1781,1791,1791,1801,1801,1817,1833,1833,1850,1878,1878,1907,1931,1931,1943,1955,1955,1961,1961,1961,1961,1961,1955,1955,1943,1943,1937,1925,1925,1919,1907,1907,1901,1901,1889,1884,1884,1884,1884,1884,1878,1878,1872,1872,1872,1872,1872,1872,1867,1867,1867,1872,1878,1878,1878,1878,1878,1878,1878,1878,1884,1884,1884,0,0,0,0,0,0,0,0,0,4510,4510,4510,4543,4543,4577,4577,4577,4611,4611,4611,4611,4611,4646,4681,4681,4681,4753,4753,4790,4790,4790,4827,4827,4790,4790,4790,4790,4790,4753,4753,4716,4681,4681,4681,4716,4753,4753,4753,4753,4753,4753,4716,4716,4716,4681,4681,4646,4577,4577,4510,4510,4477,4477,4477,4477,4477,4477,4477,4477,4445,4445,4445,4445,4445,4445,4445,4445,4413,4413,4413,4413,4413,4413,4413,4413,4413,4413,4413,4413,4413,4413,4413,4413,4413,4413,4413,4413,4413,4413,4413,4413,4413,4413,4413,4413
0,0,0,0,0,0,0,0,0,0,0,0,0,0,0,0,0,0,0,0,0,0,0,0,2102,2102,2102,2109,2116,2116,2131,2145,2145,2153,2153,2176,2199,2199,2215,2223,2223,2247,2255,2255,2263,2263,2272,2280,2280,2288,2288,2288,2288,2288,2297,2297,2297,2305,2323,2323,2340,2349,2349,2358,2358,2358,2367,2367,2376,2376,2376,2376,2376,2376,2376,2376,2386,2386,2386,2414,2414,2423,2433,2433,2442,2442,2442,2442,2433,2423,2423,2414,2395,2395,2386,2386,2358,2340,2340,2332,2332,2332,2332,2332,2323,2323,2332,2332,2340,2340,2340,2349,2349,2349,2358,2358,2358,2358,2349,2349,2349,2358,2358,2358,2358,2358,2358,2367,2367,2367,2376,2376,2386,2395,2395,2395,2395,2395,2404,2404,2404,2404,2404,2414,2423,2423,2423,2423,2433,2433,2433,2442,2442,2442,2452,2452,2462,2471,2471,2481,2491,2491,2501,2501,2501,2512,2512,2512,2512,2512,2512,2512,2501,2501,2501,2491,2491,2491,2491,2481,2481,2481,2481,2471,2471,2462,2462,2462,2462,2462,2452,2452,2452,2452,2452,2442,2442,2442,2442,2433,2433,2423,2423,2414,2404,2404,2395,2395,2395,2386,2386,2386,2376,2376,2376,2376,2376,2376,2376,2376,2376,2376,2376,2376,2376,2376,2376,2376,2386,2386,2386,2386,2386,2386,2386,2386,2395,2395,2395,2395,2404,2404,2414,2423,2423,2433,2433,2433,2442,2442,2452,2452,2452,2462,2462,2462,2462,2462,2462,2462,2462,2471,2471,2471,2471,2471,2462,2462,2462,2462,2462,2462,2462,2452,2442,2442,2423,2423,2414,2404,2404,2395,2395,2386,2386,2386,2386,2386,2386,2386,2386,2395,2395,2404,2404,2414,2423,2423,2433,2442,2442,2452,2452,2462,2471,2471,2471,2471,2471,2471,2471,2462,2462,2462,2452,2452,2442,2442,2442,2442,2442,2433,2433,2433,2423,2423,2423,2423,2423,2423,2423,2433,2433,2433,2423,2423,2423,2423,2433,2433,2433,2442,2442,2452,2462,2462,2471,2471,2471,2481,2491,2491,2501,2501,2501,2522,2522,2532,2543,2543,2553,2553,2564,2574,2574,2585,2585,2585,2596,2585,2585,2585,2585,2564,2564,2553,2553,2543,2532,2532,2512,2491,2491,2481,2481,2462,2462,2471,2462,2462,2462,2452,2452,2442,2433,2433,2414,2414,2404,2386,2386,2367,2340,2340,2314,2314,2288,2272,2272,2247,2247,2231,2215,2215,2199,2199,2183,2160,2160,2145,2131,2131,2116,2116,2102,2087,2087,2073,2073,2060,2053,2053,2046,2032,2032,2019,2019,2006,1993,1993,1980,1980,1968,1955,1955,1931,1913,1913,1895,1895,1884,1861,1861,1850,1850,1833,1817,1817,1807,1807,1796,1786,1786,1781,1770,1770,1770,1770,1770,1770,1770,1770,1781,1791,1791,1801,1801,1817,1833,1833,1850,1867,1867,1889,1913,1913,1925,1943,1943,1949,1949,1949,1955,1955,1949,1949,1937,1937,1931,1925,1925,1913,1907,1907,1901,1901,1889,1884,1884,1878,1878,1878,1878,1878,1872,1872,1872,1867,1867,1867,1867,1867,1867,1872,1872,1872,1878,1878,1878,1878,1878,1884,1889,1889,1895,0,0,0,0,0,0,0,0,0,4510,4510,4510,4543,4543,4577,4577,4577,4611,4611,4611,4611,4646,4646,4681,4681,4681,4753,4753,4790,4790,4790,4827,4827,4790,4790,4790,4790,4790,4753,4753,4716,4681,4681,4681,4716,4753,4753,4753,4753,4753,4753,4716,4681,4681,4681,4681,4646,4577,4577,4510,4477,4477,4445,4445,4445,4477,4477,4445,4445,4445,4445,4445,4445,4445,4445,4413,4413,4413,4413,4413,4413,4413,4413,4413,4413,4413,4413,4413,4413,4413,4413,4413,4413,4413,4413,4413,4413,4413,4413,4413,4413,4413,4413,4413,4413
0,0,0,0,0,0,0,0,0,0,0,0,0,0,0,0,0,0,0,0,0,0,0,0,2109,2109,2109,2116,2123,2123,2138,2153,2153,2160,2160,2183,2199,2199,2215,2231,2231,2247,2255,2255,2263,2263,2272,2280,2280,2288,2288,2288,2288,2288,2297,2297,2297,2305,2323,2323,2340,2349,2349,2358,2358,2358,2367,2367,2376,2376,2376,2376,2376,2367,2367,2367,2386,2386,2386,2414,2414,2414,2442,2442,2452,2462,2452,2442,2442,2423,2423,2414,2395,2395,2386,2386,2358,2349,2349,2332,2332,2332,2323,2323,2323,2323,2332,2332,2340,2349,2349,2349,2349,2349,2358,2358,2358,2358,2349,2349,2349,2358,2358,2358,2358,2367,2367,2367,2367,2376,2376,2376,2386,2395,2395,2395,2395,2395,2404,2404,2404,2404,2404,2414,2423,2423,2423,2423,2423,2433,2433,2433,2442,2442,2452,2452,2452,2462,2462,2471,2481,2481,2491,2501,2501,2501,2501,2501,2501,2501,2501,2501,2491,2491,2491,2481,2481,2481,2481,2471,2471,2471,2462,2452,2452,2452,2452,2442,2433,2433,2433,2433,2433,2423,2423,2423,2414,2414,2414,2414,2414,2404,2404,2395,2395,2395,2386,2386,2395,2386,2386,2386,2376,2376,2376,2376,2376,2376,2376,2376,2376,2376,2376,2376,2376,2376,2376,2376,2386,2386,2386,2386,2386,2386,2386,2386,2395,2395,2395,2395,2404,2404,2414,2423,2423,2423,2423,2433,2442,2442,2442,2452,2452,2462,2452,2452,2462,2462,2462,2462,2462,2462,2462,2471,2471,2471,2462,2462,2462,2462,2462,2462,2462,2442,2442,2442,2423,2423,2414,2404,2404,2395,2395,2386,2386,2386,2386,2386,2386,2386,2386,2395,2395,2404,2404,2414,2423,2423,2433,2442,2442,2442,2442,2462,2471,2471,2471,2471,2471,2471,2471,2462,2462,2462,2452,2452,2442,2442,2442,2442,2442,2442,2433,2433,2433,2433,2423,2423,2433,2423,2423,2433,2433,2433,2423,2423,2423,2423,2433,2433,2433,2442,2442,2452,2462,2462,2462,2471,2471,2471,2481,2481,2491,2491,2501,2512,2512,2522,2532,2532,2543,2543,2553,2564,2564,2574,2585,2585,2585,2585,2585,2585,2585,2564,2564,2553,2553,2543,2532,2532,2522,2501,2501,2481,2481,2471,2471,2471,2462,2462,2462,2452,2452,2442,2423,2423,2414,2414,2395,2386,2386,2367,2340,2340,2314,2314,2288,2272,2272,2247,2247,2231,2215,2215,2199,2199,2183,2160,2160,2145,2131,2131,2116,2116,2102,2087,2087,2073,2073,2060,2053,2053,2046,2032,2032,2019,2019,2006,1993,1993,1980,1980,1968,1955,1955,1931,1913,1913,1895,1895,1878,1861,1861,1850,1850,1833,1817,1817,1807,1807,1796,1786,1786,1781,1770,1770,1770,1770,1770,1770,1770,1770,1781,1791,1791,1801,1801,1812,1823,1823,1844,1861,1861,1872,1901,1901,1913,1925,1925,1937,1937,1943,1949,1949,1949,1949,1937,1937,1931,1925,1925,1913,1901,1901,1895,1895,1889,1884,1884,1878,1878,1878,1878,1878,1872,1872,1872,1867,1867,1867,1867,1867,1867,1872,1872,1872,1878,1878,1878,1884,1884,1889,1889,1889,1901,0,0,0,0,0,0,0,0,0,4510,4510,4510,4543,4543,4577,4577,4577,4577,4577,4577,4611,4646,4646,4681,4681,4681,4753,4753,4790,4790,4790,4790,4753,4753,4753,4753,4753,4753,4716,4716,4681,4681,4681,4681,4681,4716,4716,4753,4716,4716,4716,4716,4681,4681,4681,4681,4646,4577,4577,4510,4477,4477,4445,4445,4445,4445,4445,4445,4445,4445,4445,4445,4445,4445,4445,4413,4413,4413,4413,4413,4413,4413,4413,4413,4413,4413,4413,4413,4413,4413,4413,4413,4413,4413,4413,4413,4413,4413,4413,4413,4413,4413,4413,4413,4413
0,0,0,0,0,0,0,0,0,0,0,0,0,0,0,0,0,0,0,0,0,0,0,0,2109,2109,2109,2116,2123,2123,2138,2153,2153,2160,2160,2183,2199,2199,2215,2231,2231,2239,2247,2247,2255,2255,2272,2272,2272,2280,2280,2280,2288,2288,2297,2297,2297,2305,2323,2323,2340,2358,2358,2358,2358,2358,2367,2367,2376,2386,2376,2376,2376,2367,2367,2367,2386,2395,2395,2414,2414,2414,2442,2442,2452,2462,2452,2442,2442,2433,2433,2414,2395,2395,2386,2386,2367,2349,2349,2340,2332,2332,2323,2323,2323,2332,2332,2332,2332,2340,2340,2349,2349,2349,2358,2358,2349,2349,2349,2349,2349,2349,2349,2349,2358,2367,2367,2367,2367,2376,2376,2376,2386,2386,2386,2395,2395,2395,2404,2404,2404,2404,2404,2414,2414,2414,2423,2423,2423,2423,2423,2433,2433,2433,2442,2442,2452,2462,2462,2471,2471,2471,2481,2491,2491,2491,2491,2501,2501,2491,2491,2501,2491,2491,2491,2481,2481,2481,2481,2471,2471,2471,2462,2452,2452,2452,2452,2442,2433,2433,2433,2433,2433,2423,2423,2423,2414,2414,2414,2414,2414,2404,2404,2395,2395,2395,2386,2386,2386,2386,2386,2376,2376,2376,2376,2376,2376,2376,2376,2376,2376,2376,2376,2367,2367,2367,2367,2367,2376,2376,2376,2376,2376,2376,2376,2376,2376,2386,2386,2386,2395,2395,2404,2414,2414,2423,2423,2423,2433,2433,2442,2452,2452,2452,2452,2452,2462,2462,2462,2462,2462,2462,2462,2471,2471,2471,2462,2462,2462,2462,2462,2462,2462,2442,2442,2442,2423,2423,2414,2404,2404,2395,2395,2395,2395,2395,2386,2386,2386,2386,2395,2395,2395,2404,2404,2414,2423,2423,2433,2442,2442,2442,2442,2462,2471,2471,2471,2471,2471,2471,2471,2462,2462,2462,2452,2452,2442,2442,2442,2442,2442,2442,2433,2433,2433,2433,2423,2423,2433,2423,2423,2433,2433,2433,2423,2423,2423,2423,2433,2433,2433,2442,2442,2452,2462,2462,2462,2471,2471,2471,2471,2471,2481,2481,2491,2501,2501,2512,2522,2522,2532,2532,2543,2553,2553,2564,2574,2574,2585,2585,2585,2585,2585,2564,2564,2553,2553,2553,2543,2543,2532,2522,2522,2501,2501,2491,2471,2471,2471,2471,2471,2462,2462,2442,2423,2423,2414,2414,2395,2386,2386,2367,2340,2340,2314,2314,2288,2272,2272,2247,2247,2231,2215,2215,2199,2199,2176,2160,2160,2145,2131,2131,2116,2116,2102,2087,2087,2073,2073,2060,2053,2053,2039,2026,2026,2019,2019,2006,1987,1987,1980,1980,1968,1949,1949,1931,1913,1913,1895,1895,1878,1861,1861,1850,1850,1828,1817,1817,1801,1801,1791,1786,1786,1781,1770,1770,1770,1770,1770,1770,1770,1770,1781,1791,1791,1801,1812,1812,1823,1823,1844,1861,1861,1872,1901,1901,1913,1925,1925,1937,1937,1943,1949,1949,1949,1949,1937,1937,1931,1925,1925,1913,1901,1901,1895,1895,1889,1878,1878,1878,1872,1872,1872,1872,1872,1867,1867,1867,1867,1867,1861,1861,1861,1867,1872,1872,1872,1872,1872,1884,1884,1884,1889,1889,1901,1901,1901,0,0,0,0,0,0,0,4510,4510,4510,4543,4577,4577,4577,4577,4577,4577,4577,4611,4646,4646,4681,4681,4681,4716,4716,4753,4790,4753,4753,4753,4716,4716,4716,4753,4753,4716,4716,4681,4681,4681,4681,4681,4716,4716,4753,4716,4716,4716,4716,4681,4681,4681,4681,4646,4577,4577,4510,4477,4477,4445,4445,4445,4445,4445,4445,4445,4445,4445,4445,4445,4445,4445,4413,4413,4413,4413,4413,4413,4413,4413,4413,4413,4413,4413,4413,4413,4413,4413,4413,4413,4413,4413,4413,4413,4413,4413,4413,4413,4413,4413,4413,4413
0,0,0,0,0,0,0,0,0,0,0,0,0,0,0,0,0,0,0,0,0,0,2109,2109,2109,2109,2109,2123,2131,2131,2145,2153,2153,2168,2168,2183,2199,2199,2215,2231,2231,2239,2247,2247,2255,2255,2272,2272,2272,2280,2280,2280,2288,2288,2297,2297,2297,2305,2323,2323,2349,2358,2358,2358,2358,2358,2367,2367,2376,2386,2376,2376,2367,2367,2367,2367,2386,2395,2395,2414,2414,2414,2433,2433,2442,2452,2452,2442,2442,2423,2423,2414,2395,2395,2376,2376,2358,2349,2349,2332,2332,2332,2323,2323,2323,2323,2332,2332,2332,2340,2340,2349,2349,2349,2349,2349,2349,2349,2340,2340,2340,2349,2349,2349,2358,2367,2367,2367,2376,2376,2376,2376,2386,2386,2386,2395,2395,2395,2404,2404,2404,2404,2404,2414,2414,2414,2423,2423,2423,2423,2423,2433,2433,2433,2442,2442,2452,2462,2462,2471,2471,2471,2481,2491,2491,2491,2491,2501,2501,2491,2491,2491,2491,2491,2481,2481,2481,2471,2462,2462,2462,2462,2452,2442,2442,2433,2433,2423,2423,2423,2414,2404,2404,2404,2404,2404,2395,2395,2395,2395,2395,2395,2395,2386,2386,2386,2376,2376,2376,2376,2376,2376,2376,2376,2376,2376,2376,2376,2376,2376,2376,2376,2367,2367,2367,2367,2367,2367,2367,2367,2367,2367,2376,2376,2376,2376,2376,2386,2386,2386,2395,2395,2404,2414,2414,2423,2423,2423,2433,2433,2442,2452,2452,2452,2452,2452,2462,2462,2462,2462,2462,2462,2462,2471,2471,2471,2471,2471,2462,2462,2462,2452,2452,2442,2442,2442,2423,2423,2414,2404,2404,2395,2395,2395,2395,2395,2386,2386,2386,2386,2395,2395,2395,2404,2404,2414,2423,2423,2433,2442,2442,2442,2442,2462,2462,2462,2471,2471,2471,2471,2471,2471,2471,2462,2462,2462,2452,2452,2452,2452,2452,2452,2442,2442,2433,2433,2433,2433,2433,2433,2442,2442,2442,2442,2433,2433,2433,2433,2442,2442,2442,2452,2462,2462,2462,2462,2462,2471,2471,2471,2471,2471,2481,2481,2491,2501,2501,2512,2522,2522,2532,2532,2543,2553,2553,2564,2574,2574,2585,2585,2585,2585,2574,2564,2564,2553,2553,2553,2543,2543,2532,2522,2522,2501,2501,2491,2471,2471,2471,2471,2471,2462,2462,2442,2423,2423,2404,2404,2386,2376,2376,2358,2332,2332,2305,2305,2280,2263,2263,2247,2247,2231,2215,2215,2199,2176,2176,2153,2153,2138,2123,2123,2116,2116,2102,2087,2087,2073,2060,2060,2046,2046,2039,2026,2026,2019,2019,2006,1987,1987,1980,1980,1968,1949,1949,1931,1913,1913,1895,1895,1878,1861,1861,1850,1850,1828,1817,1817,1801,1801,1791,1786,1786,1781,1770,1770,1770,1770,1770,1770,1770,1770,1781,1791,1791,1801,1812,1812,1823,1823,1833,1850,1850,1867,1895,1895,1907,1919,1919,1931,1937,1937,1943,1943,1943,1943,1937,1937,1931,1919,1919,1913,1901,1901,1895,1895,1889,1878,1878,1878,1872,1872,1872,1872,1867,1867,1867,1867,1861,1861,1861,1861,1861,1867,1867,1867,1867,1872,1872,1878,1878,1884,1889,1889,1901,1901,1901,0,0,0,0,0,0,0,4510,4510,4510,4543,4577,4577,4577,4577,4577,4577,4577,4611,4646,4646,4681,4681,4681,4716,4716,4753,4790,4753,4753,4753,4716,4716,4681,4681,4681,4681,4681,4646,4611,4611,4611,4646,4681,4681,4716,4716,4716,4716,4681,4681,4681,4681,4681,4611,4543,4543,4510,4477,4477,4445,4445,4445,4445,4445,4445,4445,4445,4445,4445,4445,4445,4445,4413,4413,4413,4413,4413,4413,4413,4413,4413,4413,4413,4413,4413,4413,4413,4413,4413,4413,4413,4413,4413,4413,4413,4413,4413,4413,4413,4413,4413,4413
0,0,0,0,0,0,0,0,0,0,0,0,0,0,0,0,0,0,0,0,0,0,2109,2109,2109,2116,2116,2123,2138,2138,2153,2153,2153,2168,2168,2183,2199,2199,2215,2223,2223,2239,2247,2247,2255,2255,2255,2263,2263,2272,2272,2272,2280,2288,2288,2297,2297,2305,2314,2314,2340,2349,2349,2349,2349,2358,2367,2367,2367,2367,2367,2367,2367,2367,2367,2367,2386,2386,2386,2404,2404,2404,2423,2423,2442,2452,2442,2433,2433,2414,2414,2404,2386,2386,2376,2376,2358,2349,2349,2332,2332,2332,2323,2323,2323,2323,2332,2332,2332,2340,2340,2349,2349,2349,2349,2349,2349,2349,2340,2340,2340,2349,2349,2349,2358,2367,2367,2367,2376,2376,2376,2376,2386,2386,2386,2395,2395,2395,2395,2395,2395,2395,2395,2404,2404,2404,2404,2404,2404,2414,2414,2414,2423,2423,2423,2423,2442,2442,2442,2462,2462,2462,2481,2491,2491,2491,2491,2491,2491,2491,2491,2491,2481,2481,2481,2471,2471,2471,2462,2462,2452,2452,2442,2433,2433,2423,2423,2414,2404,2404,2404,2395,2395,2395,2395,2395,2395,2395,2395,2395,2395,2395,2395,2386,2386,2386,2376,2376,2376,2376,2376,2376,2376,2376,2376,2376,2376,2376,2376,2376,2376,2376,2367,2367,2367,2367,2367,2367,2367,2367,2367,2367,2376,2376,2376,2376,2376,2376,2376,2386,2395,2395,2404,2414,2414,2423,2423,2423,2433,2433,2442,2452,2452,2452,2452,2452,2462,2462,2462,2462,2462,2462,2462,2471,2471,2471,2471,2471,2462,2462,2462,2452,2452,2442,2433,2433,2423,2423,2414,2404,2404,2395,2386,2386,2386,2386,2386,2386,2386,2386,2395,2404,2404,2404,2404,2414,2423,2423,2433,2442,2442,2452,2452,2462,2462,2462,2471,2471,2471,2471,2481,2481,2481,2471,2462,2462,2462,2462,2462,2452,2452,2452,2452,2452,2442,2442,2433,2433,2433,2433,2442,2442,2442,2442,2433,2433,2433,2433,2442,2442,2442,2452,2462,2462,2462,2462,2462,2471,2471,2471,2471,2471,2471,2471,2481,2491,2491,2501,2512,2512,2522,2522,2532,2543,2543,2564,2574,2574,2574,2585,2574,2574,2574,2574,2574,2564,2564,2564,2553,2553,2543,2532,2532,2522,2522,2512,2491,2491,2481,2471,2471,2462,2462,2442,2423,2423,2404,2404,2386,2376,2376,2358,2332,2332,2305,2305,2280,2263,2263,2247,2247,2231,2215,2215,2199,2176,2176,2153,2153,2138,2123,2123,2116,2116,2102,2087,2087,2073,2060,2060,2046,2046,2039,2026,2026,2013,2013,2006,1987,1987,1974,1974,1961,1949,1949,1931,1907,1907,1889,1889,1878,1861,1861,1844,1844,1828,1817,1817,1801,1801,1791,1781,1781,1775,1770,1770,1770,1770,1770,1770,1770,1770,1781,1791,1791,1801,1812,1812,1823,1823,1833,1850,1850,1867,1889,1889,1907,1919,1919,1925,1937,1937,1943,1943,1943,1943,1937,1937,1931,1919,1919,1913,1901,1901,1895,1895,1889,1878,1878,1878,1872,1872,1872,1872,1867,1867,1867,1867,1861,1861,1861,1861,1861,1867,1867,1867,1867,1872,1872,1878,1878,1884,1889,1889,1895,1901,1901,0,0,0,0,0,0,0,4510,4510,4510,4543,4577,4577,4577,4577,4577,4577,4577,4611,4646,4646,4681,4681,4681,4716,4716,4753,4753,4716,4716,4681,4681,4681,4646,4646,4646,4611,4611,4611,4577,4577,4577,4611,4681,4681,4681,4681,4716,4716,4681,4681,4681,4681,4681,4611,4543,4543,4510,4477,4477,4445,4445,4445,4445,4445,4445,4445,4445,4445,4445,4445,4445,4445,4413,4413,4413,4413,4413,4413,4413,4413,4413,4413,4413,4413,4413,4413,4413,4413,4413,4413,4413,4413,4413,4413,4413,4413,4413,4413,4413,4413,4413,4413
0,0,0,0,0,0,0,0,0,0,0,0,0,0,0,0,0,0,0,0,0,0,2109,2109,2109,2116,2116,2123,2138,2138,2153,2160,2160,2168,2168,2183,2191,2191,2207,2223,2223,2231,2239,2239,2247,2247,2247,2255,2255,2263,2272,2272,2272,2280,2280,2288,2288,2297,2314,2314,2340,2349,2349,2349,2349,2358,2367,2367,2367,2367,2367,2367,2367,2367,2367,2367,2386,2386,2386,2404,2404,2404,2423,2423,2442,2452,2442,2433,2433,2414,2414,2404,2386,2386,2376,2376,2358,2349,2349,2332,2323,2323,2323,2323,2323,2323,2332,2332,2332,2340,2340,2340,2340,2340,2340,2340,2340,2349,2340,2340,2340,2349,2349,2349,2358,2358,2358,2367,2376,2376,2376,2376,2376,2386,2386,2386,2386,2386,2386,2386,2386,2395,2395,2395,2395,2395,2395,2395,2395,2395,2395,2395,2404,2404,2414,2414,2423,2433,2433,2462,2462,2462,2481,2491,2491,2491,2491,2491,2491,2491,2491,2491,2481,2481,2481,2471,2471,2471,2462,2462,2452,2452,2442,2433,2433,2423,2423,2414,2404,2404,2404,2395,2395,2395,2395,2386,2386,2386,2386,2386,2386,2386,2386,2376,2376,2376,2376,2376,2376,2376,2376,2376,2376,2376,2376,2376,2376,2376,2376,2367,2367,2367,2367,2367,2367,2367,2367,2367,2367,2367,2367,2367,2367,2367,2376,2376,2376,2376,2376,2386,2395,2395,2404,2414,2414,2423,2423,2423,2433,2433,2442,2452,2452,2462,2462,2462,2462,2462,2462,2462,2462,2462,2462,2471,2471,2471,2471,2471,2471,2471,2462,2452,2452,2442,2433,2433,2423,2423,2414,2404,2404,2404,2386,2386,2386,2386,2386,2386,2386,2386,2395,2404,2404,2404,2404,2414,2423,2423,2433,2442,2442,2452,2452,2462,2462,2462,2471,2471,2471,2471,2481,2481,2481,2471,2462,2462,2462,2462,2462,2452,2452,2452,2452,2452,2442,2442,2433,2433,2433,2433,2442,2442,2442,2442,2442,2442,2442,2442,2442,2462,2462,2462,2462,2462,2471,2471,2471,2471,2471,2471,2471,2471,2471,2471,2471,2481,2481,2491,2512,2512,2522,2522,2532,2543,2543,2564,2574,2574,2574,2585,2574,2574,2574,2574,2574,2574,2564,2564,2564,2564,2553,2543,2543,2532,2532,2512,2501,2501,2491,2481,2481,2462,2462,2442,2423,2423,2404,2404,2386,2367,2367,2349,2332,2332,2305,2305,2280,2263,2263,2247,2247,2231,2215,2215,2191,2168,2168,2153,2153,2138,2123,2123,2109,2109,2102,2087,2087,2073,2060,2060,2046,2046,2039,2026,2026,2013,2013,2000,1980,1980,1974,1961,1961,1943,1943,1925,1907,1907,1889,1889,1872,1855,1855,1844,1844,1828,1817,1817,1801,1801,1791,1781,1781,1775,1770,1770,1770,1770,1770,1770,1770,1770,1781,1791,1791,1801,1812,1812,1823,1823,1833,1855,1855,1867,1889,1889,1907,1919,1919,1925,1937,1937,1943,1943,1943,1943,1937,1931,1931,1919,1919,1913,1901,1901,1895,1895,1889,1878,1878,1878,1872,1872,1867,1867,1867,1867,1867,1861,1861,1861,1855,1855,1855,1861,1861,1861,1867,1867,1867,1878,1878,1884,1884,1884,1889,1901,1901,0,0,0,0,0,0,0,4510,4510,4510,4543,4577,4577,4577,4577,4577,4577,4577,4611,4646,4646,4681,4681,4681,4716,4716,4753,4753,4716,4716,4681,4681,4681,4646,4646,4646,4611,4611,4611,4577,4577,4577,4611,4681,4681,4681,4681,4716,4716,4681,4681,4681,4681,4681,4646,4543,4543,4510,4477,4477,4445,4445,4445,4445,4445,4445,4445,4445,4445,4445,4445,4413,4413,4413,4413,4413,4413,4413,4413,4413,4413,4413,4413,4413,4413,4413,4413,4413,4413,4413,4413,4413,4413,4413,4413,4413,4413,4413,4413,4413,4413,4413,4413
0,0,0,0,0,0,0,0,0,0,0,0,0,0,0,0,0,0,0,0,0,0,2116,2116,2116,2123,2123,2131,2138,2138,2153,2160,2160,2168,2168,2183,2191,2191,2207,2223,2223,2231,2239,2239,2247,2247,2247,2255,2255,2263,2272,2272,2272,2280,2280,2288,2288,2297,2314,2314,2332,2340,2340,2340,2340,2349,2358,2358,2367,2367,2358,2358,2358,2358,2358,2358,2367,2376,2376,2386,2395,2395,2404,2404,2414,2423,2423,2414,2414,2404,2404,2395,2376,2376,2367,2358,2358,2349,2349,2340,2323,2323,2323,2323,2323,2323,2332,2332,2332,2332,2332,2340,2340,2340,2340,2340,2340,2340,2340,2340,2349,2349,2349,2349,2358,2358,2358,2367,2376,2376,2376,2376,2376,2386,2386,2386,2386,2386,2386,2386,2386,2395,2395,2395,2395,2395,2395,2395,2395,2395,2395,2395,2404,2404,2414,2414,2423,2433,2433,2442,2452,2452,2462,2481,2481,2481,2481,2491,2491,2491,2481,2481,2481,2481,2471,2471,2471,2462,2452,2452,2442,2442,2442,2423,2423,2423,2423,2404,2404,2404,2386,2386,2386,2386,2386,2376,2376,2376,2376,2367,2367,2367,2376,2376,2376,2376,2376,2376,2376,2376,2376,2376,2376,2376,2367,2367,2367,2367,2367,2367,2367,2367,2367,2367,2367,2367,2367,2367,2367,2367,2367,2367,2367,2367,2376,2376,2376,2376,2376,2386,2395,2395,2404,2414,2414,2423,2423,2423,2433,2433,2442,2452,2452,2462,2462,2462,2462,2462,2462,2462,2462,2462,2462,2462,2462,2462,2462,2462,2462,2462,2462,2452,2452,2442,2433,2433,2423,2423,2414,2404,2404,2395,2386,2386,2386,2386,2386,2386,2386,2386,2395,2404,2404,2404,2404,2414,2423,2423,2423,2433,2433,2452,2452,2452,2462,2462,2471,2471,2471,2471,2481,2481,2481,2481,2471,2471,2462,2462,2462,2462,2471,2462,2462,2462,2452,2452,2452,2452,2452,2452,2452,2452,2452,2452,2452,2452,2452,2452,2452,2462,2462,2462,2471,2471,2471,2471,2471,2481,2471,2471,2471,2471,2471,2471,2471,2481,2481,2491,2501,2501,2512,2512,2522,2532,2532,2553,2564,2564,2574,2585,2574,2574,2574,2574,2574,2574,2564,2564,2564,2564,2553,2543,2543,2532,2522,2512,2501,2501,2491,2481,2481,2462,2462,2442,2423,2423,2395,2376,2376,2367,2367,2349,2323,2323,2297,2297,2280,2255,2255,2239,2239,2223,2207,2207,2191,2168,2168,2153,2153,2138,2123,2123,2109,2109,2102,2087,2087,2073,2060,2060,2046,2046,2039,2026,2026,2013,2013,2000,1980,1980,1974,1961,1961,1943,1943,1925,1907,1907,1889,1889,1872,1855,1855,1844,1844,1828,1812,1812,1801,1791,1791,1781,1781,1775,1770,1770,1770,1770,1770,1770,1770,1770,1781,1791,1791,1801,1812,1812,1823,1823,1833,1850,1850,1867,1884,1884,1907,1913,1913,1925,1931,1931,1943,1943,1943,1943,1937,1931,1931,1919,1919,1913,1901,1901,1895,1895,1889,1878,1878,1872,1872,1872,1867,1867,1867,1861,1861,1861,1861,1861,1855,1855,1855,1861,1861,1861,1867,1867,1867,1878,1878,1884,1884,1884,1889,1901,1901,0,0,0,0,0,0,0,4543,4543,4543,4543,4577,4577,4577,4577,4577,4577,4577,4611,4646,4646,4681,4681,4681,4716,4716,4716,4716,4681,4681,4646,4611,4611,4577,4577,4611,4577,4577,4543,4543,4543,4543,4577,4646,4646,4681,4681,4681,4681,4681,4681,4681,4681,4681,4646,4543,4543,4510,4477,4477,4445,4445,4445,4445,4445,4445,4445,4445,4445,4445,4445,4413,4413,4413,4413,4413,4413,4413,4413,4413,4413,4413,4413,4413,4413,4413,4413,4413,4413,4413,4413,4413,4413,4413,4413,4413,4413,4413,4413,4413,4413,4413,4413
0,0,0,0,0,0,0,0,0,0,0,0,0,0,0,0,0,0,0,0,0,0,2116,2116,2116,2123,2123,2131,2138,2138,2145,2153,2153,2168,2168,2176,2191,2191,2199,2215,2215,2223,2231,2231,2239,2239,2247,2247,2247,2255,2263,2263,2263,2272,2272,2280,2280,2297,2305,2305,2323,2340,2340,2340,2340,2340,2349,2349,2349,2358,2349,2349,2349,2349,2349,2349,2358,2358,2358,2367,2376,2376,2376,2376,2414,2423,2423,2414,2414,2404,2404,2395,2376,2376,2367,2358,2358,2349,2349,2340,2323,2323,2323,2323,2323,2323,2332,2332,2332,2332,2332,2340,2340,2340,2340,2340,2340,2340,2340,2349,2349,2349,2349,2349,2358,2358,2358,2367,2376,2376,2376,2376,2376,2386,2386,2386,2386,2386,2386,2376,2376,2386,2386,2386,2386,2386,2386,2386,2386,2395,2395,2395,2395,2395,2404,2404,2414,2423,2423,2433,2442,2442,2462,2471,2471,2481,2481,2481,2481,2481,2481,2481,2471,2471,2471,2462,2462,2452,2452,2452,2433,2433,2433,2423,2423,2423,2423,2404,2404,2404,2386,2386,2386,2386,2386,2376,2376,2376,2376,2367,2367,2367,2376,2376,2376,2376,2376,2376,2376,2376,2376,2376,2376,2376,2367,2367,2367,2367,2367,2367,2367,2367,2367,2367,2367,2367,2367,2367,2367,2367,2367,2367,2367,2367,2376,2376,2376,2376,2376,2386,2395,2395,2404,2414,2414,2423,2423,2423,2433,2433,2442,2442,2442,2452,2452,2452,2462,2462,2462,2462,2462,2462,2462,2462,2462,2462,2462,2462,2462,2462,2452,2452,2452,2442,2433,2433,2423,2423,2414,2404,2404,2395,2386,2386,2386,2386,2386,2386,2386,2386,2395,2404,2404,2404,2404,2414,2423,2423,2423,2433,2433,2452,2452,2452,2462,2462,2471,2471,2471,2471,2481,2481,2481,2481,2481,2481,2471,2471,2471,2471,2471,2462,2462,2462,2452,2452,2452,2452,2452,2452,2452,2452,2452,2452,2452,2452,2452,2452,2452,2462,2462,2462,2471,2471,2471,2471,2471,2481,2471,2471,2471,2462,2462,2462,2462,2471,2471,2481,2491,2491,2501,2501,2512,2522,2522,2553,2564,2564,2574,2574,2574,2585,2585,2574,2574,2574,2574,2574,2564,2564,2553,2553,2553,2543,2522,2522,2501,2501,2501,2491,2491,2471,2471,2442,2423,2423,2395,2376,2376,2367,2367,2349,2323,2323,2297,2297,2280,2255,2255,2239,2239,2223,2207,2207,2191,2168,2168,2153,2153,2138,2123,2123,2109,2109,2102,2087,2087,2073,2060,2060,2046,2046,2039,2026,2026,2013,2013,2000,1980,1980,1968,1955,1955,1943,1943,1919,1901,1901,1884,1884,1872,1850,1850,1839,1839,1823,1812,1812,1796,1786,1786,1781,1781,1770,1765,1765,1765,1770,1770,1770,1770,1770,1781,1786,1786,1796,1812,1812,1823,1823,1828,1850,1850,1867,1884,1884,1907,1913,1913,1925,1931,1931,1943,1943,1943,1943,1937,1931,1931,1925,1925,1913,1907,1907,1895,1895,1889,1884,1884,1872,1872,1872,1867,1867,1867,1861,1861,1861,1855,1855,1855,1855,1855,1855,1855,1855,1861,1861,1861,1872,1872,1872,1884,1884,1889,1895,1895,0,0,0,0,0,0,0,4543,4543,4543,4543,4577,4577,4577,4577,4577,4577,4577,4611,4646,4646,4681,4681,4681,4681,4681,4716,4716,4681,4681,4646,4611,4611,4577,4577,4577,4577,4577,4510,4510,4510,4510,4543,4611,4611,4646,4716,4681,4681,4681,4681,4681,4681,4681,4646,4611,4611,4510,4477,4477,4445,4445,4445,4445,4445,4445,4445,4445,4445,4445,4445,4445,4445,4413,4413,4413,4413,4413,4413,4413,4413,4413,4413,4413,4413,4413,4413,4413,4413,4413,4413,4413,4413,4413,4413,4413,4413,4413,4413,4413,4413,4413,4413
0,0,0,0,0,0,0,0,0,0,0,0,0,0,0,0,0,0,0,0,0,0,0,0,2116,2116,2116,2131,2131,2131,2138,2145,2145,2160,2160,2160,2183,2183,2199,2207,2207,2215,2215,2215,2223,2223,2231,2247,2247,2255,2263,2263,2263,2272,2272,2280,2280,2297,2305,2305,2323,2340,2340,2340,2340,2340,2349,2349,2349,2358,2349,2349,2349,2349,2349,2349,2358,2358,2358,2367,2376,2376,2376,2376,2386,2404,2404,2404,2404,2386,2386,2386,2376,2376,2367,2358,2358,2349,2349,2340,2323,2323,2323,2323,2323,2323,2332,2332,2332,2332,2332,2332,2332,2332,2340,2340,2340,2340,2340,2340,2349,2349,2349,2349,2358,2358,2358,2367,2376,2376,2376,2376,2376,2386,2376,2376,2376,2376,2376,2376,2376,2376,2376,2376,2376,2376,2386,2386,2386,2395,2395,2395,2395,2395,2404,2404,2414,2423,2423,2433,2442,2442,2462,2471,2471,2481,2481,2481,2481,2481,2481,2481,2471,2471,2471,2462,2462,2452,2452,2452,2433,2433,2433,2423,2423,2414,2404,2404,2386,2386,2386,2376,2376,2367,2367,2367,2367,2367,2367,2367,2367,2367,2367,2367,2367,2367,2367,2367,2367,2367,2376,2376,2376,2376,2367,2367,2367,2367,2367,2367,2376,2376,2376,2367,2367,2367,2376,2376,2376,2376,2376,2376,2376,2376,2376,2376,2376,2376,2376,2376,2386,2386,2395,2404,2404,2414,2414,2423,2433,2433,2442,2442,2442,2452,2452,2452,2462,2462,2462,2462,2462,2462,2462,2462,2462,2462,2462,2462,2462,2462,2452,2452,2452,2442,2433,2433,2423,2423,2423,2404,2404,2395,2386,2386,2386,2386,2386,2386,2386,2386,2395,2395,2395,2404,2404,2414,2423,2423,2423,2433,2433,2442,2452,2452,2462,2462,2471,2471,2471,2471,2481,2481,2481,2481,2481,2481,2471,2471,2471,2471,2471,2471,2471,2471,2462,2452,2452,2452,2452,2452,2452,2462,2462,2452,2452,2452,2452,2452,2452,2462,2462,2471,2471,2471,2471,2471,2471,2481,2471,2471,2471,2462,2462,2462,2462,2471,2471,2481,2491,2491,2501,2501,2512,2522,2522,2553,2564,2564,2574,2574,2574,2585,2585,2585,2585,2574,2574,2574,2564,2564,2564,2553,2553,2543,2522,2522,2501,2501,2501,2491,2491,2471,2471,2442,2423,2423,2395,2376,2376,2358,2358,2340,2314,2314,2288,2288,2272,2255,2255,2239,2239,2223,2207,2207,2191,2168,2168,2153,2153,2138,2123,2123,2109,2109,2102,2087,2087,2073,2060,2060,2046,2046,2039,2026,2026,2013,2013,2000,1980,1980,1968,1955,1955,1943,1943,1919,1901,1901,1884,1884,1872,1850,1850,1839,1839,1823,1812,1812,1796,1786,1786,1781,1781,1770,1765,1765,1765,1770,1770,1770,1770,1770,1781,1786,1786,1796,1812,1812,1823,1823,1828,1850,1850,1861,1884,1884,1901,1913,1913,1925,1931,1931,1943,1943,1943,1943,1937,1931,1931,1925,1925,1913,1907,1907,1895,1895,1889,1884,1884,1872,1872,1872,1867,1867,1861,1861,1861,1855,1850,1850,1850,1850,1850,1850,1855,1850,1850,1855,1855,1867,1867,1872,1872,1872,1884,1889,1889,0,0,0,0,0,0,0,4543,4543,4543,4577,4577,4577,4611,4611,4611,4646,4611,4611,4646,4646,4681,4681,4681,4681,4681,4716,4716,4681,4681,4646,4611,4611,4577,4577,4577,4577,4577,4510,4510,4510,4510,4543,4611,4611,4646,4681,4681,4681,4681,4681,4681,4681,4646,4646,4611,4611,4510,4477,4477,4445,4445,4445,4445,4445,4445,4445,4445,4445,4445,4445,4445,4445,4413,4413,4413,4413,4413,4413,4413,4413,4413,4413,4413,4413,4413,4413,4413,4413,4413,4413,4413,4413,4413,4413,4413,4413,4413,4413,4413,4413,4413,4413
