0,0,0,0,0,0,0,0,0,0,0,0,0,0,0,0,0,0,0,0,0,0,0,0,0,0,0,0,0,0,0,0,0,0,0,0,0,0,0,0,0,0,0,1895,1895,1895,1889,1889,1889,1895,1901,1901,1913,1925,1925,1931,1931,1937,1937,1937,1937,1943,1943,1949,1955,1955,1955,1955,1955,1961,1961,1961,1974,1974,1980,1980,1993,2006,2006,2013,2026,2026,2032,2046,2046,2060,2060,2073,2102,2102,2131,2153,2153,2168,2191,2191,2223,2263,2263,2305,2332,2332,2358,2358,2395,2433,2433,2471,2501,2501,2522,2564,2564,2585,2585,2585,2585,2564,2543,2543,2522,2522,2501,2462,2462,2442,2404,2404,2386,2386,2376,2376,2386,2386,2386,2386,2386,2386,2376,2367,2367,2358,2358,2349,2332,2332,2332,2314,2314,2305,2305,2297,2297,2297,2288,2288,0,2349,2349,2349,2349,2367,2367,2386,2386,2386,2395,2404,2404,2404,2404,2395,2395,2386,2386,2386,2376,2376,2376,2376,2376,2376,2376,2386,2386,2386,2386,2395,2395,2395,2414,2423,2423,2433,2433,2433,2433,2433,2442,2442,2433,2433,2433,2423,2423,2423,2414,2414,2414,2414,2414,2414,2414,2414,2414,2423,2423,2423,2423,0,0,0,0,0,0,0,0,0,0,0,0,0,0,0,0,2618,2618,2618,2618,2618,2618,2618,2618,2618,2618,2618,2607,2607,2607,2607,2607,2596,2596,2596,2585,2585,2585,2585,2585,2574,2564,2564,2564,2564,2564,0,0,0,0,0,0,0,0,0,0,0,0,0,0,0,0,0,0,0,0,2532,2512,2512,2491,2481,2481,2452,2452,2433,2414,2414,2395,2395,2367,2349,2349,2340,2332,2332,2332,2332,2332,2332,0,0,0,0,0,0,0,0,0,0,0,0,2349,2349,2349,2349,2349,2349,2349,2349,2349,2349,2340,2340,2340,2340,2340,2340,2332,2332,2332,2332,2332,2332,2332,2332,2332,2340,2340,2340,2349,2349,2349,2367,2367,2376,2395,2395,2404,2404,2414,2414,2414,2414,2414,2404,2404,2395,2386,2386,2367,2349,2349,2332,2332,2323,2305,2305,2297,2297,2288,2280,2280,2272,2263,2263,2255,2255,2255,2247,2247,2239,2239,2239,2231,2231,2231,2223,2223,2215,2207,2207,2191,2191,2168,2168,2168,2153,2153,2138,2131,2131,2131,2123,2123,2123,2123,2123,2123,2123,2123,2123,2131,2131,2131,2131,2131,2131,2131,2131,2131,2131,2131,2131,2131,2131,2131,2131,2131,2131,2131,2131,2138,2138,2138,2145,2145,2145,2145,2145,2145,2145,2138,2131,2131,2116,2116,2116,2109,2109,2102,2094,2094,2073,2073,2060,2053,2053,2039,2039,2026,2006,2006,1993,1980,1980,1974,1974,1968,1961,1961,1955,1955,1943,1931,1931,1919,1907,1907,1895,1895,1884,1867,1867,1850,1850,1839,1828,1828,1812,1812,1796,1786,1786,1770,1755,1755,1745,1745,1736,1726,1726,1721,1721,1716,1712,1712,1707,1707,1707,1707,1707,1707,1707,1707,1707,1712,1721,1721,1731,1740,1740,1760,1760,1781,1812,1812,1839,1867,1867,1889,1901,1901,1901,1901,1901,1901,1895,1884,1884,1878,1861,1861,1844,1844,1844,0,0,1823,1823,1812,1807,1807,1807,1796,1796,1786,1786,1775,1765,1765,1755,1755,1750,1740,1740,1736,1731,1731,1731,1731,1731,1726,1726,1726,1726,1726,1721,1721,1721,1726,1726,1726,0,0,0,0,0,0,0,0,0,0,0,0,0,0,0,0,0,0,0,0,0,0,0,0,0,0,0,0,0,0,0,0,0,0,0,0,0,0,0,0,0,0,0,0,0,0,0,0,0
0,0,0,0,0,0,0,0,0,0,0,0,0,0,0,0,0,0,0,0,0,0,0,0,0,0,0,0,0,0,0,0,0,0,0,0,0,0,0,0,0,0,0,1895,1895,1895,1889,1889,1889,1895,1895,1895,1913,1925,1925,1931,1931,1937,1937,1937,1937,1943,1943,1949,1955,1955,1955,1955,1955,1961,1961,1968,1974,1974,1980,1980,1993,2006,2006,2013,2026,2026,2032,2046,2046,2060,2060,2073,2102,2102,2131,2153,2153,2160,2191,2191,2223,2263,2263,2305,2332,2332,2358,2358,2395,2433,2433,2471,2491,2491,2512,2543,2543,2553,2564,2564,2564,2532,2522,2522,2501,2501,2481,2442,2442,2414,2404,2376,2349,2349,2349,2349,2358,2358,2386,2386,2386,2386,2376,2367,2367,2358,2358,2349,2332,2332,2332,2314,2314,2305,2305,2297,2297,0,2288,2288,0,0,0,2349,2349,2367,2367,2386,2386,2386,2395,2404,2404,2404,2404,2395,2395,2386,2386,2386,2376,2376,2376,2376,2376,2376,2376,2386,2386,2386,2386,2395,2395,2395,2404,2414,2414,2423,2423,2433,2433,2433,2433,2433,2423,2423,2423,2404,2404,2395,2395,2395,2395,2395,2395,2395,2404,2404,2404,2414,2414,2423,2423,0,0,0,0,0,0,0,0,0,0,0,0,0,0,0,0,2618,2618,2618,2618,2618,2618,2618,2618,2618,2618,2618,2607,2607,2607,2596,2596,2596,2596,2596,2585,2585,2585,2585,2585,2585,2574,2574,2574,0,0,0,0,0,0,0,0,0,0,0,0,0,0,0,0,0,0,0,0,0,0,0,2512,2512,2491,2471,2471,2452,2452,2433,2414,2414,2395,2386,2367,2349,2349,2340,2332,2332,2332,2332,2332,2332,2340,2340,0,0,0,0,0,0,0,0,2358,2358,2349,2349,2349,2358,2358,2358,2358,2358,2358,2358,2349,2349,2349,2349,2349,2349,2340,2340,2340,2340,2340,2340,2340,2340,2340,2349,2349,2349,2358,2358,2358,2376,2376,2386,2404,2404,2414,2414,2423,2433,2433,2423,2423,2423,2423,2404,2386,2386,2367,2349,2349,2340,2340,2323,2314,2314,2297,2297,2288,2280,2280,2272,2263,2263,2255,2255,2255,2247,2247,2239,2239,2239,2231,2231,2231,2223,2223,2207,2199,2199,2183,2183,2168,2160,2160,2145,2145,2131,2123,2123,2116,2116,2116,2109,2109,2109,2109,2116,2109,2109,2116,2109,2109,2109,2116,2116,2116,2116,2116,2116,2123,2123,2123,2123,2123,2123,2123,2123,2123,2123,2123,2131,2131,2131,2131,2131,2138,2138,2131,2131,2131,2131,2131,2116,2116,2116,2109,2109,2102,2094,2094,2073,2073,2060,2053,2053,2039,2039,2026,2006,2006,1993,1980,1980,1974,1974,1968,1961,1961,1955,1955,1943,1931,1931,1919,1907,1907,1895,1895,1878,1867,1867,1850,1850,1839,1828,1828,1812,1801,1796,1786,1786,1770,1755,1755,1745,1745,1736,1726,1726,1721,1716,1716,1712,1712,1707,1707,1707,1707,1707,1707,1707,1707,1707,1712,1726,1726,1736,1745,1745,1760,1760,1786,1812,1812,1839,1867,1867,1889,1901,1901,1907,1907,1901,1901,1895,1884,1884,1878,1861,1861,1844,1844,1844,0,0,1823,1823,1812,1807,1807,1807,1796,1796,1786,1786,1775,1765,1765,1755,1755,1750,1740,1740,1736,1731,1731,1731,1731,1731,1726,1726,1726,1726,1726,1721,1721,1721,1721,1721,1721,1721,0,0,0,0,0,0,0,0,0,0,0,0,0,0,0,0,0,0,0,0,0,0,0,0,0,0,0,0,0,0,0,0,0,0,0,0,0,0,0,0,0,0,0,0,0,0,0,4753
0,0,0,0,0,0,0,0,0,0,0,0,0,0,0,0,0,0,0,0,0,0,0,0,0,0,0,0,0,0,0,0,0,0,0,0,0,0,0,0,0,0,0,1895,1895,1895,1889,1889,1889,1895,1895,1895,1907,1919,1919,1925,1925,1925,1931,1931,1937,1943,1943,1949,1955,1955,1955,1955,1955,1961,1961,1968,1974,1974,1980,1980,1993,2006,2006,2013,2026,2026,2032,2046,2046,2060,2060,2073,2102,2102,2131,2153,2153,2160,2191,2191,2223,2272,2272,2323,2340,2340,2367,2367,2404,2433,2433,2471,2491,2491,2512,2543,2543,2553,2564,2564,2564,2532,2522,2522,2501,2501,2481,2442,2442,2414,2414,2376,2349,2349,2349,2349,2358,2358,0,0,0,0,0,0,0,0,0,0,0,0,0,0,0,2305,2305,2297,2297,0,2288,2288,0,0,0,2349,2349,2367,2367,2386,2386,2386,2395,2404,2404,2404,2404,2395,2395,2386,2386,2386,2376,2376,2376,2376,2376,2376,2376,2386,2386,2386,2386,2395,2395,2395,2404,2414,2414,2423,2423,2433,2433,2433,2433,2433,2423,2423,2423,2404,2404,2395,2395,2395,2395,2395,2395,2395,2404,2404,2404,2414,2414,0,0,0,0,0,0,0,0,0,0,0,0,0,0,0,0,0,0,0,0,0,0,0,0,0,0,0,0,0,0,0,0,2596,2596,2585,2585,2585,2574,2574,2574,2574,2574,2574,2574,2574,2574,0,0,0,0,0,0,0,0,0,0,0,0,0,0,0,0,0,0,0,0,0,0,0,2512,2512,2462,2452,2452,2433,2433,2414,2404,2404,2386,2367,2367,2358,2358,2349,2349,2349,2340,2340,2340,2340,2340,2340,0,0,0,0,0,0,0,0,2358,2358,2358,2358,2367,2367,2367,2367,2367,2367,2367,2358,2358,2358,2358,2358,2349,2349,2349,2340,2340,2340,2340,2340,2349,2349,2349,2358,2358,2358,2367,2358,2358,2376,2376,2386,2404,2404,2414,2414,2423,2433,2433,2423,2423,2423,2423,2404,2386,2386,2367,2349,2349,2340,2340,2323,2314,2314,2297,2297,2288,2280,2280,2272,2263,2263,2255,2255,2255,2247,2247,2247,2239,2239,2231,2231,2223,2215,2215,2207,2191,2191,2183,2183,2168,2153,2153,2131,2131,2123,2116,2116,2102,2102,2102,2102,2109,2109,2109,2116,2109,2109,2116,2109,2109,2109,2116,2116,2116,2116,2116,2116,2123,2123,2123,2123,2123,2123,2123,2123,2123,2123,2123,2131,2131,2131,2131,2131,2138,2138,2131,2131,2131,2116,2116,2109,2109,2109,2102,2102,2094,2080,2080,2066,2066,2060,2046,2046,2032,2032,2026,2000,2000,1987,1974,1974,1968,1968,1961,1955,1955,1949,1949,1937,1925,1925,1913,1901,1901,1889,1889,1872,1861,1861,1850,1850,1839,1828,1828,1817,1801,1801,1786,1786,1770,1760,1760,1750,1750,1736,1731,1731,1721,1716,1716,1712,1712,1712,1712,1712,1707,1707,1707,1707,1707,1707,1716,1726,1726,1740,1745,1745,1765,1786,1786,1812,1812,1839,1867,1867,1889,1901,1901,1907,1907,1901,1901,1895,1884,1884,1878,1861,1861,1844,1844,1833,1833,0,1817,1817,1812,1807,1807,1801,1791,1791,1781,1781,1770,1760,1760,1750,1745,1745,1736,1736,1731,1726,1726,1726,1726,1721,1721,1721,1721,1721,1726,1721,1721,1721,1721,1721,1721,1721,0,0,0,0,0,0,0,0,0,0,0,0,0,0,0,0,0,0,0,0,0,0,0,0,0,0,0,0,0,0,0,0,0,0,0,0,0,0,0,0,0,0,0,0,0,0,0,4753
0,0,0,0,0,0,0,0,0,0,0,0,0,0,0,0,0,0,0,0,0,0,0,0,0,0,0,0,0,0,0,0,0,0,0,0,0,0,0,0,0,0,0,1895,1895,1895,1889,1889,1889,1889,1889,1889,1907,1913,1913,1919,1919,1919,1919,1919,1925,1937,1937,1943,1949,1949,1955,1955,1955,1961,1961,1974,1980,1980,1987,1987,1993,2006,2006,2013,2026,2026,2039,2053,2053,2066,2066,2080,2102,2102,2131,2160,2160,2199,2199,2199,2239,2280,2280,2332,2358,2358,2376,2376,2414,2442,2442,2481,0,0,0,0,2553,2553,2564,2564,2564,2532,2522,2522,2501,2501,2481,2442,2442,2414,2414,2376,2349,2349,2349,2349,2358,2358,0,0,0,0,0,0,0,0,0,0,0,0,0,0,0,0,0,0,0,0,0,0,0,0,0,0,0,0,0,0,0,0,0,0,0,0,0,0,0,0,0,0,0,0,0,0,0,0,0,0,0,0,0,0,0,0,0,0,0,0,0,0,0,0,0,0,0,0,0,0,0,0,0,0,0,0,0,0,0,2404,2404,2414,2414,0,0,0,0,0,0,0,0,0,0,0,0,0,0,0,0,0,0,0,0,0,0,0,0,0,0,0,0,0,0,0,0,2596,2596,2585,2585,2585,2574,2574,2574,2574,2574,2574,2574,0,0,0,0,0,0,0,0,0,0,0,0,0,0,0,0,0,0,0,0,0,0,0,0,0,0,0,2462,2452,2452,2433,2433,2414,2404,2404,2386,2367,2367,2358,2358,2349,2349,2349,2340,2340,0,0,0,0,0,0,0,0,0,0,0,0,2358,2358,2358,2358,2367,2358,2358,2358,2358,2358,2358,2358,2358,2349,2349,2349,2349,2349,2340,2340,2340,2340,2340,2340,2340,2340,2340,2349,2358,2358,2358,2358,2367,2376,2376,2395,2404,2404,2414,2423,2423,2423,2423,2423,2423,2414,2414,2404,2386,2386,2367,2349,2349,2332,2332,2323,2305,2305,2297,2297,2288,2280,2280,2272,2263,2263,2255,2255,2255,2247,2247,2247,2239,2239,2231,2231,2223,2215,2215,2207,2191,2191,2183,2183,2168,2153,2153,2131,2131,2123,2116,2116,2102,2102,2102,2102,2102,2094,2094,2094,2094,2094,2102,2102,2102,2102,2102,2102,2102,2102,2102,2102,2102,2102,2102,2102,2102,2102,2102,2102,2102,2102,2109,2109,2109,2116,2116,2109,2109,2109,2109,2109,2109,2102,2102,2094,2094,2087,2080,2080,2073,2066,2066,2053,2053,2039,2026,2026,2019,2019,2006,1993,1993,1974,1968,1968,1968,1968,1961,1955,1955,1949,1949,1937,1925,1925,1913,1901,1901,1889,1889,1872,1861,1861,1850,1850,1839,1828,1828,1817,1801,1801,1786,1786,1770,1760,1760,1750,1750,1736,1731,1731,1721,1716,1716,1712,1712,1712,1712,1712,1707,1707,1707,1707,1707,1707,1716,1726,1726,1740,1745,1745,1765,1786,1786,1812,1812,1839,1867,1867,1889,1901,1901,1907,1907,1901,1895,1895,1884,1884,1878,1867,1867,1844,1844,1833,1833,0,1817,1817,1807,1801,1801,1796,1791,1791,1781,1781,1765,1755,1755,1750,1740,1740,1736,1736,1731,1726,1726,1726,1726,1721,1721,1721,1721,1721,1726,1721,1721,1721,1721,1721,1721,1721,0,0,0,0,0,0,0,0,0,0,0,0,0,0,0,0,0,0,0,0,0,0,0,0,0,0,0,0,0,0,0,0,0,0,0,0,0,0,0,0,0,0,0,0,0,4790,4790,4753
0,0,0,0,0,0,0,0,0,0,0,0,0,0,0,0,0,0,0,0,0,0,0,0,0,0,0,0,0,0,0,0,0,0,0,0,0,0,0,0,0,0,0,1895,1895,1895,1895,0,1889,1889,1889,1889,1907,1913,1913,1919,1919,1919,1919,1919,1925,1937,1937,1943,1949,1949,1955,1955,1955,1968,1968,1974,1980,1980,1987,1993,1993,2006,2006,2013,2019,2019,2032,2046,2046,2060,2060,2080,2102,2102,2131,2160,2160,2199,2199,2199,2239,2280,2280,2332,2358,2358,2376,2376,2414,2442,2442,2481,0,0,0,0,0,0,0,0,0,0,0,0,0,0,0,0,0,0,0,0,0,0,0,0,0,0,0,0,0,0,0,0,0,0,0,0,0,0,0,0,0,0,0,0,0,0,0,0,0,0,0,0,0,0,0,0,0,0,0,0,0,0,0,0,0,0,0,0,0,0,0,0,0,0,0,0,0,0,0,0,0,0,0,0,0,0,0,0,0,0,0,0,0,0,0,0,0,0,0,0,0,0,0,0,0,0,0,0,0,0,0,0,0,0,0,0,0,0,0,0,0,0,0,0,0,0,0,0,0,0,0,0,0,0,0,0,0,0,0,0,0,0,0,0,0,0,0,0,0,0,0,0,0,0,0,0,0,0,0,0,0,0,0,0,0,0,0,0,0,0,0,0,0,0,0,0,0,0,0,0,2462,2452,2452,2433,2433,2414,2404,2404,2386,2367,2367,2358,2358,2349,2349,2349,2340,2340,0,0,0,0,0,0,0,0,0,0,0,0,0,0,0,0,0,2358,2358,2358,2358,2358,2358,2358,2358,2349,2349,2349,2349,2349,2340,2340,2340,2340,2340,2340,2340,2340,2340,2349,2358,2358,2358,2358,2367,2376,2376,2395,2404,2404,2414,2423,2423,2423,2423,2423,2423,2414,2414,2404,2386,2386,2367,2349,2349,2332,2332,2323,2305,2305,2297,2297,2280,2272,2272,2263,2255,2255,2255,2255,2247,2247,2247,2239,2231,2231,2223,2223,2207,2199,2199,2183,2168,2168,2153,2153,2138,2123,2123,2109,2109,2102,2087,2087,2080,2080,2080,2073,2073,2073,2066,2066,2066,2073,2073,2073,2073,2073,2073,2073,2073,2073,2073,2073,2080,2080,2080,2080,2073,2073,2073,2073,2102,2102,2109,2109,2109,2116,2116,2109,2109,2109,2109,2109,2109,2102,2102,2094,2094,2087,2080,2080,2073,2066,2066,2053,2053,2039,2026,2026,2019,2019,2006,1993,1993,1974,1968,1968,1961,1961,1949,1943,1943,1937,1937,1925,1913,1913,1907,1895,1895,1884,1884,1872,1855,1855,1844,1844,1833,1823,1823,1812,1796,1796,1781,1781,1770,1760,1760,1745,1745,1736,1731,1731,1721,1716,1716,1716,1716,1712,1712,1712,1712,1712,1712,1712,1712,1712,1721,1731,1731,1740,1750,1750,1770,1791,1791,1812,1812,1844,1867,1867,1889,1901,1901,1907,1907,1901,1895,1895,1884,1884,1878,1867,1867,1844,1844,1839,1839,0,1817,1817,1807,1801,1801,1796,1791,1791,1781,1781,1765,1755,1755,1750,1740,1740,1736,1736,1731,1726,1726,1726,1726,1721,1716,1716,1716,1721,1721,1721,1721,1721,1721,1721,1721,1721,0,0,0,0,0,0,0,0,0,0,0,0,0,0,0,0,0,0,0,0,0,0,0,0,0,0,0,0,0,0,0,0,0,0,0,0,0,0,0,0,0,0,0,0,0,4790,4790,4753
0,0,0,0,0,0,0,0,0,0,0,0,0,0,0,0,0,0,0,0,0,0,0,0,0,0,0,0,0,0,0,0,0,0,0,0,0,0,0,0,0,0,0,1889,1889,1895,1895,0,1884,1884,1884,1884,1889,1895,1895,1901,1901,1901,1907,1907,1919,1931,1931,1943,1949,1949,1955,1955,1955,1968,1968,1974,1980,1980,1987,1993,1993,2006,2006,2013,2019,2019,2032,2046,2046,2060,2060,2080,0,2131,2131,0,0,2215,2215,2215,2247,0,0,2376,2376,2376,2433,2433,2433,2462,2462,0,0,0,0,0,0,0,0,0,0,0,0,0,0,0,0,0,0,0,0,0,0,0,0,0,0,0,0,0,0,0,0,0,0,0,0,0,0,0,0,0,0,0,0,0,0,0,0,0,0,0,0,0,0,0,0,0,0,0,0,0,0,0,0,0,0,0,0,0,0,0,0,0,0,0,0,0,0,0,0,0,0,0,0,0,0,0,0,0,0,0,0,0,0,0,0,0,0,0,0,0,0,0,0,0,0,0,0,0,0,0,0,0,0,0,0,0,0,0,0,0,0,0,0,0,0,0,0,0,0,0,0,0,0,0,0,0,0,0,0,0,0,0,0,0,0,0,0,0,0,0,0,0,0,0,0,0,0,0,0,0,0,0,0,0,0,0,0,0,0,0,0,0,0,0,0,0,0,0,0,0,0,0,0,0,0,0,0,0,0,0,0,0,0,0,0,0,0,0,0,0,0,0,0,0,0,0,0,0,0,0,0,0,0,0,0,0,0,0,0,0,0,0,0,0,0,0,0,0,0,2340,2340,2340,2340,2340,2340,2340,2340,2349,2358,2358,2358,2349,2349,2358,2358,2376,2386,2386,2404,2404,2404,2414,2414,2414,2414,2404,2404,2395,2376,2376,2358,2340,2340,2323,2323,2314,2297,2297,2288,2280,2280,2263,2263,2255,2255,2255,2247,2247,2247,2239,2239,2223,2199,2199,2191,2191,2168,2153,2153,2138,2138,2123,2123,2153,2138,2123,2123,2109,2109,2102,2087,2087,2080,2080,2080,2073,2073,2073,2066,2066,2066,2073,2073,2073,2073,2073,2073,2073,2073,2073,2073,2073,2080,2080,2080,2080,2073,2073,2073,2073,2073,2073,2080,2087,2087,2094,2102,2102,2102,2102,2102,2102,2094,2094,2094,2087,2087,2080,2073,2073,2066,2053,2053,2039,2039,2026,2013,2013,2006,2006,1993,1980,1980,1968,1955,1955,1949,1949,1943,1937,1937,1925,1919,1919,1907,1907,1895,1889,1889,1878,1878,1867,1855,1855,1844,1844,1833,1823,1823,1807,1796,1796,1781,1781,1770,1760,1760,1745,1745,1736,1731,1731,1721,1716,1716,1716,1716,1716,1712,1712,1712,1712,1712,1712,1712,1712,1721,1736,1736,1745,1755,1755,1775,1791,1791,1817,1844,1844,1867,1867,1889,1901,1901,1907,1907,1901,1895,1895,1884,1884,1878,1867,1867,1844,1844,1839,1839,0,1812,1807,1807,1801,1801,1796,1791,1791,1775,1775,1765,1755,1755,1750,1740,1740,1731,1731,1726,1726,1726,1721,1721,1721,1716,1716,1716,1716,1721,1721,1721,1726,1726,1726,1721,1721,0,0,0,0,0,0,0,0,0,0,0,0,0,0,0,0,0,0,0,0,0,0,0,0,0,0,0,0,0,0,0,0,0,0,0,0,0,0,0,0,0,0,0,0,0,4790,4790,4753
0,0,0,0,0,0,0,0,0,0,0,0,0,0,0,0,0,0,0,0,0,0,0,0,0,0,0,0,0,0,0,0,0,0,0,0,0,0,0,0,0,0,0,1889,1889,0,0,0,1867,1867,1872,1872,1878,1884,1884,1884,1884,1889,1895,1895,1907,1919,1919,1931,1949,1949,1955,1955,1961,1968,1968,1974,1980,1980,1987,2000,2000,2006,2006,2013,0,0,0,0,0,0,0,0,0,0,0,0,0,0,0,0,0,0,0,2404,2404,2404,2433,2433,2433,2462,2462,0,0,0,0,0,0,0,0,0,0,0,0,0,0,0,0,0,0,0,0,0,0,0,0,0,0,0,0,0,0,0,0,0,0,0,0,0,0,0,0,0,0,0,0,0,0,0,0,0,0,0,0,0,0,0,0,0,0,0,0,0,0,0,0,0,0,0,0,0,0,0,0,0,0,0,0,0,0,0,0,0,0,0,0,0,0,0,0,0,0,0,0,0,0,0,0,0,0,0,0,0,0,0,0,0,0,0,0,0,0,0,0,0,0,0,0,0,0,0,0,0,0,0,0,0,0,0,0,0,0,0,0,0,0,0,0,0,0,0,0,0,0,0,0,0,0,0,0,0,0,0,0,0,0,0,0,0,0,0,0,0,0,0,0,0,0,0,0,0,0,0,0,0,0,0,0,0,0,0,0,0,0,0,0,0,0,0,0,0,0,0,0,0,0,0,0,0,0,0,0,0,0,0,0,0,0,0,0,0,0,0,0,0,0,0,0,0,0,0,0,0,0,0,0,0,0,0,0,0,0,0,0,0,0,0,0,0,0,0,0,0,0,2349,2349,2358,2358,2376,2386,2386,2404,2404,2404,2414,2414,2414,2414,2404,2404,2395,2376,2376,2358,2340,2340,2323,2323,2314,2297,2297,2288,2280,2280,2263,2263,2255,2255,2255,2247,2247,2247,2239,2239,2223,2199,2199,2191,2191,2168,2153,2153,2138,2138,2123,2109,2109,2102,2087,2087,2080,2080,2073,2066,2066,2060,2060,2060,2060,2060,2060,2060,2060,2060,2060,2060,2060,2060,2060,2060,2060,2060,2060,2060,2053,2053,2053,2060,2060,2060,2053,2053,2053,2053,2053,2060,2060,2060,2060,2066,2066,2073,2073,2073,2080,2080,2080,2080,2073,2073,2073,2066,2066,2053,2046,2046,2032,2032,2026,2013,2013,2006,2006,1993,1980,1980,1968,1955,1955,1949,1949,1943,1937,1937,1925,1919,1919,1907,1907,1895,1889,1889,1878,1878,1867,1855,1855,1844,1844,1833,1823,1823,1807,1796,1796,1781,1781,1765,1755,1755,1745,1745,1736,1726,1726,1721,1716,1716,1716,1716,1716,1712,1712,1712,1712,1712,1712,1712,1712,1721,1736,1736,1745,1755,1755,1775,1791,1791,1817,1844,1844,1867,1867,1889,1901,1901,1907,1907,1901,1895,1895,1884,1884,1878,1867,1867,1850,1850,1839,1839,0,1812,1807,1807,1801,1801,1796,1791,1791,1775,1775,1765,1755,1755,1750,1740,1740,1731,1731,1726,1726,1726,1721,1721,1721,1716,1716,1716,1716,1721,1721,1721,1726,1726,1726,1726,1726,0,0,0,0,0,0,0,0,0,0,0,0,0,0,0,0,0,0,0,0,0,0,0,0,0,0,0,0,0,0,0,0,0,0,0,0,0,0,0,4753,4753,4753,4753,4790,4790,4790,4790,4753
0,0,0,0,0,0,0,0,0,0,0,0,0,0,0,0,0,0,0,0,0,0,0,0,0,0,0,0,0,0,0,0,0,0,0,0,0,0,0,0,0,0,0,0,0,0,0,0,1867,1867,1872,1872,1878,1884,1884,1884,1884,1889,1895,1895,1907,1919,1919,1931,1943,1943,1949,1949,1955,1968,1968,1974,1980,1980,1987,2000,2000,2006,2006,2013,2019,2019,0,0,0,0,0,0,0,0,0,0,0,0,0,0,0,0,0,2404,2404,2404,2442,2462,2462,2491,0,0,0,0,0,0,0,0,0,0,0,0,0,0,0,0,0,0,0,0,0,0,0,0,0,0,0,0,0,0,0,0,0,0,0,0,0,0,0,0,0,0,0,0,0,0,0,0,0,0,0,0,0,0,0,0,0,0,0,0,0,0,0,0,0,0,0,0,0,0,0,0,0,0,0,0,0,0,0,0,0,0,0,0,0,0,0,0,0,0,0,0,0,0,0,0,0,0,0,0,0,0,0,0,0,0,0,0,0,0,0,0,0,0,0,0,0,0,0,0,0,0,0,0,0,0,0,0,0,0,0,0,0,0,0,0,0,0,0,0,0,0,0,0,0,0,0,0,0,0,0,0,0,0,0,0,0,0,0,0,0,0,0,0,0,0,0,0,0,0,0,0,0,0,0,0,0,0,0,0,0,0,0,0,0,0,0,0,0,0,0,0,0,0,0,0,0,0,0,0,0,0,0,0,0,0,0,0,0,0,0,0,0,0,0,0,0,0,0,0,0,0,0,0,0,0,0,0,0,0,0,0,0,0,0,0,0,0,0,0,0,0,0,0,0,0,0,0,0,0,0,0,0,0,0,0,0,2404,2404,2395,2376,2376,2358,2340,2340,2323,2323,2314,2297,2297,2288,2280,2280,2263,2263,2255,2255,2255,2247,2247,2247,2239,2239,2223,2199,2199,2191,2191,2168,2153,2153,2138,2138,2123,2109,2109,2102,2087,2087,2080,2080,2073,2066,2066,2060,2060,2060,2060,2060,2060,2053,2053,2046,2046,2053,2053,2053,2053,2053,2053,2053,2060,2060,2053,2053,2053,2060,2060,2060,2053,2053,2053,2053,2053,2060,2060,2060,2060,2066,2066,2073,2073,2073,2080,2080,2080,2080,2073,2073,2073,2066,2066,2053,2046,2046,2032,2032,2013,2006,2006,1993,1993,1980,1974,1974,1955,1949,1949,1937,1937,1937,1925,1925,1919,1919,1907,1895,1895,1889,1878,1878,1867,1867,1861,1850,1850,1839,1828,1828,1812,1812,1807,1791,1791,1775,1775,1760,1750,1750,1740,1740,1731,1726,1726,1721,1716,1716,1716,1716,1716,1716,1716,1716,1716,1716,1716,1716,1716,1726,1740,1740,1750,1755,1755,1775,1796,1796,1817,1844,1844,1867,1867,1889,1901,1901,1907,1907,1901,1895,1895,1889,1889,1878,1867,1867,1850,1850,1839,1839,0,1817,1807,1807,1801,1801,1796,1786,1786,1775,1775,1765,1755,1755,1745,1740,1740,1731,1731,1726,1726,1726,1721,1721,1721,1716,1716,1716,1716,1721,1721,1721,1726,1726,1726,1726,1726,0,0,0,0,0,0,0,0,0,0,0,0,0,0,0,0,0,0,0,0,0,0,0,0,0,0,0,0,0,0,0,0,0,0,0,0,0,0,0,4753,4753,4753,4753,4790,4790,4790,4790,4753
0,0,0,0,0,0,0,0,0,0,0,0,0,0,0,0,0,0,0,0,0,0,0,0,0,0,0,0,0,0,0,0,0,0,0,0,0,0,0,0,0,0,0,0,0,0,0,0,1855,1855,1861,1861,1861,1867,1867,1872,1872,1878,1884,1884,1895,1907,1907,1919,1937,1937,1949,1949,1955,1968,1968,1974,1987,1987,1993,2000,2000,2006,2006,2013,2019,2019,2026,2046,2046,2087,2087,2087,2131,0,0,0,0,0,0,0,0,0,0,0,0,0,0,0,0,0,0,0,0,0,0,0,0,0,0,0,0,0,0,0,0,0,0,0,0,0,0,0,0,0,0,0,0,0,0,0,0,0,0,0,0,0,0,0,0,0,0,0,0,0,0,0,0,0,0,0,0,0,0,0,0,0,0,0,0,0,0,0,0,0,0,0,0,0,0,0,0,0,0,0,0,0,0,0,0,0,0,0,0,0,0,0,0,0,0,0,0,0,0,0,0,0,0,0,0,0,0,0,0,0,0,0,0,0,0,0,0,0,0,0,0,0,0,0,0,0,0,0,0,0,0,0,0,0,0,0,0,0,0,0,0,0,0,0,0,0,0,0,0,0,0,0,0,0,0,0,0,0,0,0,0,0,0,0,0,0,0,0,0,0,0,0,0,0,0,0,0,0,0,0,0,0,0,0,0,0,0,0,0,0,0,0,0,0,0,0,0,0,0,0,0,0,0,0,0,0,0,0,0,0,0,0,0,0,0,0,0,0,0,0,0,0,0,0,0,0,0,0,0,0,0,0,0,0,0,0,0,0,0,0,0,0,0,0,0,0,0,0,0,0,0,0,0,0,0,0,0,0,0,0,0,0,0,0,0,0,0,0,0,0,0,0,0,0,0,0,0,0,0,0,0,0,0,0,0,0,0,0,0,0,0,0,0,0,0,0,0,0,0,0,0,0,0,0,0,0,0,0,0,0,0,0,0,0,0,0,2053,2053,2046,2046,2053,2053,2053,2053,2053,2053,2053,2053,2053,2046,2046,2046,2046,2046,2046,2039,2039,2039,2046,2046,2046,2053,2053,2053,2066,2066,2073,2073,2073,2080,2080,2080,2080,2073,2073,2073,2066,2066,2053,2046,2046,2032,2032,2013,2006,2006,1993,1993,1980,1974,1974,1955,1949,1949,1931,1931,1925,1919,1919,1913,1901,1901,1889,1889,1884,1872,1872,1867,1867,1861,1850,1850,1839,1828,1828,1812,1812,1807,1791,1791,1775,1775,1760,1750,1750,1740,1740,1731,1726,1726,1721,1716,1716,1716,1716,1716,1716,1716,1716,1716,1716,1716,1716,1716,1726,1740,1740,1750,1755,1755,1775,1796,1796,1817,1844,1844,1867,1867,1889,1895,1895,1907,1907,1901,1895,1895,1889,1889,1878,1867,1867,1850,1850,1839,1839,0,1817,1807,1807,1801,1801,1796,1786,1786,1775,1775,1765,1755,1755,1745,1740,1740,1731,1731,1726,1726,1726,1721,1721,1721,1721,1721,1721,1721,1721,1721,1721,1726,1726,1726,1726,1726,0,0,0,0,0,0,0,0,0,0,0,0,0,0,0,0,0,0,0,0,0,0,0,0,0,0,0,0,0,0,0,0,0,0,0,0,4716,4716,4716,4716,4716,4716,4753,4790,4790,4753,4753,4753
0,0,0,0,0,0,0,0,0,0,0,0,0,0,0,0,0,0,0,0,0,0,0,0,0,0,0,0,0,0,0,0,0,0,0,0,0,0,0,0,0,0,0,0,0,0,0,0,1844,1844,1844,1844,1861,1867,1867,1872,1872,1878,1884,1884,1895,1907,1907,1919,1937,1937,1949,1949,1955,1968,1968,1980,1993,1993,2000,2006,2006,2006,2006,2013,2019,2019,2026,2046,2046,2087,2087,2087,2131,0,0,0,0,0,0,0,0,0,0,0,0,0,0,0,0,0,0,0,0,0,0,0,0,0,0,0,0,0,0,0,0,0,0,0,0,0,0,0,0,0,0,0,0,0,0,0,0,0,0,0,0,0,0,0,0,0,0,0,0,0,0,0,0,0,0,0,0,0,0,0,0,0,0,0,0,0,0,0,0,0,0,0,0,0,0,0,0,0,0,0,0,0,0,0,0,0,0,0,0,0,0,0,0,0,0,0,0,0,0,0,0,0,0,0,0,0,0,0,0,0,0,0,0,0,0,0,0,0,0,0,0,0,0,0,0,0,0,0,0,0,0,0,0,0,0,0,0,0,0,0,0,0,0,0,0,0,0,0,0,0,0,0,0,0,0,0,0,0,0,0,0,0,0,0,0,0,0,0,0,0,0,0,0,0,0,0,0,0,0,0,0,0,0,0,0,0,0,0,0,0,0,0,0,0,0,0,0,0,0,0,0,0,0,0,0,0,0,0,0,0,0,0,0,0,0,0,0,0,0,0,0,0,0,0,0,0,0,0,0,0,0,0,0,0,0,0,0,0,0,0,0,0,0,0,0,0,0,0,0,0,0,0,0,0,0,0,0,0,0,0,0,0,0,0,0,0,0,0,0,0,0,0,0,0,0,0,0,0,0,0,0,0,0,0,0,0,0,0,0,0,0,0,0,0,0,0,0,0,0,0,0,0,0,0,0,0,0,0,0,0,0,0,0,0,0,2039,2039,2039,2032,2032,2039,2039,2039,2039,2046,2046,2046,2039,2039,2032,2032,2032,2039,2039,2039,2039,2039,2032,2032,2032,2039,2046,2046,2046,2053,2053,2053,2053,2060,2060,2060,2066,0,0,0,0,0,0,0,0,0,0,0,0,0,0,0,0,0,0,0,0,0,0,1931,1931,1925,1919,1919,1913,1901,1901,1889,1889,1884,1872,1872,1861,1861,1855,1844,1844,1833,1823,1823,1807,1807,1801,1786,1786,1770,1770,1755,1745,1745,1736,1736,1726,1721,1721,1716,1712,1712,1712,1712,1712,1712,1712,1712,1716,1716,1716,1716,1716,1726,1740,1740,1750,1760,1760,1781,1796,1796,1823,1844,1844,1867,1889,1889,1895,1895,1907,1907,1907,1895,1895,1889,1889,1884,1872,1872,1855,1855,0,0,0,1823,1812,1812,1807,1807,1801,1791,1791,1781,1781,1770,1760,1760,1745,1740,1740,1731,1731,1731,1726,1726,1721,1721,1721,1721,1721,1721,1721,1726,1721,1721,1726,1726,1726,1726,1726,0,0,0,0,0,0,0,0,0,0,0,0,0,0,0,0,0,0,0,0,0,0,0,0,0,0,0,0,0,0,0,0,0,0,4681,4681,4681,4681,4716,4716,4716,4716,4753,4753,4753,4753,4753,4753
0,0,0,0,0,0,0,0,0,0,0,0,0,0,0,0,0,0,0,0,0,0,0,0,0,0,0,0,0,0,0,0,0,0,0,0,0,0,0,0,0,0,0,0,0,0,0,0,1844,1844,1844,1844,1850,1855,1855,1861,1861,1867,1878,1878,1889,1907,1907,1919,1931,1931,1943,1943,1955,1961,1961,1974,1987,1987,2000,2006,2006,2006,2006,2013,2019,2019,2026,2046,2046,2087,2087,2087,2131,0,0,0,0,0,0,0,0,0,0,0,0,0,0,0,0,0,0,0,0,0,0,0,0,0,0,0,0,0,0,0,0,0,0,0,0,0,0,0,0,0,0,0,0,0,0,0,0,0,0,0,0,0,0,0,0,0,0,0,0,0,0,0,0,0,0,0,0,0,0,0,0,0,0,0,0,0,0,0,0,0,0,0,0,0,0,0,0,0,0,0,0,0,0,0,0,0,0,0,0,0,0,0,0,0,0,0,0,0,0,0,0,0,0,0,0,0,0,0,0,0,0,0,0,0,0,0,0,0,0,0,0,0,0,0,0,0,0,0,0,0,0,0,0,0,0,0,0,0,0,0,0,0,0,0,0,0,0,0,0,0,0,0,0,0,0,0,0,0,0,0,0,0,0,0,0,0,0,0,0,0,0,0,0,0,0,0,0,0,0,0,0,0,0,0,0,0,0,0,0,0,0,0,0,0,0,0,0,0,0,0,0,0,0,0,0,0,0,0,0,0,0,0,0,0,0,0,0,0,0,0,0,0,0,0,0,0,0,0,0,0,0,0,0,0,0,0,0,0,0,0,0,0,0,0,0,0,0,0,0,0,0,0,0,0,0,0,0,0,0,0,0,0,0,0,0,0,0,0,0,0,0,0,0,0,0,0,0,0,0,0,0,0,0,0,0,0,0,0,0,0,0,0,0,0,0,0,0,2073,2073,2066,2066,2066,2060,2060,2060,2060,2060,2060,2046,2046,2046,2039,2039,2039,0,2039,2039,2039,2032,2032,2039,2039,2039,2039,2046,2046,2046,2039,2039,2032,2032,2032,2039,2039,2039,2039,2039,2032,2032,2032,2039,2046,2046,2046,2053,2053,2053,2053,2060,2060,2060,2066,2066,2060,2060,2060,2046,2046,2039,2026,2026,2019,2019,2006,1993,1993,1980,1980,1968,1961,1961,1949,1937,1937,1931,1931,1919,1913,1913,1907,1895,1895,1884,1884,1878,1867,1867,1861,1861,1850,1839,1839,1828,1817,1817,1807,1807,1791,1781,1781,1765,1765,1750,1740,1740,1731,1731,1721,1716,1716,1712,1712,1712,1712,1712,1712,1712,1712,1712,1716,1716,1716,1721,1721,1726,1740,1740,1755,1765,1765,1781,1801,1801,1823,1850,1850,1872,1889,1889,1895,1895,1907,1907,1907,1901,1901,1895,1895,1889,1872,1872,1855,1855,0,0,0,1823,1812,1812,1807,1807,1801,1791,1791,1781,1781,1770,1760,1760,1745,1740,1740,1731,1731,1731,1726,1726,1721,1721,1721,1721,1721,1721,1721,1726,1726,1726,1726,1726,1726,1726,1731,0,0,0,0,0,0,0,0,0,0,0,0,0,0,0,0,0,0,0,0,0,0,0,0,0,0,0,0,0,0,0,0,0,0,4681,4681,4681,4681,4716,4716,4753,4753,4753,4753,4753,4753,4753,4753
0,0,0,0,0,0,0,0,0,0,0,0,0,0,0,0,0,0,0,0,0,0,0,0,0,0,0,0,0,0,0,0,0,0,0,0,0,0,0,0,0,0,0,0,0,0,0,0,1833,1833,1839,1839,1844,1850,1850,1855,1855,1861,1872,1872,1884,1901,1901,1913,1925,1925,1943,1943,1955,1961,1961,1974,1987,1987,0,0,0,0,0,0,0,0,0,0,0,0,0,0,0,0,0,0,0,0,0,0,0,0,0,0,0,0,0,0,0,0,0,0,0,0,0,0,0,0,0,0,0,0,0,0,0,0,0,0,0,0,0,0,0,0,0,0,0,0,0,0,0,0,0,0,0,0,0,0,0,0,0,0,0,0,0,0,0,0,0,0,0,0,0,0,0,0,0,0,0,0,0,0,0,0,0,0,0,0,0,0,0,0,0,0,0,0,0,0,0,0,0,0,0,0,0,0,0,0,0,0,0,0,0,0,0,0,0,0,0,0,0,0,0,0,0,0,0,0,0,0,0,0,0,0,0,0,0,0,0,0,0,0,0,0,0,0,0,0,0,0,0,0,0,0,0,0,0,0,0,0,0,0,0,0,0,0,0,0,0,0,0,0,0,0,0,0,0,0,0,0,0,0,0,0,0,0,0,0,0,0,0,0,0,0,0,0,0,0,0,0,0,0,0,0,0,0,0,0,0,0,0,0,0,0,0,0,0,0,0,0,0,0,0,0,0,0,0,0,0,0,0,0,0,0,0,0,0,0,0,0,0,0,0,0,0,0,0,0,0,0,0,0,0,0,0,0,0,0,0,0,0,0,0,0,0,0,0,0,0,0,0,0,0,0,0,0,0,0,0,0,0,0,0,0,0,0,0,0,0,0,0,0,0,0,0,0,0,0,0,0,0,0,0,0,0,0,0,0,0,0,0,2073,2073,2066,2066,2066,2060,2060,2060,2060,2060,2060,2046,2046,2046,2039,2039,2039,2039,2032,2032,2032,2026,2026,2032,2032,2032,2032,2039,2039,2039,2032,2032,2026,2026,2026,2032,2032,2026,2026,2026,2026,2026,2026,2026,2032,2032,2039,2046,2046,2046,2046,2046,2053,2053,2053,2060,2053,2053,2053,2046,2046,2032,2026,2026,2013,2013,2000,1987,1987,1980,1980,1961,1955,1955,1943,1937,1937,1925,1925,1919,1913,1913,1907,1895,1895,1884,1884,1878,1867,1867,1861,1861,1850,1839,1839,1828,1817,1817,1807,1807,1791,1781,1781,1765,1765,1750,1740,1740,1731,1731,1721,1716,1716,1712,1712,1712,1707,1707,1707,1707,1707,1707,1712,1712,1712,1716,1721,1726,1740,1740,1755,1765,1765,1781,1801,1801,1823,1850,1850,1872,1889,1889,1895,1895,1907,1907,1907,1901,1901,1895,1895,1889,1878,1878,1861,1861,0,0,0,1828,1817,1817,1807,1807,1807,1801,1801,1791,1775,1770,1760,1760,1750,1740,1740,1736,1736,1731,1726,1726,1721,1721,1721,1721,1721,1721,1721,1726,1726,1726,1731,1731,1731,1731,1731,0,0,0,0,0,0,0,0,0,0,0,0,0,0,0,0,0,0,0,0,0,0,0,0,0,0,0,0,0,0,0,4646,4646,4646,4681,4681,4681,4681,4681,4681,4716,4753,4753,4753,4753,4753,4753,4716
0,0,0,0,0,0,0,0,0,0,0,0,0,0,0,0,0,0,0,0,0,0,0,0,0,0,0,0,0,0,0,0,0,0,0,0,0,0,0,0,0,0,0,0,0,0,0,0,1833,1833,1839,1839,1844,1850,1850,1855,1855,1861,1872,1872,1884,1901,1901,1913,1925,1925,1943,1955,1955,1968,1968,1980,0,0,0,0,0,0,0,0,0,0,0,0,0,0,0,0,0,0,0,0,0,0,0,0,0,0,0,0,0,0,0,0,0,0,0,0,0,0,0,0,0,0,0,0,0,0,0,0,0,0,0,0,0,0,0,0,0,0,0,0,0,0,0,0,0,0,0,0,0,0,0,0,0,0,0,0,0,0,0,0,0,0,0,0,0,0,0,0,0,0,0,0,0,0,0,0,0,0,0,0,0,0,0,0,0,0,0,0,0,0,0,0,0,0,0,0,0,0,0,0,0,0,0,0,0,0,0,0,0,0,0,0,0,0,0,0,0,0,0,0,0,0,0,0,0,0,0,0,0,0,0,0,0,0,0,0,0,0,0,0,0,0,0,0,0,0,0,0,0,0,0,0,0,0,0,0,0,0,0,0,0,0,0,0,0,0,0,0,0,0,0,0,0,0,0,0,0,0,0,0,0,0,0,0,0,0,0,0,0,0,0,0,0,0,0,0,0,0,0,0,0,0,0,0,0,0,0,0,0,0,0,0,0,0,0,0,0,0,0,0,0,0,0,0,0,0,0,0,0,0,0,0,0,0,0,0,0,0,0,0,0,0,0,0,0,0,0,0,0,0,0,0,0,0,0,0,0,0,0,0,0,0,0,0,0,0,0,0,0,0,0,0,0,0,0,0,0,0,0,0,0,0,0,0,0,0,0,0,0,0,0,0,0,0,0,0,0,0,0,0,0,0,2073,2060,2060,2053,2053,2053,2053,2053,2053,2046,2046,2046,2046,2039,2032,2032,2032,2026,2026,2026,2026,2013,2013,2013,2013,2019,2019,2019,2026,2026,2026,2032,2032,2026,2026,2026,2026,2026,2026,2026,2019,2019,2019,2019,2019,2019,2026,2032,2032,2039,2046,2046,2046,2046,2046,2053,2053,2053,2060,2053,2053,2053,2046,2046,2032,2026,2026,2013,2013,2000,1987,1987,1980,1980,1961,1955,1955,1943,1937,1937,1925,1925,1919,1913,1913,1901,1889,1889,1884,1884,1872,1867,1867,1855,1855,1844,1839,1839,1828,1812,1812,1801,1801,1786,1770,1770,1760,1760,1745,1736,1736,1721,1721,1712,1712,1712,1707,1707,1707,1707,1707,1707,1707,1707,1707,1707,1712,1712,1712,1721,1721,1736,1736,1750,1760,1760,1781,1801,1801,1823,1850,1850,1872,1889,1889,1895,1895,1907,1913,1907,1901,1901,1895,1895,1889,1878,1878,1867,1867,0,0,0,1828,1823,1823,1812,1812,1807,1801,1801,1791,1775,1775,1765,1765,1750,1745,1745,1736,1736,1731,1726,1726,1721,1721,1721,1721,1721,1721,1721,1726,1726,1726,1731,1731,1731,1731,1731,0,0,0,0,0,0,0,0,0,0,0,0,0,0,0,0,0,0,0,0,0,0,0,0,0,0,0,0,4611,4611,4646,4646,4646,4646,4646,4646,4646,4646,4681,4681,4681,4716,4716,4716,4716,4681,4681,4681
0,0,0,0,0,0,0,0,0,0,0,0,0,0,0,0,0,0,0,0,0,0,0,0,0,0,0,0,0,0,0,0,0,0,0,0,0,0,0,0,0,0,0,0,0,0,0,0,1828,1828,1839,1839,1839,1844,1844,1850,1850,1855,1867,1867,1878,1895,1895,1907,1925,1925,1943,1955,1955,1968,1968,1980,0,0,0,0,0,0,0,0,0,0,0,0,0,0,0,0,0,0,0,0,0,0,0,0,0,0,0,0,0,0,0,0,0,0,0,0,0,0,0,0,0,0,0,0,0,0,0,0,0,0,0,0,0,0,0,0,0,0,0,0,0,0,0,0,0,0,0,0,0,0,0,0,0,0,0,0,0,0,0,0,0,0,0,0,0,0,0,0,0,0,0,0,0,0,0,0,0,0,0,0,0,0,0,0,0,0,0,0,0,0,0,0,0,0,0,0,0,0,0,0,0,0,0,0,0,0,0,0,0,0,0,0,0,0,0,0,0,0,0,0,0,0,0,0,0,0,0,0,0,0,0,0,0,0,0,0,0,0,0,0,0,0,0,0,0,0,0,0,0,0,0,0,0,0,0,0,0,0,0,0,0,0,0,0,0,0,0,0,0,0,0,0,0,0,0,0,0,0,0,0,0,0,0,0,0,0,0,0,0,0,0,0,0,0,0,0,0,0,0,0,0,0,0,0,0,0,0,0,0,0,0,0,0,0,0,0,0,0,0,0,0,0,0,0,0,0,0,0,0,0,0,0,0,0,0,0,0,0,0,0,0,0,0,0,0,0,0,0,0,0,0,0,0,0,0,0,0,0,0,0,0,0,0,0,0,0,0,0,0,0,0,0,0,0,0,0,0,0,0,0,0,0,0,0,0,0,0,0,0,0,0,0,0,0,0,0,0,0,0,0,0,0,2073,2006,2006,2006,2013,2013,2019,2026,2026,2046,2046,2046,2046,2039,2032,2032,2032,2026,2026,2026,2026,2013,2013,2013,2013,2019,2019,2019,2026,2026,2026,2032,2032,2026,2026,2026,2026,2026,2026,2026,2019,2019,2019,2019,2019,2013,2013,2019,2019,2019,2026,2026,2026,2026,2026,2032,2032,2039,2046,2046,2046,2046,2039,2039,2032,2019,2019,2013,2013,2000,1987,1987,1980,1968,1961,1955,1955,1943,1937,1937,1925,1925,1913,1907,1907,1901,1889,1889,1878,1878,1872,1861,1861,1850,1850,1844,1833,1833,1823,1812,1812,1796,1796,1781,1765,1765,1760,1760,1745,1736,1736,1721,1721,1712,1712,1712,1707,1707,1707,1707,1707,1707,1707,1707,1707,1707,1712,1712,1712,1721,1721,1736,1736,1750,1760,1760,1781,1801,1801,1823,1850,1850,1872,1889,1889,1895,1895,1907,1913,1907,1901,1901,1895,1895,1889,1878,1878,1867,1867,0,0,0,1828,1823,1823,1812,1812,1807,1801,1801,1791,1775,1775,1760,1760,1750,1745,1745,1736,1736,1731,1726,1726,1726,1726,1726,1726,1726,1726,1726,1731,1731,1731,1731,1731,1731,1731,1731,0,0,0,0,0,0,0,0,0,0,0,0,0,0,0,0,0,0,0,0,0,0,0,0,0,0,0,0,4611,4611,4646,4646,4646,4646,4646,4646,4646,4646,4681,4681,4681,4716,4716,4716,4716,4681,4681,4681
0,0,0,0,0,0,0,0,0,0,0,0,0,0,0,0,0,0,0,0,0,0,0,0,0,0,0,0,0,0,0,0,0,0,0,0,0,0,0,0,0,0,0,0,0,0,1817,1817,1817,1828,1833,1833,1839,1839,1839,1844,1844,1850,1861,1861,1872,1889,1889,1901,1919,1919,0,0,0,0,0,0,0,0,0,0,0,0,0,0,0,0,0,0,0,0,0,0,0,0,0,0,0,0,0,0,0,0,0,0,0,0,0,0,0,0,0,0,0,0,0,0,0,0,0,0,0,0,0,0,0,0,0,0,0,0,0,0,0,0,0,0,0,0,0,0,0,0,0,0,0,0,0,0,0,0,0,0,0,0,0,0,0,0,0,0,0,0,0,0,0,0,0,0,0,0,0,0,0,0,0,0,0,0,0,0,0,0,0,0,0,0,0,0,0,0,0,0,0,0,0,0,0,0,0,0,0,0,0,0,0,0,0,0,0,0,0,0,0,0,0,0,0,0,0,0,0,0,0,0,0,0,0,0,0,0,0,0,0,0,0,0,0,0,0,0,0,0,0,0,0,0,0,0,0,0,0,0,0,0,0,0,0,0,0,0,0,0,0,0,0,0,0,0,0,0,0,0,0,0,0,0,0,0,0,0,0,0,0,0,0,0,0,0,0,0,0,0,0,0,0,0,0,0,0,0,0,0,0,0,0,0,0,0,0,0,0,0,0,0,0,0,0,0,0,0,0,0,0,0,0,0,0,0,0,0,0,0,0,0,0,0,0,0,0,0,0,0,0,0,0,0,0,0,0,0,0,0,0,0,0,0,0,0,0,0,0,0,0,0,0,0,0,0,0,0,0,0,0,0,0,0,0,0,0,0,0,0,0,0,0,0,0,0,0,0,0,0,0,0,0,0,0,0,0,2006,2006,2006,2013,2013,2019,2026,2026,2026,2026,2026,2026,2026,2019,2019,2019,2013,2013,2006,2006,2006,2006,2006,2006,2000,2000,2000,2013,2013,2019,2026,2026,2019,2019,2019,2019,2019,2019,2019,2019,2019,2019,2013,2013,2006,2006,2006,2006,2013,2013,2013,2019,2013,2013,2019,2019,2026,2032,2032,2039,2039,2032,2032,2026,2019,2019,2006,2006,2000,1993,1993,1980,1968,1968,1955,1955,1943,1937,1937,1925,1925,1913,1907,1907,1901,1889,1889,1878,1878,1872,1861,1861,1850,1850,1844,1833,1833,1823,1812,1812,1796,1796,1781,1765,1765,1755,1755,1740,1726,1726,1716,1716,1707,1702,1702,1702,1697,1697,1697,1702,1702,1702,1702,1702,1707,1707,1707,1712,1721,1721,1736,1736,1750,1760,1760,1775,1801,1801,1823,1850,1850,1872,1889,1889,1901,1901,1907,1913,1907,1901,1901,1895,1895,1889,1878,1878,1867,1867,0,0,0,1828,1823,1823,1812,1812,1807,1801,1801,1791,1775,1775,1760,1760,1755,1745,1745,1740,1740,1731,1726,1726,1726,1726,1726,1726,1726,1726,1726,1731,1731,1731,1731,1731,1731,1736,1736,0,0,0,0,0,0,0,0,0,0,0,0,0,0,0,0,0,0,0,0,0,0,0,0,0,0,4611,4611,4611,4611,4611,4611,4611,4646,4646,4646,4646,4646,4646,4646,4681,4681,4681,4716,4681,4681,4681,4646
0,0,0,0,0,0,0,0,0,0,0,0,0,0,0,0,0,0,0,0,0,0,0,0,0,0,0,0,0,0,0,0,0,0,0,0,0,0,0,0,0,0,0,0,0,0,1817,1817,1817,1828,1833,1833,1839,1839,1839,1844,1844,1850,1861,1861,1872,1889,1889,1901,1919,1919,1931,0,0,0,0,0,0,0,0,0,0,0,0,0,0,0,0,0,0,0,0,0,0,0,0,0,0,0,0,0,0,0,0,0,0,0,0,0,0,0,0,0,0,0,0,0,0,0,0,0,0,0,0,0,0,0,0,0,0,0,0,0,0,0,0,0,0,0,0,0,0,0,0,0,0,0,0,0,0,0,0,0,0,0,0,0,0,0,0,0,0,0,0,0,0,0,0,0,0,0,0,0,0,0,0,0,0,0,0,0,0,0,0,0,0,0,0,0,0,0,0,0,0,0,0,0,0,0,0,0,0,0,0,0,0,0,0,0,0,0,0,0,0,0,0,0,0,0,0,0,0,0,0,0,0,0,0,0,0,0,0,0,0,0,0,0,0,0,0,0,0,0,0,0,0,0,0,0,0,0,0,0,0,0,0,0,0,0,0,0,0,0,0,0,0,0,0,0,0,0,0,0,0,0,0,0,0,0,0,0,0,0,0,0,0,0,0,0,0,0,0,0,0,0,0,0,0,0,0,0,0,0,0,0,0,0,0,0,0,0,0,0,0,0,0,0,0,0,0,0,0,0,0,0,0,0,0,0,0,0,0,0,0,0,0,0,0,0,0,0,0,0,0,0,0,0,0,0,0,0,0,0,0,0,0,0,0,0,0,0,0,0,0,0,0,0,0,0,0,0,0,0,0,0,0,0,0,0,0,0,0,0,0,0,0,0,0,0,0,0,0,0,0,0,0,0,0,0,0,2006,2006,2006,2013,2013,2019,2026,2026,2026,2026,2026,2026,2019,2013,2013,2006,2000,2000,1993,1993,1993,1980,1980,1980,1980,1987,1987,1987,1987,1993,2006,2006,2019,2019,2019,2019,2019,2019,2019,2019,2019,2019,2013,2013,2006,2006,2006,2006,2013,2013,2013,2019,2013,2013,2019,2019,2026,2032,2032,2039,2039,2032,2032,2026,2019,2019,2006,2006,2000,1987,1987,1974,1961,1961,1955,1955,1943,1931,1931,1925,1925,1913,1907,1907,1901,1889,1889,1878,1878,1867,1861,1861,1850,1850,1839,1833,1833,1817,1801,1801,1791,1791,1775,1760,1760,1750,1750,1736,1726,1726,1712,1712,1702,1702,1702,1697,1697,1697,1697,1697,1697,1697,1697,1697,1702,1702,1702,1707,1716,1716,1731,1731,1750,1760,1760,1775,1801,1801,1823,1850,1850,1872,1889,1889,1901,1913,1913,1913,1907,1901,1901,1895,1895,1895,1884,1884,1867,1867,0,0,0,1828,1823,1823,1812,1812,1807,1801,1801,1791,1775,1775,1760,1760,1755,1745,1745,1740,1740,1731,1726,1726,1726,1726,1726,1726,1726,1726,1726,1731,1731,1731,1731,1731,1731,1736,1736,0,0,0,0,0,0,0,0,0,0,0,0,0,0,0,0,0,0,0,0,0,0,0,0,0,4577,4577,4577,4577,4577,4611,4611,4611,4611,4611,4611,4611,4646,4646,4646,4681,4681,4681,4716,4681,4681,4681,4646
0,0,0,0,0,0,0,0,0,0,0,0,0,0,0,0,0,0,0,0,0,0,0,0,0,0,0,0,0,0,0,0,0,0,0,0,0,0,0,0,0,0,0,0,0,0,1812,1812,1812,1823,1828,1828,1833,1839,1839,1844,1844,1844,1855,1855,1867,1884,1884,1895,1907,1907,1919,1931,1931,1943,1943,1955,1961,1961,1961,1961,1961,1961,1961,1961,0,0,0,0,0,0,0,0,0,0,0,0,0,0,0,0,0,0,0,0,0,0,0,0,0,0,0,0,0,0,0,0,0,0,0,0,0,0,0,0,0,0,0,0,0,0,0,0,0,0,0,0,0,0,0,0,0,0,0,0,0,0,0,0,0,0,0,0,0,0,0,0,0,0,0,0,0,0,0,0,0,0,0,0,0,0,0,0,0,0,0,0,0,0,0,0,0,0,0,0,0,0,0,0,0,0,0,0,0,0,0,0,0,0,0,0,0,0,0,0,0,0,0,0,0,0,0,0,0,0,0,0,0,0,0,0,0,0,0,0,0,0,0,0,0,0,0,0,0,0,0,0,0,0,0,0,0,0,0,0,0,0,0,0,0,0,0,0,0,0,0,0,0,0,0,0,0,0,0,0,0,0,0,0,0,0,0,0,0,0,0,0,0,0,0,0,0,0,0,0,0,0,0,0,0,0,0,0,0,0,0,0,0,0,0,0,0,0,0,0,0,0,0,0,0,0,0,0,0,0,0,0,0,0,0,0,0,0,0,0,0,0,0,0,0,0,0,0,0,0,0,0,0,0,0,0,0,0,0,0,0,0,0,0,0,0,0,0,0,0,0,0,0,0,0,0,0,0,0,0,0,0,0,0,0,0,0,0,0,0,0,0,0,0,0,0,0,0,0,0,0,0,0,0,0,0,0,0,0,0,0,0,0,0,0,0,0,0,0,0,0,0,2032,2026,2026,2026,2026,2019,2013,2013,2006,2000,2000,1993,1993,1993,1980,1980,1980,1980,1987,1987,1987,1987,1993,2006,2006,2000,2000,2000,2006,2006,2006,2013,2006,2006,2006,2006,2006,2006,2006,2006,2000,2000,2006,2006,2006,2006,2006,2013,2013,2019,2019,2019,2032,2032,2026,2026,2019,2013,2013,2006,2006,1993,1980,1980,1974,1961,1961,1949,1949,1943,1931,1931,1925,1925,1919,1907,1907,1901,1889,1889,1878,1878,1867,1855,1855,1850,1850,1839,1833,1833,1817,1801,1801,1791,1791,1775,1760,1760,1750,1750,1736,1726,1726,1712,1712,1702,1702,1702,1697,1697,1697,1697,1697,1697,1697,1697,1697,1702,1702,1702,1707,1716,1716,1731,1731,1740,1755,1755,1775,1801,1801,1823,1850,1850,1872,1889,1889,1901,1913,1913,1913,1907,1901,1901,1895,1895,1895,1884,1884,1867,1850,1850,1850,0,1828,1823,1823,1807,1807,1801,1796,1796,1786,1770,1770,1765,1765,1755,1745,1745,1740,1736,1731,1726,1726,1726,1726,1726,1726,1726,1726,1726,1731,1731,1731,1736,1736,1736,1736,1736,0,0,0,0,0,0,0,0,0,0,0,0,0,0,0,0,0,0,0,0,0,0,0,0,0,4577,4577,4577,4577,4577,4611,4611,4611,4611,4611,4611,4611,4611,4646,4646,4646,4646,4646,4646,4646,4646,4646,4611
0,0,0,0,0,0,0,0,0,0,0,0,0,0,0,0,0,0,0,0,0,0,0,0,0,0,0,0,0,0,1750,1750,1750,0,0,0,0,0,0,0,0,1786,1786,1786,1801,1801,1801,1807,1807,1817,1823,1823,1828,1839,1839,1844,1844,1844,1855,1855,1867,1884,1884,1895,1907,1907,1919,1931,1931,1943,1943,1955,1961,1961,1961,1961,1961,1961,1961,1961,0,0,0,0,0,0,0,0,0,0,0,0,0,0,0,0,0,0,0,0,0,0,0,0,0,0,0,0,0,0,0,0,0,0,0,0,0,0,0,0,0,0,0,0,0,0,0,0,0,0,0,0,0,0,0,0,0,0,0,0,0,0,0,0,0,0,0,0,0,0,0,0,0,0,0,0,0,0,0,0,0,0,0,0,0,0,0,0,0,0,0,0,0,0,0,0,0,0,0,0,0,0,0,0,0,0,0,0,0,0,0,0,0,0,0,0,0,0,0,0,0,0,0,0,0,0,0,0,0,0,0,0,0,0,0,0,0,0,0,0,0,0,0,0,0,0,0,0,0,0,0,0,0,0,0,0,0,0,0,0,0,0,0,0,0,0,0,0,0,0,0,0,0,0,0,0,0,0,0,0,0,0,0,0,0,0,0,0,0,0,0,0,0,0,0,0,0,0,0,0,0,0,0,0,0,0,0,0,0,0,0,0,0,0,0,0,0,0,0,0,0,0,0,0,0,0,0,0,0,0,0,0,0,0,0,0,0,0,0,0,0,0,0,0,0,0,0,0,0,0,0,0,0,0,0,0,0,0,0,0,0,0,0,0,0,0,0,0,0,0,0,0,0,0,0,0,0,0,0,0,0,0,0,0,0,0,0,0,0,0,0,0,0,0,0,0,0,0,0,0,0,0,0,0,0,0,0,0,0,0,0,0,0,0,0,0,0,0,0,0,2019,2019,2019,2019,2019,2013,2013,2006,2000,2000,1993,1993,1993,1980,1980,1974,1968,1968,1968,1974,1974,1974,1974,1974,1980,1980,1980,1987,1987,1987,1993,1993,2000,2006,2006,2006,2006,2006,2006,2000,2000,2000,2000,2000,2000,2000,2000,2000,2000,2006,2006,2013,2019,2019,2032,2032,2026,2026,2019,2013,2013,2006,2006,1993,1980,1980,1974,1961,1961,1949,1949,1943,1937,1937,1925,1925,1919,1913,1913,1901,1889,1889,1878,1878,1867,1855,1855,1850,1850,1839,1828,1828,1812,1801,1801,1786,1786,1770,1755,1755,1745,1745,1731,1721,1721,1712,1702,1702,1697,1697,1693,1693,1693,1693,1693,1693,1693,1693,1693,1697,1697,1697,1702,1712,1712,1726,1726,1736,1755,1755,1775,1796,1796,1817,1844,1844,1872,1895,1895,1907,1913,1913,1913,1913,1901,1901,1895,1895,1895,1884,1884,1867,1850,1850,1850,0,1828,1823,1823,1807,1807,1801,1796,1796,1786,1770,1770,1765,1765,1755,1745,1745,1740,1736,1736,1731,1731,1726,1726,1731,1731,1731,1736,1736,1736,1736,1736,1736,1736,1736,1736,1736,0,0,0,0,0,0,0,0,0,0,0,0,0,0,0,0,0,0,0,0,0,0,0,0,4577,4577,4577,4577,4577,4577,4577,4577,4577,4611,4611,4611,4611,4611,4611,4611,4646,4646,4646,4646,4611,4611,4611,4577
0,0,0,0,0,0,0,0,0,0,0,0,0,0,0,0,0,0,0,0,0,0,0,0,0,0,0,0,0,0,1750,1750,1750,0,0,0,0,0,0,0,0,1786,1786,1786,1801,1801,1801,1807,1807,1817,1823,1823,1828,1833,1833,1839,1844,1844,1850,1850,1867,1878,1878,1889,1895,1895,1907,1919,1919,1931,1931,1943,1949,1949,1949,1949,1949,1949,1949,1961,0,0,0,0,0,0,0,0,0,0,2153,2153,2191,2191,2207,2207,2231,0,0,0,0,0,0,0,0,0,0,0,0,0,0,0,0,0,0,0,0,0,0,0,0,0,0,0,0,0,0,0,0,0,0,0,0,0,0,0,0,0,0,0,0,0,0,0,0,0,0,0,0,0,0,0,0,0,0,0,0,0,0,0,0,0,0,0,0,0,0,0,0,0,0,0,0,0,0,0,0,0,0,0,0,0,0,0,0,0,0,0,0,0,0,0,0,0,0,0,0,0,0,0,0,0,0,0,0,0,0,0,0,0,0,0,0,0,0,0,0,0,0,0,0,0,0,0,0,0,0,0,0,0,0,0,0,0,0,0,0,0,0,0,0,0,0,0,0,0,0,0,0,0,0,0,0,0,0,0,0,0,0,0,0,0,0,0,0,0,0,0,0,0,0,0,0,0,0,0,0,0,0,0,0,0,0,0,0,0,0,0,0,0,0,0,0,0,0,0,0,0,0,0,0,0,0,0,0,0,0,0,0,0,0,0,0,0,0,0,0,0,0,0,0,0,0,0,0,0,0,0,0,0,0,0,0,0,0,0,0,0,0,0,0,0,0,0,0,0,0,0,0,0,0,0,0,0,0,0,0,0,0,0,0,0,0,0,0,0,0,0,0,0,0,0,0,0,0,0,0,0,0,0,0,0,0,0,0,0,0,0,0,0,0,0,0,0,0,0,0,0,0,0,2019,2019,2019,2019,2019,2006,2006,2000,1993,1993,1987,1974,1974,1968,1968,1968,1968,1968,1968,1974,1974,1974,1974,1974,1980,1980,1980,1987,1987,1987,1993,1993,2000,2006,2006,2006,2006,2006,2006,2000,2000,2000,2000,2000,2000,2000,2000,2000,2000,2006,2006,2013,2013,2013,2019,2019,2013,2013,2013,2006,2006,1993,1993,1987,1974,1974,1968,1955,1955,1949,1949,1943,1931,1931,1925,1919,1919,1913,1913,1901,1889,1889,1878,1878,1867,1855,1855,1844,1844,1833,1823,1823,1807,1796,1796,1781,1781,1765,1755,1755,1740,1740,1731,1716,1716,1707,1702,1702,1697,1697,1693,1688,1688,1688,1693,1693,1693,1693,1693,1697,1697,1697,1702,1712,1712,1726,1726,1736,1755,1755,1775,1796,1796,1817,1844,1844,1872,1895,1895,1907,1913,1913,1913,1913,1907,1907,1895,1895,1895,1884,1884,1867,1850,1850,1850,0,1828,1817,1817,1807,1801,1801,1796,1796,1786,1770,1770,1760,1760,1755,1745,1745,1740,1736,1736,1731,1731,1726,1726,1731,1731,1731,1736,1736,1736,1736,1736,1740,1740,1740,1740,1740,0,0,0,0,0,0,0,0,0,0,0,0,0,0,0,0,0,0,0,0,0,0,0,0,4577,4577,4577,4577,4577,4577,4577,4577,4577,4611,4611,4611,4611,4611,4611,4611,4646,4646,4646,4646,4611,4611,4611,4577
0,0,0,0,0,0,0,0,0,0,0,0,0,0,0,0,0,0,0,0,0,0,0,0,0,0,0,0,0,1745,1745,1750,1750,1750,1750,1750,1755,1755,1755,1765,1765,1770,1781,1781,1786,1796,1796,1807,1807,1817,1823,1823,1828,1833,1833,1839,1839,1839,1850,1850,1867,1872,1872,1884,1895,1895,1907,1913,1913,1925,1925,1937,1943,1943,1949,1949,1949,1949,1949,0,0,0,0,0,0,0,0,0,0,0,2153,2153,2191,2191,2207,2207,2231,0,0,0,0,0,0,0,0,0,0,0,0,0,0,0,0,0,0,0,0,0,0,0,0,0,0,0,0,0,0,0,0,0,0,0,0,0,0,0,0,0,0,0,0,0,0,0,0,0,0,0,0,0,0,0,0,0,0,0,0,0,0,0,0,0,0,0,0,0,0,0,0,0,0,0,0,0,0,0,0,0,0,0,0,0,0,0,0,0,0,0,0,0,0,0,0,0,0,0,0,0,0,0,0,0,0,0,0,0,0,0,0,0,0,0,0,0,0,0,0,0,0,0,0,0,0,0,0,0,0,0,0,0,0,0,0,0,0,0,0,0,0,0,0,0,0,0,0,0,0,0,0,0,0,0,0,0,0,0,0,0,0,0,0,0,0,0,0,0,0,0,0,0,0,0,0,0,0,0,0,0,0,0,0,0,0,0,0,0,0,0,0,0,0,0,0,0,0,0,0,0,0,0,0,0,0,0,0,0,0,0,0,0,0,0,0,0,0,0,0,0,0,0,0,0,0,0,0,0,0,0,0,0,0,0,0,0,0,0,0,0,0,0,0,0,0,0,0,0,0,0,0,0,0,0,0,0,0,0,0,0,0,0,0,0,0,0,0,0,0,0,0,0,0,0,0,0,0,0,0,0,0,0,0,0,0,0,0,0,0,0,0,0,0,0,0,0,0,0,0,0,0,0,0,0,0,0,0,2006,2006,2000,1993,1993,1987,1974,1974,1968,1968,1955,1955,1961,1955,1955,1955,1955,1955,1955,1968,1968,1968,1974,1974,1974,1980,1980,1987,2000,2000,2000,2000,2000,2000,2000,2000,2000,2000,2000,2000,1993,1993,1993,1993,1993,1993,2000,2000,2000,2013,2006,2000,2000,2000,1993,1993,1980,1980,1974,1968,1968,1955,1949,1949,1943,1943,1937,1931,1931,1925,1919,1919,1913,1913,1907,1895,1895,1878,1878,1867,1855,1855,1844,1844,1833,1823,1823,1807,1796,1796,1781,1781,1765,1755,1755,1740,1740,1731,1716,1716,1707,1702,1702,1697,1697,1693,1688,1688,1688,1688,1688,1688,1693,1693,1693,1693,1693,1697,1707,1707,1721,1721,1736,1750,1750,1770,1791,1791,1817,1839,1839,1867,1889,1889,1901,1913,1913,1913,1913,1907,1907,1895,1895,1895,1878,1878,1867,1850,1850,1850,0,1823,1817,1817,1801,1796,1796,1791,1791,1781,1765,1765,1760,1760,1750,1745,1745,1740,1736,1736,1731,1731,1731,1731,1731,1731,1736,1736,1736,1740,1740,1740,1740,1740,1745,1750,1750,0,0,0,0,0,0,0,0,0,0,0,0,0,0,0,0,0,0,0,0,0,0,0,0,4577,4577,4577,4577,4577,4577,4577,4577,4577,4577,4577,4577,4577,4577,4611,4611,4611,4611,4611,4611,4611,4577,4577,4577
0,0,0,0,0,0,0,0,0,0,0,0,0,0,0,0,0,0,0,0,0,0,0,0,0,0,0,1745,1745,1745,1745,1750,1750,1750,1750,1750,1755,1755,1755,1765,1765,1770,1781,1781,1786,1796,1796,1807,1807,1817,1823,1823,1828,1833,1833,1839,1839,1839,1855,1855,1867,1872,1872,1884,1895,1895,1907,1913,1913,1925,1925,1937,1943,1943,0,0,1949,1949,1949,0,0,0,0,0,0,0,0,0,0,0,2153,2153,2191,2191,2207,2207,2231,0,0,0,0,0,0,0,0,0,0,0,0,0,0,0,0,0,0,0,0,0,0,0,0,0,0,0,0,0,0,0,0,0,0,0,0,0,0,0,0,0,0,0,0,0,0,0,0,0,0,0,0,0,0,0,0,0,0,0,0,0,0,0,0,0,0,0,0,0,0,0,0,0,0,0,0,0,0,0,0,0,0,0,0,0,0,0,0,0,0,0,0,0,0,0,0,0,0,0,0,0,0,0,0,0,0,0,0,0,0,0,0,0,0,0,0,0,0,0,0,0,0,0,0,0,0,0,0,0,0,0,0,0,0,0,0,0,0,0,0,0,0,0,0,0,0,0,0,0,0,0,0,0,0,0,0,0,0,0,0,0,0,0,0,0,0,0,0,0,0,0,0,0,0,0,0,0,0,0,0,0,0,0,0,0,0,0,0,0,0,0,0,0,0,0,0,0,0,0,0,0,0,0,0,0,0,0,0,0,0,0,0,0,0,0,0,0,0,0,0,0,0,0,0,0,0,0,0,0,0,0,0,0,0,0,0,0,0,0,0,0,0,0,0,0,0,0,0,0,0,0,0,0,0,0,0,0,0,0,0,0,0,0,0,0,0,0,0,0,0,0,0,0,0,0,0,0,0,0,0,0,0,0,0,0,0,0,0,0,0,0,0,0,0,0,0,0,0,0,0,0,0,0,0,0,0,0,0,2006,2006,2000,1993,1993,1987,1974,1974,1968,1968,1955,1955,1961,1955,1955,1955,1955,1955,1955,1968,1968,1968,1974,1974,1974,1980,1980,1987,1993,1993,1993,2000,2000,2000,2000,2000,2000,2000,2000,2000,1993,1993,1993,1993,1993,1993,2000,2000,2000,2013,2006,2000,2000,2000,1993,1993,1980,1980,1974,1968,1968,1955,1949,1949,1943,1943,1937,1931,1931,1925,1919,1919,1913,1913,1907,1895,1895,1878,1878,1867,1855,1855,1844,1833,1833,1817,1817,1801,1791,1791,1775,1775,1765,1750,1750,1740,1740,1731,1716,1716,1707,1702,1702,1697,1697,1693,1688,1688,1688,1688,1688,1688,1688,1688,1688,1688,1688,1693,1702,1702,1716,1716,1726,1740,1740,1765,1786,1786,1812,1833,1833,1861,1884,1884,1901,1913,1913,1913,1913,1907,1907,1895,1895,1895,1878,1878,1867,1850,1850,1850,0,1823,1817,1817,1801,1796,1796,1791,1791,1781,1765,1765,1760,1760,1750,1745,1745,1740,1736,1736,1731,1731,1731,1731,1731,1731,1736,1736,1736,1740,1740,1740,1740,1740,1745,1750,1750,0,0,0,0,0,0,0,0,0,0,0,0,0,0,0,0,0,0,0,0,0,0,0,4577,4577,4577,4577,4577,4577,4577,4577,4577,4577,4577,4577,4577,4577,4577,4577,4577,4577,4577,4577,4577,4577,4577,4577,4543
0,0,0,0,0,0,0,0,0,0,0,0,0,0,0,0,0,0,0,0,0,0,0,0,0,0,0,1745,1745,1745,0,0,1750,1750,1750,1750,1755,1760,1760,1765,1765,1770,1775,1775,1786,1796,1796,1807,1807,1812,1823,1823,1828,1833,1833,1839,1839,1839,1855,1855,1867,1872,1872,1884,1895,1895,1907,1913,1913,1925,1925,1937,1937,1937,1943,1943,1943,1943,1943,1955,0,0,0,0,0,0,0,0,0,0,0,0,2102,2102,2116,2116,2131,2145,2145,2153,2153,2138,2138,2138,0,0,0,0,0,0,0,0,0,0,0,0,0,0,0,0,0,0,0,0,0,0,0,0,0,0,0,0,0,0,0,0,0,0,0,0,0,0,0,0,0,0,0,0,0,0,0,0,0,0,0,0,0,0,0,0,0,0,0,0,0,0,0,0,0,0,0,0,0,0,0,0,0,0,0,0,0,0,0,0,0,0,0,0,0,0,0,0,0,0,0,0,0,0,0,0,0,0,0,0,0,0,0,0,0,0,0,0,0,0,0,0,0,0,0,0,0,0,0,0,0,0,0,0,0,0,0,0,0,0,0,0,0,0,0,0,0,0,0,0,0,0,0,0,0,0,0,0,0,0,0,0,0,0,0,0,0,0,0,0,0,0,0,0,0,0,0,0,0,0,0,0,0,0,0,0,0,0,0,0,0,0,0,0,0,0,0,0,0,0,0,0,0,0,0,0,0,0,0,0,0,0,0,0,0,0,0,0,0,0,0,0,0,0,0,0,0,0,0,0,0,0,0,0,0,0,0,0,0,0,0,0,0,0,0,0,0,0,0,0,0,0,0,0,0,0,0,0,0,0,0,0,0,0,0,0,0,0,0,0,0,0,0,0,0,0,0,0,0,0,0,0,0,0,0,0,0,0,0,0,0,0,0,0,0,0,0,0,0,0,0,0,0,0,0,0,2032,2032,2032,0,0,0,0,0,0,0,0,0,0,0,0,0,0,0,0,0,0,0,0,0,0,0,0,0,0,0,0,1987,1987,1993,1993,1993,2000,2000,2000,2000,2000,2000,2000,2000,2000,1993,1993,1987,1987,1987,1987,1987,1993,1993,2000,1993,1993,1993,1987,1980,1980,1974,1974,1968,1955,1955,1949,1943,1943,1937,1937,1931,1931,1931,1919,1919,1919,1913,1913,1907,1895,1895,1884,1884,1867,1855,1855,1844,1828,1828,1817,1817,1801,1786,1786,1775,1775,1760,1750,1750,1740,1740,1731,1716,1716,1707,1702,1702,1697,1697,1693,1688,1688,1688,1688,1688,1688,1688,1688,1688,1688,1688,1693,1702,1702,1716,1716,1726,1740,1740,1765,1786,1786,1812,1833,1833,1861,1884,1884,1901,1913,1913,1913,1913,1907,1907,1895,1889,1889,1878,1878,1867,1850,1850,1850,0,1823,1812,1812,1801,1791,1791,1786,1786,1775,1765,1765,1755,1755,1750,1745,1745,1736,1736,1736,1731,1731,1731,1731,1731,1731,1736,1740,1740,1740,1740,1745,1745,1745,1750,1750,1750,0,0,0,0,0,0,0,0,0,0,0,0,0,0,0,0,0,0,0,0,0,0,0,4577,4577,4577,4577,4577,4577,4577,4577,4577,4577,4577,4577,4577,4577,4577,4577,4577,4577,4577,4577,4577,4577,4577,4577,4543
0,0,0,0,0,0,0,0,0,0,0,0,0,0,0,0,0,0,0,0,0,0,0,0,0,1745,1745,1745,1745,1740,1740,1745,1745,1750,1750,1750,1755,1755,1755,1765,1765,1770,1775,1775,1781,1791,1791,1801,1801,1807,1817,1817,1823,1828,1828,1833,1844,1844,1855,1855,1867,1878,1878,1884,1901,1901,1907,1913,1913,1925,1925,1937,1937,1937,1943,1943,1943,1943,1943,1955,0,0,0,0,0,0,0,0,0,0,0,0,2102,2102,2116,2116,2131,2145,2145,2153,2153,2138,2138,2131,2131,0,0,0,0,0,0,0,0,0,0,0,0,0,0,0,0,0,0,0,0,0,0,0,0,0,0,0,0,0,0,0,0,0,0,0,0,0,0,0,0,0,0,0,0,0,0,0,0,0,0,0,0,0,0,0,0,0,0,0,0,0,0,0,0,0,0,0,0,0,0,0,0,0,0,0,0,0,0,0,0,0,0,0,0,0,0,0,0,0,0,0,0,0,0,0,0,0,0,0,0,0,0,0,0,0,0,0,0,0,0,0,0,0,0,0,0,0,0,0,0,0,0,0,0,0,0,0,0,0,0,0,0,0,0,0,0,0,0,0,0,0,0,0,0,0,0,0,0,0,0,0,0,0,0,0,0,0,0,0,0,0,0,0,0,0,0,0,0,0,0,0,0,0,0,0,0,0,0,0,0,0,0,0,0,0,0,0,0,0,0,0,0,0,0,0,0,0,0,0,0,0,0,0,0,0,0,0,0,0,0,0,0,0,0,0,0,0,0,0,0,0,0,0,0,0,0,0,0,0,0,0,0,0,0,0,0,0,0,0,0,0,0,0,0,0,0,0,0,0,0,0,0,0,0,0,0,0,0,0,0,0,0,0,0,0,0,0,0,0,0,0,0,0,0,0,0,0,0,0,0,0,0,0,0,0,0,0,0,0,0,0,0,0,0,0,2032,2032,2019,2000,2000,1993,1993,1980,1968,1968,1955,1955,1955,1943,1943,1937,1937,1937,1931,1931,1937,1937,1937,1937,1937,1943,1943,1943,1955,1955,1961,1961,1968,1980,1980,1980,1993,1993,1993,1993,1993,1993,1993,1987,1987,1987,1987,1980,1980,1980,1980,1980,1987,1980,1980,1980,1974,1974,1974,1968,1968,1961,1961,1955,1955,1955,1949,1943,1943,1937,1937,1931,1931,1931,1919,1919,1919,1913,1913,1907,1895,1895,1884,1884,1867,1855,1855,1844,1828,1828,1817,1817,1801,1786,1786,1775,1775,1760,1750,1750,1740,1740,1726,1716,1716,1707,1702,1702,1697,1697,1693,1688,1688,1688,1688,1688,1688,1688,1688,1688,1688,1688,1693,1697,1697,1712,1712,1721,1736,1736,1755,1775,1775,1807,1833,1833,1855,1878,1878,1895,1907,1907,1913,1913,1901,1901,1895,1889,1889,1878,1878,1867,1844,1844,1844,0,1817,1807,1807,1801,1791,1791,1786,1786,1775,1765,1765,1755,1755,1750,1745,1745,1736,1736,1736,1731,1731,1731,1731,1731,1731,1736,1740,1740,1745,1745,1745,1750,1750,1750,1755,1755,0,0,0,0,0,0,0,0,0,0,0,0,0,4790,4790,4753,4681,4681,4681,4681,4646,4611,4611,4577,4577,4577,4577,4577,4577,4577,4577,4577,4577,4577,4577,4577,4577,4577,4577,4577,4577,4577,4577,4577,4543,4543,4543,4543
0,0,0,0,0,0,0,0,0,0,0,0,0,0,0,0,0,0,0,0,0,0,0,0,1740,1740,1745,1745,1745,1740,1740,1745,1745,1750,1750,1750,1755,1755,1755,1765,1765,1770,1775,1775,1781,1791,1791,1801,1801,1807,1817,1817,1823,1828,1828,1833,1844,1844,1855,1855,1867,1878,1878,1889,1901,1901,1907,1913,1913,1925,1925,1931,1931,1931,1937,1937,1937,1943,1943,1949,1955,1955,1961,1974,1974,1980,2013,2013,2039,2053,2053,2073,2073,2080,2094,2094,2102,2123,2123,2131,2153,2116,2116,2102,2094,2094,2073,2073,2060,2026,2026,2019,2019,2019,2013,2013,2013,2013,2019,2019,2019,2019,2019,2019,2019,2019,2019,2019,2026,0,0,0,0,0,0,0,0,0,0,0,0,0,0,0,0,0,0,0,0,0,0,0,0,0,0,0,0,0,0,0,0,0,0,0,0,0,0,0,0,0,0,0,0,0,0,0,0,0,0,0,0,0,0,0,0,0,0,0,0,0,0,0,0,0,0,0,0,0,0,0,0,0,0,0,0,0,0,0,0,0,0,0,0,0,0,0,0,0,0,0,0,0,0,0,0,0,0,0,0,0,0,0,0,0,0,0,0,0,0,0,0,0,0,0,0,0,0,0,0,0,0,0,0,0,0,0,0,0,0,0,0,0,0,0,0,0,0,0,0,0,0,0,0,0,0,0,0,0,0,0,0,0,0,0,0,0,0,0,0,0,0,0,0,0,0,0,0,0,0,0,0,0,0,0,0,0,0,0,0,0,0,0,0,0,0,0,0,0,0,0,0,0,0,0,0,0,0,0,0,0,0,0,0,0,0,0,0,0,0,0,0,0,0,0,0,0,0,0,0,0,0,0,0,0,0,0,0,0,0,0,0,0,0,0,0,0,0,0,0,0,0,0,0,0,0,0,0,0,0,0,0,0,0,0,0,0,0,0,0,0,0,0,0,0,2060,2053,2053,2039,2039,2039,2019,2019,2000,1987,1987,1968,1968,1961,1949,1949,1943,1937,1937,1931,1931,1925,1925,1925,1925,1925,1925,1925,1925,1925,1925,1931,1931,1931,1955,1955,1961,1961,1968,1980,1980,1980,1993,1993,1993,1993,1993,1993,1993,1987,1987,1987,1987,1980,1980,1980,1980,1980,1987,1980,1980,1980,1974,1974,1974,1968,1968,1961,1961,1955,1949,1949,1937,1931,1931,1931,1931,1925,1925,1925,1919,1919,1919,1913,1913,1907,1895,1895,1884,1884,1867,1855,1855,1839,1828,1828,1812,1812,1796,1786,1786,1770,1770,1760,1750,1750,1740,1731,1726,1721,1721,1712,1702,1702,1697,1697,1693,1688,1688,1688,1688,1688,1688,1688,1688,1688,1688,1688,1693,1697,1697,1712,1712,1721,1736,1736,1755,1775,1775,1807,1833,1833,1855,1878,1878,1895,1907,1907,1913,1913,1901,1901,1895,1889,1889,1878,1878,1867,1844,1844,1844,0,1817,1807,1807,1801,1791,1791,1786,1786,1775,1765,1765,1755,1755,1750,1745,1745,1736,1736,1736,1731,1731,1731,1731,1731,1731,1736,1740,1740,1745,1745,1745,1750,1750,1750,1755,1755,0,0,0,0,0,4543,4543,4543,4611,4646,4646,4716,4716,4753,4790,4753,4681,4681,4681,4681,4646,4611,4611,4611,4577,4577,4577,4577,4577,4577,4577,4577,4577,4577,4577,4577,4577,4577,4577,4577,4577,4577,4577,4577,4543,4543,4543,4543
0,0,0,0,0,0,0,0,0,0,0,0,0,0,0,0,0,0,0,0,0,0,0,0,1740,1740,1745,1745,1745,1740,1740,1745,1745,1750,1750,1750,1755,1755,1755,1765,1765,1765,1775,1775,1781,1791,1791,1796,1796,1807,1812,1812,1817,1828,1828,1833,1844,1844,1855,1855,1867,1878,1878,1889,1901,1901,1913,1919,1919,1925,1925,1931,1931,1931,1931,1937,1937,1943,1949,1949,1955,1955,1961,1968,1968,1980,2006,2006,2032,2046,2046,2073,2073,2080,2094,2094,2102,2123,2123,2131,0,2116,2116,2102,2094,2094,2073,2073,2060,2026,2026,2019,2019,2019,2013,2013,2013,2013,2019,2019,2019,2019,2019,2019,2019,2019,2019,2019,2026,2032,2032,2032,2032,2032,2039,2039,2046,2046,2046,0,2046,2039,2039,2039,0,0,2026,2026,2026,2026,0,0,0,0,0,0,0,0,0,0,0,0,0,0,0,0,0,0,0,0,0,0,0,0,0,0,0,0,0,0,0,0,0,0,2006,2006,2006,2006,2006,2000,2000,2000,0,0,0,0,0,0,0,0,0,0,0,0,0,0,0,0,0,0,0,0,0,0,0,0,0,0,0,0,0,0,0,0,0,0,0,0,0,0,0,0,0,0,0,0,0,0,0,0,0,0,0,0,0,0,0,0,0,0,0,0,0,0,0,0,0,0,0,0,0,0,0,0,0,0,0,0,0,0,0,0,0,0,0,0,0,0,0,0,0,0,0,0,0,0,0,0,0,0,0,0,0,0,0,0,0,0,0,0,0,0,0,0,0,0,0,0,0,0,0,0,0,0,0,0,0,0,0,0,0,0,0,0,0,0,0,0,0,0,0,0,0,0,0,0,0,0,0,0,0,0,0,0,0,0,0,0,0,0,0,0,0,0,0,0,0,0,0,0,0,0,0,0,0,0,0,0,0,0,0,0,0,0,0,0,0,0,0,0,0,0,0,0,0,0,0,0,0,0,0,0,0,0,2060,2053,2053,2039,2039,2039,2019,2019,2000,1987,1987,1968,1968,1961,1949,1949,1943,1937,1937,1931,1931,1925,1925,1925,1925,1925,1925,1925,1925,1925,1925,1931,1931,1931,1943,1943,1943,1943,1961,1961,1961,1974,1980,1980,1980,1987,1987,1987,1987,1980,1980,1980,1980,1974,1968,1968,1961,1961,1968,1968,1974,1968,1968,1968,1961,1961,1961,1949,1949,1943,1937,1937,1925,1919,1919,1919,1919,1919,1919,1919,1913,1913,1919,1913,1913,1907,1895,1895,1884,1884,1867,1855,1855,1839,1828,1828,1812,1812,1796,1786,1786,1770,1770,1760,1750,1750,1740,1731,1731,1721,1721,1712,1707,1707,1697,1697,1693,1693,1693,1688,1688,1688,1688,1688,1688,1688,1688,1688,1693,1697,1697,1712,1721,1721,1731,1731,1755,1770,1770,1796,1823,1823,1850,1872,1872,1889,1901,1901,1913,1907,1901,1901,1895,1889,1889,1878,1878,1867,1844,1844,1844,0,1817,1807,1807,1796,1786,1786,1786,1786,1775,1765,1765,1755,1755,1750,1745,1745,1740,1736,1736,1736,1736,1736,1736,1736,1736,1740,1740,1740,1745,1745,1750,1755,1755,1755,1760,1760,0,0,0,0,0,4543,4543,4543,4611,4646,4646,4716,4716,4753,4790,4753,4716,4716,4681,4681,4681,4646,4646,4611,4577,4577,4577,4577,4577,4577,4577,4577,4577,4577,4577,4577,4577,4577,4577,4577,4577,4577,4577,4577,4543,4543,4543,4543
0,0,0,0,0,0,0,0,0,0,0,0,0,0,0,0,0,0,0,0,0,1736,1736,1740,1740,1740,1740,1740,1745,1740,1740,1745,1745,1750,1750,1750,1755,1755,1755,1765,1765,1765,1770,1770,1775,1786,1786,1791,1796,1801,1807,1807,1812,1828,1828,1833,1844,1844,1861,1861,1872,1884,1884,1889,1901,1901,1913,1919,1919,1931,1931,1931,1931,1931,1931,1937,1937,1943,1949,1949,1955,1955,1961,1968,1968,1980,2006,2006,2032,2046,2046,2060,2060,2073,2080,2080,2087,2109,2109,2102,2102,2094,2094,2080,2073,2073,2060,2060,2053,2019,2019,2013,2013,2013,2013,2013,2013,2013,2013,2013,2013,2013,2013,2013,2013,2013,2019,2019,2019,2026,2026,2032,2032,2032,2032,2032,2039,2039,2039,2039,2039,2032,2032,2032,2026,2026,2026,2026,2019,2013,2013,2013,2013,0,0,0,0,0,0,0,0,0,0,0,0,0,0,0,0,0,0,0,0,0,0,0,0,0,0,0,0,0,0,0,2006,2006,2006,2006,2006,2000,2000,2000,0,0,0,0,0,0,0,0,0,0,0,0,0,0,0,0,0,0,0,0,0,0,0,1987,1987,1987,1987,1987,1987,1993,1993,1993,1993,1993,1993,2000,2000,2000,2000,1993,1993,1993,1993,0,0,0,0,0,0,0,0,0,0,0,0,0,0,0,0,0,0,0,0,0,0,0,0,0,0,0,0,0,0,0,0,0,0,0,0,0,0,0,0,0,0,0,0,0,0,0,0,0,0,0,0,0,0,0,0,0,0,0,0,0,0,0,0,0,0,0,0,0,0,0,0,0,0,0,0,0,0,0,0,0,0,0,0,0,0,0,0,0,0,0,0,0,0,0,0,0,0,0,0,0,0,0,0,0,0,0,0,0,0,0,0,0,0,0,0,0,0,0,0,0,0,0,0,0,0,0,0,0,0,0,0,0,0,0,0,0,0,0,0,0,0,0,0,0,0,0,0,0,0,0,0,0,0,0,0,0,0,0,2053,2046,2046,2032,2026,2026,2006,2006,1987,1968,1968,1955,1955,1949,1937,1937,1931,1925,1925,1919,1919,1913,1913,1913,1913,1913,1913,1913,1913,1913,1913,1925,1925,1925,1925,1925,1931,1931,1949,1949,1949,1961,1968,1968,1974,1980,1980,1987,1980,1974,1974,1968,1968,1961,1955,1955,1955,1955,1955,1955,1974,1968,1968,1968,1961,1961,1961,1949,1949,1943,1937,1937,1925,1919,1919,1919,1919,1919,1919,1919,1913,1913,1919,1913,1913,1907,1895,1895,1884,1884,1872,1855,1855,1839,1828,1828,1812,1812,1796,1781,1781,1770,1770,1760,1750,1750,1740,1731,1731,1721,1721,1712,1707,1707,1697,1697,1693,1693,1693,1688,1688,1688,1688,1688,1688,1688,1688,1688,1693,1697,1697,1707,1716,1716,1731,1731,1750,1765,1765,1791,1817,1817,1844,1867,1867,1889,1901,1901,1907,1907,1907,1907,1895,1895,1895,1878,1878,1867,1844,1844,1844,0,1817,1807,1807,1796,1786,1786,1786,1786,1775,1765,1765,1760,1760,1750,1745,1745,1740,1740,1740,1736,1736,1736,1736,1736,1736,1740,1745,1745,1750,1750,1750,1755,1755,1755,1760,1760,0,0,0,0,4477,4477,4510,4510,4577,4611,4611,4646,4646,4681,4716,4716,4681,4681,4681,4681,4646,4646,4646,4611,4577,4577,4577,4577,4577,4577,4577,4577,4577,4577,4577,4577,4577,4577,4577,4577,4577,4577,4577,4577,4543,4543,4543,4543
0,0,0,0,0,0,0,0,0,0,0,0,0,0,0,0,0,0,0,0,0,1736,1736,1740,1740,1740,1740,1740,0,0,0,0,0,0,0,1755,1755,1755,1755,1765,1765,1765,1770,1770,1775,1786,1786,1791,1801,1801,1807,1807,1812,1817,1817,1833,1844,1844,1861,1861,1872,1884,1884,1889,1901,1901,1913,1919,1919,1925,1931,1931,1931,1931,1931,1931,1931,1937,1943,1943,1955,1955,1961,1968,1968,1980,2000,2000,2026,2046,2046,2053,2053,2066,2073,2073,2080,2094,2094,2102,2087,2080,2080,2080,2066,2066,2060,2060,2026,2019,2019,2013,2013,2013,2013,2013,2013,2013,2013,2013,2013,2013,2013,2013,2013,2013,2019,2019,2019,2026,2026,2032,2032,2032,2032,2032,2039,2039,2039,2039,2039,2032,2032,2032,2026,2026,2026,2026,2019,2013,2013,2013,2013,0,0,0,0,0,0,0,0,0,0,0,0,0,0,0,0,0,0,0,0,0,0,0,0,0,0,0,0,0,0,2006,2006,2006,2000,2000,2000,2000,2000,2000,1993,1993,1993,1993,1987,1980,1980,1980,1980,0,0,0,1968,1968,1968,1968,1968,1974,1974,1974,1974,1980,1980,1980,1987,1987,1987,1987,1987,1993,1993,1993,1993,1993,1993,2000,2000,2000,2000,1993,1993,1993,1993,0,0,0,0,0,0,0,0,0,0,0,0,0,0,0,0,0,0,0,0,0,0,0,0,0,0,0,0,0,0,0,0,0,0,0,0,0,0,0,0,0,0,0,0,0,0,0,0,0,0,0,0,0,0,0,0,0,0,0,0,0,0,0,0,0,0,0,0,0,0,0,0,0,0,0,0,0,0,0,0,0,0,0,0,0,0,0,0,0,0,0,0,0,0,0,0,0,0,0,0,0,0,0,0,0,0,0,0,0,0,0,0,0,0,0,0,0,0,0,0,0,0,0,0,0,0,0,0,0,0,0,0,0,0,0,0,0,0,0,0,0,0,0,0,0,0,0,0,0,0,0,0,0,0,2053,2053,2053,2046,2046,2046,2039,2039,2026,2019,2019,2000,2000,1980,1968,1968,1949,1949,1943,1931,1931,1925,1919,1919,1913,1913,1913,1913,1913,1913,1913,1913,1913,1913,1913,1913,1925,1925,1925,1925,1925,1931,1931,1949,1949,1949,1961,1968,1968,1974,1980,1980,1987,1980,1974,1974,1968,1968,1961,1955,1955,1955,1955,1955,1955,1955,1955,1949,1949,1943,1943,1943,1937,1937,1931,1925,1925,1913,1907,1907,1907,1913,1913,1913,1913,1913,1913,1913,1913,1913,1907,1895,1895,1884,1872,1872,1855,1855,1839,1828,1828,1807,1807,1791,1781,1781,1770,1770,1755,1750,1750,1740,1731,1731,1721,1721,1716,1712,1712,1702,1702,1697,1693,1693,1693,1688,1688,1688,1688,1688,1688,1688,1688,1693,1697,1697,1707,1716,1716,1731,1731,1750,1765,1765,1791,1817,1817,1844,1867,1867,1889,1901,1901,1907,1907,1907,1907,1895,1895,1895,1878,1878,1867,1844,1844,1844,0,1817,1807,1807,1796,1786,1786,1781,1781,1775,1765,1765,1755,1750,1750,1745,1745,1740,1740,1740,1736,1736,1736,1736,1736,1736,1740,1745,1745,1750,1750,1750,1750,1750,1755,1760,1760,0,0,4445,4445,4445,4477,4477,4477,4510,4543,4543,4611,4611,4646,4681,4681,4681,4681,4681,4681,4646,4646,4646,4646,4577,4577,4577,4577,4577,4577,4577,4577,4577,4577,4577,4577,4577,4577,4577,4577,4577,4577,4577,4577,4543,4543,4543,4543
0,0,0,0,0,0,0,0,0,0,0,0,0,0,0,0,0,0,0,1736,1736,1736,1736,1740,1740,1740,1740,1740,0,0,0,0,0,1750,1750,1750,1755,1755,1755,1765,1765,1765,1770,1770,1775,1781,1781,1791,1796,1796,1801,1801,1807,1812,1812,1828,1844,1844,1861,1872,1872,1884,1884,1895,1907,1907,1919,1925,1925,1925,1937,1925,1925,1925,1925,1931,1931,1937,1943,1943,1955,1955,1961,1968,1968,1980,2000,2000,2026,2046,2046,2053,2053,2066,2073,2073,2080,2094,2094,2102,2087,2080,2080,2080,2066,2066,2060,2060,2026,2019,2019,2013,2013,2013,2013,2013,2013,2013,2013,2013,2013,2013,2013,2013,2013,2013,2019,2019,2019,2026,2026,2026,2026,2026,2032,2032,2039,2039,2039,2039,2039,2032,2032,2026,2026,2026,2026,2026,2019,2013,2013,2013,2013,2013,2013,0,0,0,0,0,0,0,0,0,0,0,0,0,0,0,0,0,0,0,0,0,0,0,0,0,0,0,0,2006,2006,2006,2000,2000,2000,2000,2000,2000,1993,1993,1993,1993,1987,1980,1980,1980,1980,0,0,0,1968,1968,1968,1968,1968,1974,1974,1974,1974,1980,1980,1980,1980,1987,1987,1987,1987,1993,1993,1993,1993,1993,1993,1993,1993,1993,1993,1993,1993,1993,1993,1993,1987,1987,1987,1987,1987,1987,1987,1987,1987,1987,0,0,0,0,0,0,0,0,0,0,0,0,0,0,0,0,0,0,0,0,0,0,0,0,0,0,0,0,0,0,0,0,0,0,0,0,0,0,0,0,0,0,0,0,0,0,0,0,0,0,0,0,0,0,0,0,0,0,0,0,0,0,0,0,0,0,0,0,0,0,0,0,0,0,0,0,0,0,0,0,0,0,0,0,0,0,0,0,0,0,0,0,0,0,0,0,0,0,0,0,1993,1993,1993,1993,2000,2000,2000,2000,2000,1993,1993,1993,2000,2000,2000,2000,2000,2000,2006,2006,2006,2013,2013,2013,2013,2013,2013,2013,2013,2013,2013,2013,2013,0,0,0,0,0,0,0,0,0,0,2053,2053,2053,2046,2046,2046,2039,2039,2026,2019,2019,2000,2000,1980,1968,1968,1949,1949,1943,1931,1931,1925,1919,1919,1913,1913,1907,1907,1907,1907,1907,1907,1907,1907,1907,1913,1913,1913,1913,1919,1919,1925,1925,1931,1937,1937,1949,1961,1961,1968,1974,1974,1980,1980,1974,1974,1968,1968,1955,1949,1949,1949,1949,1955,1949,1949,1943,1937,1937,1931,1925,1925,1919,1919,1913,1907,1907,1895,1895,1895,1895,1901,1901,1901,1907,1907,1907,1913,1913,1913,1907,1901,1901,1884,1872,1872,1855,1855,1839,1828,1828,1807,1807,1791,1781,1781,1770,1770,1755,1750,1750,1740,1731,1731,1726,1726,1716,1712,1712,1707,1707,1697,1693,1693,1693,1688,1688,1688,1688,1688,1688,1688,1688,1693,1697,1697,1707,1716,1716,1731,1731,1745,1760,1760,1786,1812,1812,1839,1861,1861,1884,1895,1895,1901,1901,1901,1907,1895,1895,1895,1878,1878,1861,1844,1844,1844,1817,1817,1807,1807,1796,1791,1791,1781,1781,1775,1765,1765,1755,1750,1750,1745,1745,1740,1736,1736,1736,1736,1736,1736,1736,1736,1740,1745,1745,1750,1750,1750,1750,1750,1755,1760,1760,0,0,4445,4445,4445,4477,4477,4477,4510,4543,4543,4611,4611,4646,4681,4681,4681,4681,4681,4681,4646,4646,4646,4646,4577,4577,4577,4577,4577,4577,4577,4577,4577,4577,4577,4577,4577,4577,4577,4577,4577,4577,4577,4577,4543,4543,4543,4543
0,0,0,0,0,0,0,0,0,0,0,0,0,0,0,0,0,0,0,1736,1736,1736,1736,1736,1736,1740,1740,1740,0,0,0,0,1745,1745,1750,1750,1755,1755,1755,1760,1760,1765,1770,1770,1775,1781,1781,1791,1796,1796,1801,1801,1807,1812,1812,1828,1844,1844,1861,1872,1872,1884,1884,1895,1907,1907,1919,1925,1925,1925,1937,1925,1925,1925,1925,1931,1931,1937,1943,1943,1949,1949,1955,1968,1968,1980,2000,2000,2026,2039,2039,2053,2053,2060,2066,2066,2080,2094,2094,2087,2087,2073,2073,2066,2053,2053,2046,2046,2019,2013,2013,2006,2006,2006,2006,2006,2006,2006,2013,2013,2013,2013,2013,2013,2013,2013,2019,2019,2019,2026,2026,2026,2026,2026,2032,2032,2032,2039,2032,2032,2032,2032,2032,2026,2026,2026,2026,2026,2019,2013,2013,2013,2013,2013,2013,0,0,0,0,0,0,0,0,0,0,0,0,0,0,0,0,0,0,0,0,0,0,0,0,0,0,0,0,2006,2000,2000,2000,2000,2000,2000,2000,2000,1993,1993,1993,1993,1987,1980,1980,1980,1980,1980,1974,1974,1968,1968,1968,1968,1968,1974,1974,1974,1974,1980,1980,1980,1980,1987,1987,1987,1987,1993,1993,1993,1993,1993,1993,1993,1993,1993,1993,1993,1993,1993,1993,1993,1987,1987,1987,1987,1987,1987,1987,1987,1987,1987,0,0,0,0,0,0,0,0,0,0,0,0,0,0,0,0,0,0,0,0,0,0,0,0,0,0,0,0,0,0,0,0,0,0,0,0,0,0,0,0,0,0,0,0,0,0,0,0,0,0,0,0,0,0,0,0,0,0,0,0,0,0,0,0,0,0,0,0,0,0,0,0,0,0,0,0,0,0,0,0,0,0,0,0,0,0,0,0,0,0,1987,1987,1987,1987,1993,1993,0,0,0,0,1993,1993,1993,1993,2000,2000,2000,2000,2000,1993,1993,1993,2000,2000,2000,2000,2000,2000,2006,2006,2006,2013,2013,2013,2013,2013,2013,2013,2013,2013,2013,2013,2013,2013,2013,2013,2019,2026,2026,2032,2032,2039,2046,2046,2046,2046,2046,2046,2039,2032,2032,2026,2013,2013,2000,2000,1974,1961,1961,1949,1949,1937,1925,1925,1919,1913,1913,1907,1907,1907,1901,1901,1901,1907,1907,1907,1907,1907,1907,1907,1907,1907,1913,1913,1919,1919,1925,1925,1925,1937,1943,1943,1949,1955,1955,1980,1980,1974,1974,1968,1968,1955,1949,1949,1949,1949,1955,1949,1949,1943,1937,1937,1931,1925,1925,1919,1919,1913,1907,1907,1895,1895,1895,1895,1901,1901,1901,1907,1907,1907,1913,1913,1913,1907,1901,1901,1884,1872,1872,1855,1855,1839,1828,1828,1807,1807,1791,1775,1775,1765,1765,1755,1745,1745,1736,1731,1731,1726,1726,1716,1712,1712,1707,1702,1697,1693,1693,1693,1693,1693,1693,1693,1688,1688,1688,1688,1693,1697,1697,1707,1716,1716,1726,1726,1740,1760,1760,1786,1812,1812,1839,1855,1855,1878,1895,1895,1901,1901,1901,1907,1895,1895,1895,1878,1878,1861,1844,1844,1844,1817,1817,1807,1807,1796,1791,1791,1786,1786,1775,1765,1765,1760,1750,1750,1745,1745,1740,1736,1736,1736,1736,1736,1736,1736,1736,1740,1745,1745,1745,1745,1745,1750,1750,1755,1755,1755,1760,4445,4445,4445,4445,4477,4477,4477,4510,4543,4543,4611,4611,4646,4681,4681,4646,4646,4646,4681,4646,4646,4646,4611,4611,4611,4577,4577,4577,4577,4577,4577,4577,4611,4611,4611,4611,4611,4611,4611,4577,4577,4577,4543,4543,4543,4543,4543
0,0,0,0,0,0,0,0,0,0,0,0,0,0,0,0,0,0,0,1736,1736,1736,1736,1736,1736,1740,0,0,0,0,0,0,1745,1745,1750,1750,1755,1755,1755,1760,1760,1765,1770,1770,1775,1781,1781,1786,1791,1791,1796,1796,1801,1812,1812,1823,1839,1839,1861,1872,1872,1884,1884,1895,1907,1907,1913,1925,1925,1925,1925,1919,1919,1919,1919,1925,1925,1931,1943,1943,1949,1949,1955,1968,1968,1980,2000,2000,2006,2013,2013,2019,2019,2019,2019,2013,2013,2013,2013,2019,2019,2013,2013,2013,2013,2053,2046,2046,2019,2013,2013,2006,2006,2006,2006,2006,2006,2006,2013,2013,2013,2013,2013,2013,2013,2013,2019,2019,2019,2026,2026,2026,2026,2026,2032,2032,2032,2039,2032,2032,2032,2032,2032,2026,2026,2026,2026,2026,2019,2013,2013,2013,2013,2013,2013,0,0,0,0,0,0,0,0,0,0,0,0,0,0,0,0,0,0,0,0,0,0,0,0,0,0,0,0,2006,2000,2000,2000,2000,2000,2000,2000,2000,1993,1993,1993,1993,1987,1987,1987,1980,1980,1980,1974,1974,1974,1968,1968,1968,1968,1974,1974,1974,1974,1980,1980,1980,1980,1987,1987,1987,1987,1993,1993,1993,1993,1993,1993,2000,2000,1993,1993,1993,1993,1993,1993,1993,1987,1987,1987,1987,1987,1987,1987,1987,1987,1987,1993,1993,0,0,0,0,0,0,0,0,0,0,0,0,0,0,0,0,0,0,0,0,0,0,0,0,0,0,0,0,0,0,0,0,0,0,0,0,0,0,0,0,0,0,0,0,0,0,0,0,0,0,0,0,0,0,0,0,0,0,0,0,0,0,0,0,0,0,0,0,0,0,0,0,0,0,0,0,0,0,0,0,0,0,0,0,0,0,0,0,1987,1987,1987,1987,1993,1993,1993,1993,1993,1993,1993,1993,1993,1993,1993,1993,1993,1993,1993,1993,1993,1993,1993,1993,1993,2000,2000,2000,2006,2006,2006,2006,2006,2013,2013,2013,2013,2013,2013,2013,2013,2013,2013,2013,2013,2013,2013,2019,2019,2032,2032,2032,2039,2039,2039,2039,2039,2039,2032,2026,2026,2019,2006,2006,1993,1993,1974,1961,1961,1949,1949,1937,1925,1925,1919,1913,1913,1907,1907,1907,1901,1901,1901,1907,1907,1907,1907,1907,1907,1907,1907,1907,1913,1913,1919,1919,1925,1925,1925,1937,1943,1943,1949,1955,1955,1968,1968,1961,1961,1955,1955,1943,1943,1943,1943,1943,1949,1937,1937,1931,1925,1925,1913,1907,1907,1907,1907,1901,1889,1889,1884,1884,1884,1884,1884,1884,1889,1895,1895,1901,1907,1907,1907,1907,1901,1901,1889,1872,1872,1855,1855,1839,1828,1828,1807,1807,1791,1775,1775,1765,1765,1750,1745,1745,1736,1731,1731,1726,1726,1721,1712,1712,1707,1702,1702,1697,1697,1693,1693,1693,1693,1693,1693,1693,1693,1693,1693,1697,1697,1707,1716,1716,1726,1726,1740,1760,1760,1786,1812,1812,1839,1855,1855,1878,1895,1895,1901,1901,1901,1907,1895,1895,1895,1878,1878,1861,1839,1839,1839,1817,1817,1807,1807,1796,1791,1791,1786,1786,1775,1765,1765,1760,1750,1750,1745,1745,1740,1736,1736,1736,1736,1736,1736,1736,1736,1740,1745,1745,1745,1745,1745,1745,1745,1750,1750,1750,1755,4445,4445,4445,4445,4477,4477,4477,4510,4543,4543,4577,4611,4611,4681,4681,4646,4646,4646,4681,4681,4646,4646,4611,4611,4611,4577,4577,4577,4577,4611,4611,4611,4611,4611,4611,4611,4611,4611,4611,4577,4577,4577,4543,4543,4543,4543,4543
0,0,0,0,0,0,0,0,0,0,0,0,0,0,0,0,0,1731,1731,1731,1731,1736,1736,1736,1736,1740,0,0,0,0,1740,1740,1740,1745,1750,1750,1755,1755,1755,1760,1760,1765,1770,1770,1770,1775,1775,1781,1791,1791,1791,1791,1796,1807,1807,1823,1839,1839,1861,1872,1872,1884,1884,1895,1907,1907,1913,1925,1925,1925,1925,1919,1919,1919,1919,1925,1925,1931,1943,1943,1949,1949,1961,1968,1968,1980,2000,2000,2006,2013,2013,2019,2019,2019,2019,2013,2013,2013,2013,2019,2019,2013,2013,2013,2006,2006,2006,2006,2006,2006,2006,2006,2006,2006,2006,2006,2006,2006,2013,2013,2013,2013,2013,2013,2013,2013,2019,2019,2019,2026,2026,2026,2026,2026,2032,2032,2032,2039,2032,2032,2032,2032,2032,2026,2026,2026,2026,2026,2019,2013,2013,2013,2013,2013,2013,2013,2013,2013,0,0,0,0,0,0,0,0,0,0,0,0,0,0,0,0,0,0,0,0,0,0,0,0,0,2006,2006,2006,2006,2006,2000,2000,2000,2000,2000,2000,1993,1993,1993,1987,1987,1987,1980,1980,1974,1974,1974,1968,1968,1968,1968,1974,1974,1974,1974,1980,1980,1980,1980,1987,1987,1987,1987,1993,1993,1993,1993,1993,1993,2000,2000,1993,1993,1993,1993,1993,1993,1987,1987,1987,1987,1987,1987,1987,1987,1987,1993,1993,1993,1993,2000,2006,2006,2013,0,0,0,0,0,0,0,0,0,0,0,0,0,0,0,0,0,0,0,0,0,0,0,0,0,0,0,0,0,0,0,0,0,0,0,0,0,0,0,0,0,0,0,0,0,0,0,0,0,0,0,0,0,0,0,0,0,0,0,0,0,0,0,0,0,0,0,0,0,0,0,0,0,0,0,0,0,0,0,0,0,1987,1987,1987,1987,1987,1987,1987,1993,1993,1993,1993,1993,1993,1993,1993,1993,1993,1993,1993,1993,1993,1993,1993,1993,1993,1993,1993,1993,2000,2000,2000,2006,2006,2006,2006,2006,2013,2013,2013,2013,2013,2013,2013,2013,2013,2013,2013,2013,2013,2013,2019,2019,2032,2032,2032,2039,2039,2039,2039,2039,2039,2032,2026,2026,2019,2006,2006,1993,1993,1974,1955,1955,1943,1943,1931,1925,1925,1919,1913,1913,1907,1907,1901,1901,1901,1901,1901,1901,1901,1901,1901,1901,1901,1901,1901,1907,1907,1907,1907,1913,1913,1913,1925,1931,1931,1937,1949,1949,1955,1955,1961,1961,1949,1943,1943,1943,1943,1937,1937,1937,1931,1931,1919,1907,1907,1901,1895,1895,1895,1895,1884,1872,1872,1872,1884,1884,1884,1884,1884,1889,1895,1895,1901,1907,1907,1907,1907,1901,1901,1889,1872,1872,1861,1861,1844,1828,1828,1807,1807,1791,1775,1775,1765,1765,1750,1745,1745,1736,1731,1731,1726,1726,1716,1712,1712,1707,1702,1702,1697,1697,1693,1693,1693,1693,1693,1693,1693,1693,1693,1693,1697,1697,1707,1716,1716,1726,1726,1740,1760,1760,1781,1807,1807,1833,1850,1850,1872,1889,1889,1901,1901,1901,1901,1895,1889,1889,1878,1878,1861,1839,1839,1839,1817,1817,1807,1807,1796,1791,1791,1786,1786,1775,1765,1765,1760,1755,1755,1745,1745,1745,1740,1740,1736,1736,1736,1736,1736,1736,1740,1745,1745,1745,1745,1745,1745,1745,1750,1750,1750,1755,4445,4445,4477,4477,4477,4477,4477,4510,4543,4543,4577,4611,4611,4611,4611,4611,4611,4611,4611,4611,4611,4611,4611,4577,4577,4577,4577,4577,4577,4577,4577,4611,4611,4611,4577,4577,4577,4577,4577,4577,4577,4543,4543,4543,4510,4510,4510
0,0,0,0,0,0,0,0,0,0,0,0,0,0,0,0,1731,1731,1731,1731,1731,1736,1736,1736,1736,0,0,0,0,0,1740,1740,1740,1750,1750,1750,1755,1755,1755,1760,1760,1765,1770,1770,1770,1775,1775,1781,1791,1791,1791,1791,1796,1807,1807,1823,1839,1839,1861,1872,1872,1884,1884,1895,1907,1907,1913,1919,1919,1919,1919,1913,1913,1913,1919,1919,1919,1931,1943,1943,1949,1949,1961,1968,1968,1980,2000,2000,2006,2013,2013,2019,2019,2019,2019,2013,2013,2013,2013,2013,2013,2013,2013,2013,2000,2000,2000,2000,2000,2000,2000,2000,2000,2000,2000,2000,2000,2006,2006,2006,2013,2013,2013,2013,2013,2013,2019,2019,2019,2026,2026,2026,2026,2026,2032,2032,2032,2039,2039,2039,2032,2032,2032,2026,2026,2026,2026,2026,2019,2013,2013,2013,2013,2013,2013,2013,2013,2013,0,0,0,0,0,0,0,0,0,0,0,0,0,0,0,0,0,0,0,0,0,0,0,0,0,2006,2006,2006,2006,2006,2000,2000,2000,2000,2000,2000,1993,1993,1993,1987,1987,1987,1980,1980,1980,1980,1974,1974,1974,1974,1974,1974,1974,1974,1974,1980,1980,1980,1987,1987,1987,1993,1993,1993,1993,1993,1993,2000,2000,2000,2000,1993,1993,1993,1993,1993,1993,1987,1987,1987,1987,1987,1987,1987,1987,1987,1993,1993,1993,1993,2000,2006,2006,2013,0,0,0,0,0,0,0,0,0,0,0,0,0,0,0,0,0,0,0,0,0,0,0,0,0,0,0,0,0,0,0,0,0,0,0,0,0,0,0,0,0,0,0,0,0,0,0,0,0,0,0,0,0,0,0,0,0,0,0,0,0,0,0,0,0,0,0,0,0,0,0,0,0,0,0,0,0,0,0,0,0,1987,1987,1987,1987,1993,1987,1987,1993,1993,1993,1993,1993,1993,1993,1993,1993,1993,1993,1993,1993,1993,1993,1993,1993,1993,1993,1993,1993,2000,2000,2000,2006,2006,2006,2006,2006,2013,2013,2013,2013,2013,2013,2013,2013,2013,2013,2013,2013,2013,2013,2019,2019,2026,2026,2032,2039,2039,2039,2039,2032,2032,2032,2026,2026,2013,2006,2006,1987,1987,1974,1955,1955,1943,1943,1931,1925,1925,1919,1913,1913,1907,1907,1901,1901,1901,1895,1895,1895,1895,1895,1895,1895,1895,1895,1895,1907,1907,1907,1907,1913,1913,1913,1925,1931,1931,1937,1949,1949,1955,1955,1961,1961,1949,1943,1943,1943,1943,1937,1937,1937,1931,1931,1919,1907,1907,1901,1895,1895,1895,1895,1884,1872,1872,1867,1867,1872,1872,1878,1878,1878,1889,1889,1895,1901,1901,1907,1907,1901,1901,1889,1872,1872,1861,1861,1844,1828,1828,1807,1807,1791,1775,1775,1765,1765,1750,1745,1745,1736,1731,1731,1721,1721,1716,1712,1712,1707,1702,1702,1697,1697,1697,1693,1693,1693,1693,1693,1693,1693,1693,1697,1697,1697,1707,1716,1716,1726,1726,1740,1760,1760,1781,1807,1807,1833,1850,1850,1872,1889,1889,1901,1901,1901,1901,1895,1889,1889,1878,1878,1861,1839,1839,1839,1817,1817,1807,1807,1796,1791,1791,1786,1786,1775,1765,1765,1760,1755,1755,1745,1745,1745,1740,1740,1736,1736,1736,1736,1736,1736,1740,1745,1745,1740,1740,1740,1740,1740,1745,1745,1745,1745,4445,4445,4477,4477,4477,4477,4477,4510,4543,4543,4577,4611,4577,4577,4577,4543,4543,4543,4543,4577,4543,4543,4543,4543,4543,4543,4543,4543,4543,4577,4577,4611,4611,4611,4543,4543,4543,4543,4543,4577,4577,4543,4543,4543,4510,4510,4510
0,0,0,0,0,0,0,0,0,0,0,0,0,0,0,0,1731,1731,0,0,1736,1736,1736,1736,1736,0,0,0,1740,1740,1740,1740,1740,1750,1750,1750,1755,1755,1755,1760,1760,1765,1770,1770,1770,1775,1775,1781,1786,1786,1791,1791,1796,1807,1807,1823,1839,1839,1861,1872,1872,1884,1884,1895,1907,1907,1913,1919,1919,1919,1919,1913,1913,1913,1913,1919,1919,1931,1943,1943,1949,1949,1961,1974,1974,1987,2000,2000,2006,2013,2013,2019,2019,2019,2019,2013,2013,2013,2013,2013,2013,2013,2013,2013,2000,2000,2000,2000,2000,2000,2000,2000,2000,2000,2000,2000,2000,2006,2006,2006,2013,2013,2013,2013,2013,2019,2019,2019,2019,2019,2019,2026,2026,2026,2026,2026,2026,2032,2032,2032,2032,2026,2026,2026,2026,2026,2019,2019,2019,2013,2013,2013,2013,2013,2013,2013,2013,2013,2013,2013,2013,0,0,0,0,0,0,0,0,0,0,0,0,0,0,0,0,0,0,0,0,2000,2000,2000,2000,2000,2000,2000,2000,2000,2000,2000,2000,2000,2000,2000,1993,1993,1993,1987,1987,1987,1980,1980,1980,1980,1980,1974,1974,1980,1980,1980,1980,1980,1987,1987,1987,1987,1987,1993,1993,1993,2000,2000,2000,2000,2000,2000,2000,1993,1993,1993,1993,1993,1993,1987,1987,1987,1987,1987,1987,1987,1987,1987,1993,1993,1993,1993,2000,2006,2006,2013,2053,2053,2073,0,2094,2094,2094,2102,0,0,0,0,0,0,0,0,0,0,0,0,0,0,0,0,0,0,0,0,0,0,0,0,0,0,0,0,0,0,0,0,0,0,0,0,0,0,0,0,0,0,0,0,0,0,0,0,0,0,0,0,0,0,0,0,0,0,0,0,0,0,0,0,0,0,0,0,0,0,0,1993,1993,1987,1987,1987,1987,1993,1987,1987,1993,1993,1993,1993,1993,1993,1993,1993,1993,1993,1993,1993,1993,1993,1993,1993,1993,1993,1993,1993,1993,2000,2000,2000,2006,2006,2006,2013,2013,2013,2013,2013,2013,2013,2013,2013,2013,2013,2013,2013,2013,2013,2013,2019,2019,2026,2026,2032,2032,2032,2032,2039,2032,2032,2032,2026,2026,2013,2006,2006,1987,1987,1974,1955,1955,1943,1943,1931,1925,1925,1919,1913,1913,1907,1907,1901,1901,1901,1895,1895,1895,1895,1895,1895,1895,1895,1895,1895,1901,1901,1907,1907,1907,1913,1913,1913,1919,1919,1931,1931,1931,1949,1949,1949,1949,1943,1937,1937,1931,1931,1931,1931,1931,1925,1925,1913,1901,1901,1889,1889,1889,1884,1884,1872,1861,1861,1861,1861,1861,1861,1872,1872,1878,1884,1884,1889,1895,1895,1907,1901,1901,1901,1889,1872,1872,1861,1861,1850,1833,1833,1812,1812,1791,1775,1775,1765,1765,1750,1745,1745,1736,1731,1731,1721,1721,1716,1712,1712,1707,1702,1702,1697,1697,1697,1697,1697,1697,1693,1693,1693,1693,1693,1697,1702,1702,1707,1716,1716,1726,1726,1740,1755,1755,1775,1801,1801,1828,1850,1850,1872,1884,1884,1895,1895,1895,1901,1895,1889,1889,1878,1878,1861,1839,1839,1839,1817,1817,1807,1807,1796,1791,1791,1786,1786,1775,1770,1770,1760,1755,1755,1750,1750,1745,1740,1740,1736,1731,1731,1731,1736,1736,1736,1740,1736,1731,1731,1731,1736,1736,1736,1745,1745,1745,4510,4510,4510,4510,4510,4543,4543,4543,4577,4577,4577,4611,4577,4577,4577,4543,4543,4543,4543,4577,4543,4543,4543,4543,4543,4543,4543,4543,4543,4577,4577,4611,4611,4611,4543,4543,4543,4543,4510,4510,4510,4510,4477,4477,4445,4445,4445
0,0,0,0,0,0,0,0,0,0,0,0,0,0,0,0,1731,1731,0,1731,1731,1736,1736,1736,1736,1736,1736,1736,1736,1740,1740,1745,1745,1750,1755,1755,1755,1760,1760,1765,1765,1765,1770,1770,1770,1775,1775,1781,1786,1786,1786,1786,1796,1807,1807,1823,1839,1839,1861,1878,1878,1889,1889,1901,1913,1913,1919,1925,1925,1925,1925,1913,1913,1913,1913,1919,1919,1931,1943,1943,1955,1955,1968,1974,1974,1987,2000,2000,2006,2013,2013,2019,2019,2013,2013,2013,2013,2013,2013,2013,2013,2013,2013,2013,2000,2000,2000,2000,2000,2000,2000,2000,2000,2000,2000,2000,2000,2000,2006,2006,2013,2013,2013,2013,2013,2019,2019,2019,2019,2019,2019,2026,2026,2026,2026,2026,2026,2032,2032,2032,2032,2026,2026,2026,2026,2026,2019,2019,2019,2013,2013,2013,2013,2013,2013,2013,2013,2013,2013,2013,2013,0,0,0,0,0,0,0,0,0,0,0,0,0,0,0,0,0,0,0,0,2000,2000,2000,2000,2000,2000,2000,2000,2000,2000,2000,2000,2000,2000,2000,1993,1993,1993,1987,1987,1987,1980,1980,1980,1980,1980,1974,1974,1980,1980,1980,1980,1980,1987,1987,1987,1987,1987,1993,1993,1993,1993,1993,1993,1993,1993,1993,1993,1993,1993,1993,1993,1993,1993,1993,1993,1993,1993,1993,1987,1987,1987,1993,2000,2000,2006,2006,2013,2026,2026,2039,2053,2053,2073,0,2094,2094,2094,2102,0,0,0,0,0,0,0,0,0,0,0,0,0,0,0,0,0,0,0,0,0,0,0,0,0,0,0,0,0,0,0,0,0,0,0,0,0,0,0,0,0,0,0,0,0,0,0,0,0,0,0,0,0,0,0,0,0,0,0,0,0,0,0,0,0,0,0,0,0,0,0,1993,1993,1993,1993,1993,1993,1993,1993,1993,1993,1993,1993,1993,1993,1993,1993,1993,1993,1993,1993,1993,1993,1993,1993,1993,1993,1993,1993,1993,1993,2000,2000,2000,2006,2006,2006,2013,2013,2013,2013,2013,2013,2013,2013,2013,2013,2013,2013,2013,2013,2013,2013,2019,2019,2026,2026,2032,2032,2032,2032,2032,2032,2032,2026,2026,2026,2013,2006,2006,1987,1987,1968,1949,1949,1937,1937,1931,1919,1919,1913,1907,1907,1901,1901,1901,1895,1895,1895,1895,1895,1895,1895,1895,1895,1895,1895,1895,1901,1901,1901,1901,1901,1907,1907,1907,1913,1913,1919,1925,1925,1943,1943,1943,1943,1937,1925,1925,1925,1925,1925,1925,1925,1925,1925,1913,1901,1901,1889,1889,1889,1884,1884,1872,1861,1861,1861,1861,1861,1861,1872,1872,1878,1884,1884,1889,1895,1895,1907,1901,1901,1901,1889,1878,1878,1867,1867,1855,1833,1833,1812,1812,1791,1775,1775,1765,1750,1750,1740,1740,1731,1726,1726,1716,1716,1712,1712,1712,1707,1702,1702,1697,1697,1697,1697,1697,1697,1693,1693,1693,1693,1693,1697,1702,1702,1707,1716,1716,1726,1726,1740,1750,1750,1770,1796,1796,1823,1844,1844,1867,1884,1884,1895,1895,1895,1901,1895,1889,1889,1878,1861,1861,1839,1839,1839,1817,1817,1807,1807,1796,1796,1796,1786,1786,1775,1770,1770,1765,1755,1755,1750,1750,1745,1740,1740,1736,1731,1731,1731,1736,1736,1736,1740,1736,1731,1731,1731,1736,1736,1731,1731,1731,1736,4510,4510,4510,4510,4510,4543,4543,4543,4577,4577,4577,4611,4577,4577,4577,4543,4543,4510,4510,4510,4510,4510,4510,4510,4510,4510,4510,4510,4510,4510,4510,4577,4577,4543,4510,4510,4477,4477,4477,4445,4445,4445,4413,4413,4413,4413,4413
0,0,0,0,0,0,0,0,0,0,0,0,0,0,0,0,0,0,0,1731,1731,1736,1736,1736,1736,1736,1736,1736,1736,1740,1740,1745,1745,1750,1755,1755,1760,1765,1765,1765,1770,1770,1775,1775,1775,1781,1781,1781,1786,1786,1786,1786,1796,1807,1807,1823,1839,1839,1861,1878,1878,1889,1889,1901,1913,1913,1919,1925,1925,1925,1925,1913,1913,1913,1913,1919,1919,1931,1943,1943,1955,1955,1968,1974,1974,1987,2000,2000,2006,2013,2013,2019,2019,2013,2013,2013,2013,2013,2013,2013,2013,2013,2013,2013,2013,2013,2013,2013,2006,2006,2013,2000,2000,2000,2000,2000,2000,2000,2006,2006,2013,2019,2019,2019,2026,2026,2026,2026,2032,2032,2032,2039,2039,2039,2039,2039,2046,2046,2046,2053,2053,2046,2046,2046,2039,2039,2039,2039,2039,2032,2032,2032,2013,2013,2013,2013,2013,2013,2013,2013,2013,2039,2039,0,0,0,0,0,0,0,0,0,0,0,0,0,0,0,0,0,0,2000,2000,2000,2000,2000,2000,2000,2000,2000,2000,2000,2000,2000,2000,2000,2000,2000,2000,2000,2000,2000,1993,1993,1993,1993,1993,1987,1987,1987,1987,1987,1987,1987,1987,1987,1987,1987,1987,1993,1993,1993,1993,1993,1993,1993,1993,1993,1993,1993,2000,2000,2000,2006,2006,2006,2006,2006,2013,2013,2013,2019,2019,2026,2032,2032,2039,2053,2053,2060,2060,2073,2087,2073,2073,2123,2094,2094,2094,2102,0,0,0,0,0,0,0,0,0,0,0,0,0,0,0,0,0,0,0,0,0,0,0,0,0,0,0,0,2019,2019,2019,2019,0,0,0,0,0,0,0,0,0,0,0,0,0,0,0,0,0,0,0,0,0,0,0,0,0,0,0,0,0,0,0,0,0,0,0,0,0,0,0,1993,1993,1993,1993,1993,1993,1993,1993,1993,1993,1993,1993,1993,1993,2000,2000,2000,2000,1993,1993,2000,1993,1993,1993,1993,1993,1993,1993,1993,1993,2000,2000,2000,2006,2006,2006,2013,2013,2013,2013,2013,2013,2013,2013,2013,2013,2013,2013,2013,2013,2013,2013,2019,2019,2019,2019,2019,2026,2019,2019,2019,2013,2013,2013,2000,2000,1993,1987,1987,1974,1974,1955,1943,1943,1937,1937,1925,1919,1919,1913,1907,1907,1901,1901,1901,1895,1895,1895,1895,1895,1895,1895,1895,1901,1901,1895,1895,1901,1901,1901,1901,1901,1907,1907,1907,1913,1913,1919,1925,1925,1943,1943,1943,1943,1937,1925,1925,1925,1925,1925,1925,1925,1913,1913,1901,1889,1889,1884,1878,1878,1872,1872,1867,1855,1855,1850,1850,1855,1855,1867,1867,1872,1878,1878,1884,1889,1889,1901,1901,1901,1901,1889,1878,1878,1867,1867,1855,1839,1839,1817,1817,1796,1781,1781,1765,1750,1750,1740,1740,1731,1726,1726,1716,1716,1712,1712,1712,1707,1702,1702,1697,1697,1697,1697,1697,1697,1697,1697,1697,1697,1697,1702,1702,1702,1712,1716,1716,1726,1740,1740,1750,1750,1770,1796,1796,1823,1844,1844,1867,1884,1884,1895,1895,1895,1901,1895,1889,1889,1878,1861,1861,1839,1839,1839,1817,1817,1807,1807,1796,1796,1796,1786,1775,1775,1770,1770,1760,1755,1755,1750,1750,1745,1736,1736,1731,1731,1731,1731,1731,1731,1731,1731,1726,1726,1726,1726,1726,1726,1721,1721,1721,1721,0,4577,4577,4577,4577,4611,4611,4611,4611,4611,4611,4611,4611,4611,4543,4477,4477,4477,4445,4445,4445,4445,4413,4413,4445,4445,4510,4510,4510,4510,4510,4577,4577,4543,4510,4510,4477,4477,4477,4445,4445,4445,4413,4413,4413,4413,4413
0,0,0,0,0,0,0,0,0,0,0,0,0,0,0,0,0,1731,1731,1731,1731,1731,1731,1736,1736,1731,1731,1731,1736,1740,1740,1745,1745,1750,1755,1755,1760,1765,1765,1765,1770,1770,1775,1775,1775,1781,1781,1781,1786,1786,1786,1786,1796,1807,1807,1823,1844,1844,1867,1878,1878,1895,1901,1901,1913,1913,1925,1931,1931,1931,1931,1913,1913,1913,1919,1919,1919,1937,1949,1949,1955,1968,1968,1980,1980,1993,2006,2006,2019,2026,2026,2026,2032,2026,2026,2026,2032,2032,2032,2032,2032,2032,2032,2026,2026,2032,2026,2026,2019,2013,2013,2013,2006,2006,2006,2006,2000,2000,2006,2006,2013,2019,2019,2019,2026,2026,2026,2026,2032,2032,2032,2039,2039,2039,2039,2039,2046,2046,2046,2053,2053,2046,2046,2046,2039,2039,2039,2039,2039,2032,2032,2032,2032,2032,2032,2032,2032,2032,2032,2032,2039,2039,2039,2080,0,0,0,0,0,0,0,0,0,0,0,0,0,0,0,0,0,0,0,0,0,0,2006,2006,2006,2006,2013,2013,2013,2013,2013,2013,2019,2019,2019,2019,2019,2019,2019,2013,2013,2013,2013,2013,2013,2019,2013,2013,2013,2006,2006,1987,1987,1987,1987,1993,1993,1993,1993,1993,1993,1993,1993,1993,1993,1993,2000,2000,2000,2006,2006,2006,2006,2006,2013,2013,2013,2019,2019,2026,2032,2032,2039,2053,2053,2060,2060,2073,2087,2087,2109,2123,2123,0,0,0,0,0,0,0,0,0,0,0,0,0,0,0,0,0,0,0,0,0,0,0,0,0,0,0,0,0,0,0,2019,2019,2019,2019,0,0,0,0,0,0,0,0,0,0,0,0,0,0,0,0,0,0,0,0,0,0,0,0,0,0,0,0,0,0,0,0,0,0,0,0,0,0,1993,1993,1993,1993,1993,1993,1993,1993,1993,1993,1993,1993,1993,1993,1993,2000,2000,2000,2000,1993,1993,2000,2000,2000,1993,1993,1993,1993,1993,2000,2000,2000,2000,2000,2006,2006,2006,2013,2013,2013,2013,2013,2013,2013,2013,2013,2013,2013,2013,2013,2013,2013,2019,2019,2019,2019,2019,2019,2026,2019,2019,2019,2013,2013,2013,2000,2000,1993,1987,1987,1974,1974,1955,1943,1943,1937,1937,1925,1919,1919,1913,1907,1907,1901,1901,1901,1895,1895,1895,1895,1895,1895,1895,1895,1895,1895,1895,1895,1895,1895,1895,1895,1895,1901,1901,1901,1913,1913,1913,1919,1919,1925,1925,1925,1925,1919,1919,1919,1913,1913,1913,1907,1907,1907,1907,1889,1878,1878,1872,1867,1867,1867,1867,1855,1844,1844,1844,1844,1850,1850,1861,1861,1867,1872,1872,1878,1889,1889,1901,1901,1901,1901,1889,1878,1878,1872,1872,1855,1839,1839,1823,1823,1801,1781,1781,1770,1755,1755,1745,1745,1736,1726,1726,1716,1716,1716,1712,1712,1707,1707,1707,1697,1697,1697,1697,1697,1697,1697,1697,1697,1697,1697,1702,1702,1702,1712,1716,1716,1726,1740,1740,1750,1750,1770,1796,1796,1823,1844,1844,1867,1884,1884,1889,1895,1895,1901,1895,1889,1889,1878,1861,1861,1839,1839,1839,1817,1817,1812,1812,1801,1796,1796,1786,1775,1775,1770,1770,1760,1755,1755,1745,1745,1740,1736,1736,1731,1731,1731,1731,1731,1731,1731,1731,1726,1726,1726,1726,1726,1726,1721,1721,1721,1721,0,0,4646,4646,4646,4646,4646,4646,4646,4646,4611,4611,4611,4611,4543,4477,4477,4477,4445,4445,4445,4445,4413,4413,4445,4413,4413,4413,4413,4413,4413,4445,4445,4445,4413,4413,4413,4413,4382,4382,4382,4351,4321,4321,4321,4351,4351
