0,0,0,0,0,0,0,0,0,0,0,0,0,0,0,0,0,0,0,0,0,0,0,0,0,0,0,0,0,0,0,0,0,0,0,0,0,0,0,0,0,0,0,0,0,0,0,0,0,0,0,0,0,0,0,0,0,0,0,0,0,0,0,0,0,0,0,0,0,0,0,0,0,0,0,0,0,0,0,0,0,0,0,0,0,0,0,0,0,0,0,0,0,0,2386,2386,2386,2404,2404,2404,2414,2414,2414,2423,2423,2423,2433,2433,2452,2462,2462,2471,2481,2481,2501,2501,2512,2522,2522,2532,2543,2543,2543,2543,2564,2585,2585,2618,2640,2640,2675,2698,2698,2734,2734,2771,2796,2796,2808,2821,2821,2834,2847,2847,2847,2847,2847,2847,2847,2860,2860,2860,2874,2874,2887,2901,2887,2887,2887,2887,2901,2901,2901,2901,2901,2901,2901,2901,2901,2901,2901,2901,2901,2901,2901,2901,2901,2901,2901,2901,2901,2901,2901,2901,2914,2914,2914,2914,2914,2914,2914,2914,2914,2914,2914,2914,2914,2914,2914,2914,2914,2914,2914,2914,2914,2901,2901,2901,2901,2901,2901,2901,2901,2901,2901,2901,2914,2914,2914,2914,2914,2928,2928,2928,2942,2942,2942,2942,2942,2956,2956,2956,2956,2956,2956,2970,2970,2970,2970,2970,2970,2985,2985,2985,2985,2985,2985,2985,2985,2985,2985,2985,2970,2970,2970,2970,2970,2970,2956,2956,2956,2942,2942,2942,2928,2928,2928,2928,2928,2914,2914,2914,2914,2914,2901,2901,2901,2901,2901,2901,2901,2901,2901,2901,2901,2901,2901,2901,2901,2901,2901,2901,2887,2887,2887,2887,2887,2887,2874,2874,2874,2874,2874,2874,2874,2874,2874,2887,2887,2887,2901,2901,2901,2914,2914,2914,2914,2914,2914,2914,2914,2914,2914,2914,2914,2914,2914,2914,2901,2901,2901,2901,2887,2874,2874,2874,2860,2860,2860,2860,2847,2847,2847,2847,2860,2860,2860,2860,2860,2860,2874,2874,2874,2874,2874,2874,2860,2860,2860,2860,2847,2847,2847,2847,2834,2834,2834,2834,2808,2808,2808,2808,2808,2808,2821,2808,2808,2808,2808,2808,2796,2796,2796,2796,2783,2783,2771,2771,2758,2746,2746,2746,2746,2746,2734,2734,2722,2722,2722,2722,2710,2710,2710,2710,2710,2710,2710,2710,2710,2710,2710,2710,2698,2698,2698,2698,2686,2686,2675,2675,2675,2663,2663,2663,2663,2663,2652,2652,2640,2629,2629,2607,2607,2585,2543,2543,2512,2512,2471,2433,2433,2395,2367,2367,2340,2340,2332,2297,2297,2280,2280,2263,2263,0,2239,2239,2207,2183,2183,2183,0,0,2138,2138,2138,0,0,0,0,0,0,0,1913,1913,1907,1907,0,0,0,1867,1867,0,0,0,1796,1786,1786,1770,1770,1755,1740,1740,1721,1721,1707,1693,1693,1674,1656,1656,1639,1639,1626,1617,1617,1613,1613,1605,1605,1605,1601,1601,1601,1601,1601,1601,1617,1639,1639,1661,1693,1693,1740,1807,1807,1872,1925,1955,1955,1961,1955,1949,1949,1937,1925,1925,1907,1907,1889,1872,1872,1855,1855,1839,1823,1823,1801,1801,1791,1775,1775,1745,1745,1726,1712,1712,1693,1693,1684,1674,1674,1656,1648,1648,1643,1643,1643,1639,1639,1639,1639,1639,1635,1635,1635,1639,1639,1639,1648,1661,1661,1665,1665,1665,1670,1670,1670,0,0,0,0,0,0,0,0,0,0,0,0,0,0,0,0,0,0,0,0,0,0,0,0,0,0,0,0,0,0,0,0,0,0,0,0,3531,3531,3531,3551,3551,3433,3433,3433,3433,3433,3433,3433,3433,3433,3571,3551,3551
0,0,0,0,0,0,0,0,0,0,0,0,0,0,0,0,0,0,0,0,0,0,0,0,0,0,0,0,0,0,0,0,0,0,0,0,0,0,0,0,0,0,0,0,0,0,0,0,0,0,0,0,0,0,0,0,0,0,0,0,0,0,0,0,0,0,0,0,0,0,0,0,0,0,0,0,0,0,0,0,0,0,0,0,0,0,0,0,0,0,0,0,0,0,2404,2404,2404,2404,2404,2404,2414,2414,2414,2414,2414,2423,2433,2433,2452,2462,2462,2471,2481,2481,2501,2501,2512,2522,2522,2532,2543,2543,2543,2543,2564,2585,2585,2618,2640,2640,2675,2698,2698,2734,2734,2771,2796,2796,2821,2821,2821,2834,2847,2847,2847,2847,2847,2847,2847,2860,2860,2860,2874,2874,2887,2901,2887,2887,2887,2887,2901,2901,2901,2901,2901,2901,2901,2901,2901,2901,2901,2901,2901,2901,2901,2901,2901,2901,2901,2901,2901,2901,2901,2901,2901,2901,2901,2901,2901,2901,2914,2914,2914,2914,2914,2914,2914,2914,2914,2914,2914,2914,2914,2914,2901,2901,2901,2901,2901,2901,2901,2901,2901,2901,2901,2901,2914,2914,2914,2914,2914,2928,2928,2928,2942,2956,2956,2956,2956,2956,2956,2956,2970,2970,2970,2970,2970,2970,2970,2970,2970,2985,2985,2985,2985,2985,2985,2985,2985,2985,2985,2985,2970,2970,2970,2970,2970,2970,2956,2956,2956,2942,2942,2942,2928,2928,2928,2928,2928,2914,2914,2914,2914,2914,2901,2901,2901,2901,2901,2901,2901,2901,2901,2901,2901,2901,2901,2901,2901,2901,2901,2901,2887,2887,2887,2887,2887,2887,2887,2887,2887,2887,2887,2887,2887,2887,2887,2901,2901,2901,2901,2901,2914,2914,2914,2914,2914,2914,2914,2914,2914,2914,2914,2914,2914,2914,2914,2914,2901,2901,2901,2901,2887,2874,2874,2874,2860,2860,2860,2860,2847,2847,2847,2847,2860,2860,2860,2860,2860,2860,2874,2874,2874,2874,2874,2874,2860,2860,2860,2860,2847,2847,2847,2847,2834,2834,2834,2821,2808,2808,2808,2808,2796,2796,2808,2796,2796,2796,2796,2796,2796,2783,2783,2771,2758,2758,2746,2746,2734,2734,2746,2734,2734,2734,2722,2722,2710,2710,2710,2710,2710,2710,2710,2710,2710,2710,2710,2710,2710,2710,2710,2710,2710,2710,2710,2698,2698,2698,2686,2686,2675,2663,2663,2663,2663,2663,2663,2663,2652,2629,2629,2618,2618,2585,2553,2553,2512,2512,2471,2433,2433,2395,2367,2367,2340,2340,2323,2297,2297,2272,2272,2263,2263,0,2239,2239,2207,2183,2183,2183,0,0,2138,2138,2138,0,0,0,0,0,0,0,1907,1907,1907,1907,0,0,0,1861,1861,0,0,0,1791,1781,1781,1765,1765,1755,1740,1740,1721,1721,1707,1688,1688,1674,1656,1656,1639,1639,1626,1617,1617,1613,1613,1605,1605,1605,1601,1601,1601,1601,1601,1601,1622,1639,1639,1665,1697,1697,1745,1807,1807,1878,1931,1961,1961,1968,1961,1955,1955,1943,1925,1925,1907,1907,1889,1872,1872,1855,1855,1839,1823,1823,1801,1801,1786,1770,1770,1745,1745,1726,1712,1712,1693,1688,1684,1674,1674,1656,1648,1648,1643,1643,1643,1639,1639,1639,1639,1639,1635,1635,1635,1639,1639,1639,1648,1661,1661,1665,1665,1670,1674,1674,1674,0,0,0,0,0,0,0,0,0,0,0,0,0,0,0,0,0,0,0,0,0,0,0,0,0,0,0,0,0,0,0,0,0,0,0,0,3531,3531,3531,3551,3551,3551,3571,3571,3571,3592,3592,3571,3571,3571,3571,3551,3551
0,0,0,0,0,0,0,0,0,0,0,0,0,0,0,0,0,0,0,0,0,0,0,0,0,0,0,0,0,0,0,0,0,0,0,0,0,0,0,0,0,0,0,0,0,0,0,0,0,0,0,0,0,0,0,0,0,0,0,0,0,0,0,0,0,0,0,0,0,0,0,0,0,0,0,0,0,0,0,0,0,0,0,0,0,0,0,0,0,0,0,0,0,0,2404,2404,2404,2404,2414,2414,2414,2414,2414,2414,2414,2423,2433,2433,2442,2462,2462,2471,2481,2481,2491,2491,2501,2512,2512,2522,2532,2532,2532,2532,2553,2574,2574,2607,2629,2629,2663,2698,2698,2734,2734,2771,2796,2796,2821,2821,2821,2834,2847,2847,2847,2847,2860,2860,2860,2860,2860,2860,2874,2874,2887,2901,2887,2887,2887,2887,2901,2901,2901,2901,2901,2901,2901,2901,2901,2901,2901,2901,2901,2901,2901,2901,2901,2901,2901,2901,2901,2901,2901,2901,2901,2901,2901,2901,2901,2901,2914,2914,2914,2914,2914,2914,2914,2914,2914,2914,2914,2914,2914,2914,2901,2901,2901,2901,2901,2901,2901,2901,2901,2901,2901,2901,2914,2914,2914,2914,2914,2928,2928,2928,2942,2956,2956,2956,2956,2956,2956,2956,2970,2970,2970,2970,2970,2970,2970,2970,2970,2970,2970,2970,2970,2970,2985,2985,2985,2985,2970,2970,2970,2970,2970,2970,2956,2956,2956,2956,2956,2942,2942,2942,2928,2928,2928,2928,2914,2914,2914,2914,2914,2914,2901,2901,2901,2901,2901,2901,2901,2901,2901,2901,2901,2901,2901,2901,2901,2901,2901,2901,2887,2887,2887,2887,2887,2887,2887,2887,2887,2887,2887,2887,2901,2901,2901,2901,2901,2901,2901,2901,2914,2914,2914,2914,2914,2914,2914,2914,2914,2914,2914,2914,2914,2901,2901,2901,2901,2901,2887,2874,2874,2874,2874,2860,2860,2860,2860,2860,2847,2847,2847,2847,2860,2860,2860,2860,2874,2874,2874,2874,2874,2874,2874,2860,2860,2860,2860,2860,2847,2847,2847,2834,2834,2821,2821,2821,2808,2808,2808,2808,2796,2796,2808,2796,2796,2796,2796,2796,2796,2783,2783,2771,2758,2758,2746,2746,2734,2734,2746,2734,2734,2734,2722,2722,2710,2710,2710,2710,2710,2710,2710,2710,2710,2710,2710,2710,2710,2710,2710,2710,2710,2710,2710,2698,2698,2698,2686,2686,2675,2663,2663,2663,2663,2663,2663,2663,2652,2629,2629,2618,2618,2585,2553,2553,2512,2471,2471,2433,2433,2395,2367,2367,2340,2340,2323,2297,2297,2272,2272,2255,2255,0,2239,2239,2207,2176,2176,2176,0,0,0,0,0,0,0,0,0,0,0,0,1907,1907,1907,1907,0,0,0,1861,1861,0,0,0,1791,1781,1781,1765,1765,1755,1740,1740,1721,1721,1707,1688,1688,1674,1656,1656,1639,1639,1626,1613,1613,1609,1609,1605,1605,1605,1601,1601,1601,1601,1601,1601,1622,1639,1639,1665,1697,1697,1745,1807,1807,1878,1931,1961,1961,1968,1961,1955,1955,1943,1925,1925,1907,1907,1889,1872,1872,1855,1855,1839,1817,1817,1796,1796,1781,1770,1770,1750,1750,1726,1712,1712,1697,1688,1688,1674,1674,1661,1652,1652,1648,1648,1643,1643,1643,1643,1643,1643,1643,1643,1643,1643,1643,1643,1648,1665,1665,1670,1670,1670,1674,1674,1679,0,0,0,0,0,0,0,0,0,0,0,0,0,0,0,0,0,0,0,0,0,0,0,0,0,0,0,0,0,0,0,0,3433,3433,3531,3531,3531,3531,3531,3551,3551,3551,3571,3571,3571,3592,3592,3571,3571,3571,3571,3551,3551
0,0,0,0,0,0,0,0,0,0,0,0,0,0,0,0,0,0,0,0,0,0,0,0,0,0,0,0,0,0,0,0,0,0,0,0,0,0,0,0,0,0,0,0,0,0,0,0,0,0,0,0,0,0,0,0,0,0,0,0,0,0,0,0,0,0,0,0,0,0,0,0,0,0,0,0,0,0,0,0,0,0,0,0,0,0,0,0,0,0,0,0,2386,2386,2386,2395,2395,2404,2404,2404,2404,2414,2414,2414,2414,2423,2433,2433,2442,2452,2452,2462,2471,2471,2481,2481,2491,2512,2512,2512,2522,2522,2522,2522,2543,2564,2564,2596,2618,2618,2652,2686,2686,2734,2771,2771,2796,2796,2821,2821,2821,2834,2847,2847,2860,2860,2860,2860,2860,2860,2860,2860,2874,2887,2887,2901,2887,2887,2887,2887,2901,2901,2901,2901,2901,2901,2901,2901,2901,2901,2901,2901,2901,2901,2901,2901,2887,2887,2887,2887,2887,2887,2887,2887,2887,2901,2901,2901,2901,2901,2901,2901,2901,2901,2901,2901,2901,2901,2914,2914,2914,2914,2901,2901,2901,2901,2901,2901,2901,2901,2901,2901,2901,2901,2901,2901,2901,2914,2914,2928,2928,2928,2942,2942,2942,2956,2956,2956,2956,2970,2970,2970,2970,2970,2970,2970,2970,2970,2970,2970,2970,2970,2970,2970,2970,2970,2985,2985,2985,2985,2970,2970,2970,2970,2970,2970,2956,2956,2956,2956,2956,2942,2942,2942,2928,2928,2928,2928,2914,2914,2914,2914,2914,2914,2901,2901,2901,2901,2901,2901,2901,2901,2901,2901,2901,2887,2887,2887,2887,2887,2887,2887,2887,2887,2887,2887,2887,2887,2887,2887,2887,2887,2887,2887,2901,2901,2901,2901,2914,2914,2914,2914,2914,2914,2914,2914,2914,2914,2914,2914,2914,2914,2901,2901,2901,2901,2901,2901,2887,2887,2887,2874,2874,2874,2874,2860,2860,2860,2860,2860,2847,2847,2847,2847,2860,2860,2860,2860,2874,2874,2874,2874,2874,2874,2874,2860,2860,2860,2860,2860,2847,2847,2847,2834,2834,2821,2821,2821,2796,2796,2796,2796,2783,2783,2783,2783,2783,2783,2771,2771,2771,2771,2771,2758,2746,2746,2734,2734,2734,2734,2734,2722,2722,2722,2710,2710,2710,2710,2710,2698,2698,2698,2698,2698,2698,2710,2710,2710,2710,2710,2710,2710,2710,2710,2710,2710,2710,2710,2698,2698,2686,2675,2675,2675,2675,2675,2675,2675,2663,2640,2640,2618,2618,2585,2553,2553,2512,2471,2471,2433,2433,2395,2367,2367,2340,2340,2323,2297,2297,2272,2272,2255,2255,0,2239,2239,2207,2176,2176,2176,0,0,0,0,0,0,0,0,0,0,0,0,1907,1907,1907,1907,0,0,0,1861,1861,0,0,0,1791,1781,1781,1765,1765,1755,1740,1740,1721,1707,1707,1688,1688,1670,1656,1656,1639,1639,1626,1613,1613,1609,1609,1605,1605,1605,1601,1601,1601,1601,1601,1601,1617,1639,1639,1665,1697,1697,1745,1812,1812,1884,1937,1968,1968,1968,1968,1955,1955,1949,1925,1925,1907,1907,1889,1872,1872,1855,1855,1839,1817,1817,1796,1796,1781,1770,1770,1750,1750,1726,1712,1712,1697,1688,1688,1674,1674,1661,1652,1652,1648,1648,1643,1643,1643,1643,1643,1643,1643,1643,1643,1643,1643,1643,1648,1665,1665,1670,1670,1670,1674,1674,1679,0,0,0,0,0,0,0,0,0,0,0,0,0,0,0,0,0,0,0,0,0,0,0,0,0,0,0,0,0,0,0,0,3433,3433,3531,3531,0,0,0,3656,3656,3656,3678,3678,3700,3700,3700,3700,3700,3678,3678,3656,3634
0,0,0,0,0,0,0,0,0,0,0,0,0,0,0,0,0,0,0,0,0,0,0,0,0,0,0,0,0,0,0,0,0,0,0,0,0,0,0,0,0,0,0,0,0,0,0,0,0,0,0,0,0,0,0,0,0,0,0,0,0,0,0,0,0,0,0,0,0,0,0,0,0,0,0,0,0,0,0,0,0,0,0,0,0,0,0,0,0,0,0,0,2386,2386,2386,2395,2395,2404,2404,2404,2404,2414,2414,2414,2414,2423,2433,2433,2442,2452,2452,2462,2471,2471,2481,2481,2491,2512,2512,2512,2522,2522,2522,2522,2543,2564,2564,2596,2618,2618,2652,2686,2686,2734,2771,2771,2796,2796,2821,2821,2821,2834,2847,2847,2860,2860,2860,2860,2860,2860,2860,2860,2874,2887,2887,2887,2887,2887,2887,2887,2901,2901,2901,2901,2901,2901,2901,2901,2901,2901,2901,2901,2901,2901,2901,2887,2887,2887,2887,2887,2887,2887,2887,2887,2887,2887,2887,2887,2887,2887,2901,2901,2901,2901,2901,2901,2901,2901,2914,2914,2914,2914,2901,2901,2901,2901,2901,2901,2901,2901,2901,2901,2901,2901,2901,2901,2901,2914,2914,2928,2928,2928,2942,2942,2956,2956,2956,2970,2970,2970,2970,2970,2970,2970,2970,2970,2970,2970,2970,2970,2970,2970,2970,2970,2970,2970,2970,2970,2970,2970,2970,2970,2970,2970,2970,2970,2956,2956,2956,2942,2942,2942,2942,2942,2928,2928,2928,2914,2914,2914,2914,2914,2914,2914,2901,2901,2901,2901,2901,2901,2887,2887,2887,2887,2887,2887,2887,2887,2887,2887,2887,2887,2887,2887,2887,2887,2887,2887,2887,2901,2901,2901,2901,2901,2901,2914,2914,2914,2914,2914,2914,2914,2928,2928,2928,2928,2928,2914,2914,2914,2914,2914,2901,2901,2901,2901,2901,2901,2887,2887,2887,2874,2874,2860,2860,2860,2860,2860,2860,2847,2847,2847,2847,2847,2860,2860,2860,2860,2874,2874,2874,2874,2874,2874,2860,2860,2860,2860,2860,2860,2847,2847,2847,2834,2834,2821,2821,2821,2796,2796,2796,2796,2783,2771,2771,2771,2758,2758,2758,2758,2758,2758,2758,2746,2734,2734,2734,2734,2722,2722,2722,2722,2710,2710,2710,2710,2710,2710,2710,2698,2698,2698,2698,2698,2698,2710,2710,2710,2710,2710,2710,2710,2710,2722,2722,2722,2722,2722,2710,2710,2698,2686,2686,2686,2686,2686,2675,2675,2675,2640,2640,2618,2596,2585,2553,2553,2512,2471,2471,2433,2433,2395,2367,2367,2340,2340,2323,2288,2288,2263,2263,2247,2247,0,2231,2199,2199,2176,2176,2176,0,0,0,0,0,0,0,0,0,0,0,0,1907,1907,1901,1901,1901,1895,1895,1867,1867,0,0,0,0,1781,1781,1765,1765,1755,1740,1740,1721,1707,1707,1688,1688,1670,1656,1656,1639,1639,1626,1613,1613,1609,1609,1609,1605,1605,1601,1601,1601,1601,1605,1605,1617,1639,1639,1665,1697,1697,1745,1812,1884,1884,1943,1974,1968,1968,1968,1955,1955,1949,1925,1925,1907,1907,1889,1872,1872,1855,1855,1833,1812,1812,1796,1796,1781,1765,1765,1750,1750,1726,1712,1712,1697,1688,1688,1674,1674,1661,1652,1652,1648,1648,1643,1643,1643,1643,1643,1643,1643,1643,1643,1643,1643,1643,1652,1661,1661,1670,1670,1670,1674,1674,1679,0,0,0,0,0,0,0,0,0,0,0,0,0,0,0,0,0,0,0,0,0,0,0,0,0,0,0,0,0,0,0,0,0,0,0,0,0,0,0,0,0,3838,3838,3700,3700,3700,3700,3700,3700,3678,3678,3656,3634
0,0,0,0,0,0,0,0,0,0,0,0,0,0,0,0,0,0,0,0,0,0,0,0,0,0,0,0,0,0,0,0,0,0,0,0,0,0,0,0,0,0,0,0,0,0,0,0,0,0,0,0,0,0,0,0,0,0,0,0,0,0,0,0,0,0,0,0,0,0,0,0,0,0,0,0,0,0,0,0,0,0,0,0,0,0,0,0,0,0,0,0,2386,2386,2386,2395,2395,2404,2404,2404,2404,2414,2414,2414,2414,2423,2433,2433,2442,2452,2452,2462,2462,2462,2471,2471,2491,2501,2501,2501,2512,2512,2512,2512,2543,2553,2553,2596,2618,2618,2652,2686,2686,2722,2771,2771,2796,2796,2821,2821,2821,2834,2847,2847,2847,2847,2847,2860,2860,2860,2860,2860,2874,2874,2874,2887,2874,2874,2887,2887,2901,2901,2901,2901,2901,2901,2901,2901,2901,2901,2901,2901,2901,2901,2901,2887,2887,2887,2887,2887,2887,2887,2887,2887,2887,2887,2887,2887,2887,2887,2901,2901,2901,2901,2901,2901,2901,2901,2901,2901,2901,2901,2901,2901,2901,2901,2901,2901,2901,2901,2901,2901,2901,2901,2901,2901,2901,2914,2914,2928,2928,2928,2942,2942,2956,2956,2956,2970,2970,2970,2970,2970,2970,2970,2970,2970,2970,2970,2985,2970,2970,2970,2970,2970,2970,2970,2970,2970,2970,2970,2970,2970,2970,2970,2970,2956,2956,2956,2956,2942,2942,2942,2942,2942,2928,2928,2928,2914,2914,2914,2914,2914,2914,2914,2901,2901,2901,2901,2901,2901,2887,2887,2887,2887,2887,2887,2887,2887,2887,2887,2887,2887,2887,2887,2887,2887,2887,2887,2887,2901,2901,2901,2901,2901,2901,2914,2914,2914,2914,2914,2914,2914,2928,2928,2928,2928,2928,2914,2914,2914,2901,2901,2901,2901,2901,2887,2887,2887,2887,2887,2874,2874,2874,2860,2860,2860,2860,2860,2860,2847,2847,2847,2847,2847,2860,2860,2860,2860,2860,2860,2874,2874,2860,2860,2860,2860,2860,2860,2860,2860,2847,2847,2847,2834,2834,2821,2821,2821,2796,2796,2796,2796,2783,2771,2771,2771,2758,2758,2758,2758,2758,2758,2758,2746,2734,2734,2734,2734,2722,2722,2722,2722,2710,2710,2698,2698,2698,2698,2698,2698,2698,2698,2698,2698,2698,2698,2710,2710,2710,2710,2710,2710,2710,2722,2722,2722,2722,2722,2710,2710,2698,2686,2686,2686,2686,2686,2675,2675,2675,2652,2652,2629,2596,2596,2553,2553,2512,2471,2471,2433,2433,2395,2367,2367,2332,2332,2314,2280,2280,2255,2255,2239,2239,0,2215,2199,2199,2176,2176,2176,0,0,0,0,0,0,0,0,0,0,0,0,1907,1907,1901,1901,1901,1895,1895,1872,1872,0,0,0,0,1781,1781,1765,1765,1755,1740,1740,1721,1707,1707,1688,1688,1670,1656,1656,1639,1639,1626,1613,1613,1609,1609,1609,1605,1605,1601,1601,1601,1601,1605,1605,1613,1635,1635,1661,1697,1697,1745,1812,1878,1878,1943,1974,1974,1974,1974,1961,1961,1949,1931,1931,1913,1913,1889,1872,1872,1855,1855,1828,1812,1812,1796,1796,1781,1765,1765,1750,1731,1731,1716,1716,1702,1688,1688,1679,1679,1665,1656,1656,1652,1652,1648,1643,1643,1643,1643,1643,1643,1643,1643,1648,1648,1648,1652,1661,1661,1670,1670,1670,1674,1674,1679,0,0,0,0,0,0,0,0,0,0,0,0,0,0,0,0,0,0,0,0,0,0,0,0,0,0,0,0,0,0,0,0,0,0,0,0,0,0,0,3986,3986,3838,3838,3838,3838,3838,3838,3791,3791,3767,3767,3745,3745
0,0,0,0,0,0,0,0,0,0,0,0,0,0,0,0,0,0,0,0,0,0,0,0,0,0,0,0,0,0,0,0,0,0,0,0,0,0,0,0,0,0,0,0,0,0,0,0,0,0,0,0,0,0,0,0,0,0,0,0,0,0,0,0,0,0,0,0,0,0,0,0,0,0,0,0,0,0,0,0,0,0,0,0,0,0,0,0,0,0,0,2367,2367,2386,2386,2395,2395,2395,2395,2395,2404,2404,2404,2414,2414,2414,2433,2433,2433,2442,2442,2452,2462,2462,2462,2462,2481,2491,2491,2491,2512,2512,2512,2512,2543,2553,2553,2596,2618,2618,2652,2686,2686,2722,2771,2771,2796,2796,2821,2821,2821,2834,2847,2847,2847,2847,2847,2860,2860,2860,2860,2860,2874,2874,2874,2887,2874,2874,2887,2887,2887,2887,2887,2901,2901,2901,2901,2901,2901,2901,2901,2901,2901,2901,2901,2887,2887,2887,2887,2887,2874,2874,2874,2874,2874,2874,2874,2874,2874,2887,2887,2887,2887,2901,2887,2887,2887,2901,2901,2901,2901,2901,2901,2901,2901,2887,2887,2887,2887,2901,2901,2901,2901,2901,2901,2901,2901,2914,2914,2928,2928,2942,2942,2942,2956,2956,2956,2970,2970,2970,2970,2970,2985,2985,2985,2985,2985,2985,2985,2985,2970,2970,2970,2970,2970,2970,2970,2970,2970,2970,2970,2970,2970,2970,2970,2956,2956,2956,2956,2942,2942,2942,2942,2928,2928,2928,2928,2914,2914,2914,2914,2914,2914,2914,2901,2901,2901,2901,2901,2901,2887,2887,2887,2887,2887,2887,2887,2887,2887,2887,2887,2887,2887,2887,2901,2901,2901,2901,2901,2901,2901,2901,2914,2914,2914,2914,2914,2928,2928,2928,2928,2928,2928,2928,2928,2914,2914,2914,2914,2914,2901,2901,2901,2901,2901,2887,2887,2887,2887,2887,2874,2874,2874,2860,2860,2860,2860,2860,2860,2860,2860,2860,2860,2860,2860,2860,2860,2860,2860,2860,2874,2874,2860,2860,2860,2860,2860,2860,2860,2847,2847,2847,2834,2834,2834,2821,2821,2808,2783,2783,2783,2783,2771,2771,2771,2758,2746,2746,2746,2746,2746,2746,2746,2746,2734,2734,2722,2722,2722,2722,2722,2722,2710,2710,2698,2698,2698,2686,2686,2686,2686,2686,2686,2698,2698,2698,2710,2710,2710,2722,2722,2722,2722,2734,2734,2734,2734,2734,2722,2722,2710,2710,2710,2698,2698,2710,2698,2698,2675,2652,2652,2629,2596,2596,2553,2553,2512,2471,2471,2433,2433,2395,2367,2367,2332,2332,2314,2280,2280,2255,2255,2239,2239,0,2215,2191,2191,2168,2168,2168,0,0,0,0,0,0,0,0,0,0,0,0,1907,1907,1901,1901,1901,1895,1895,1872,1833,1833,1833,0,1791,1781,1781,1765,1755,1755,1740,1740,1721,1707,1707,1688,1688,1674,1656,1656,1639,1639,1630,1617,1617,1613,1613,1609,1605,1605,1605,1605,1605,1605,1605,1605,1613,1635,1635,1661,1697,1697,1745,1812,1878,1878,1943,1974,1974,1974,1974,1968,1968,1955,1931,1931,1913,1913,1889,1872,1872,1855,1855,1828,1812,1812,1796,1796,1781,1765,1765,1750,1731,1731,1716,1716,1702,1688,1688,1679,1679,1665,1656,1656,1652,1652,1648,1643,1643,1643,1643,1643,1643,1643,1643,1643,1648,1648,1652,1661,1661,1665,1670,1670,1674,1674,1679,0,0,0,0,0,0,0,0,0,0,0,0,0,0,0,0,0,0,0,0,0,0,0,0,0,0,0,0,0,0,0,0,0,0,0,0,0,0,0,3986,3986,3961,3935,3935,3910,3910,3910,3886,3886,3862,3838,3838,3814
0,0,0,0,0,0,0,0,0,0,0,0,0,0,0,0,0,0,0,0,0,0,0,0,0,0,0,0,0,0,0,0,0,0,0,0,0,0,0,0,0,0,0,0,0,0,0,0,0,0,0,0,0,0,0,0,0,0,0,0,0,0,0,0,0,0,0,0,0,0,0,0,0,0,0,0,0,0,0,0,0,0,0,0,0,0,0,0,0,0,0,2367,2367,0,2395,2395,2395,2395,2395,2395,2404,2404,2404,2414,2414,2414,2433,2433,2433,2442,2442,2452,2462,2462,2462,2462,2481,2491,2491,2491,2491,2491,2501,2501,2522,2553,2553,2585,2618,2618,2652,2686,2686,2722,2758,2758,2783,2783,2808,2821,2821,2834,2834,2834,2834,2834,2834,2847,2847,2847,2847,2847,2860,2860,2860,2874,2860,2860,2860,2860,2874,2874,2874,2874,2874,2874,2887,2887,2887,2887,2887,2887,2887,2887,2887,2874,2874,2874,2874,2874,2860,2860,2860,2860,2874,2874,2874,2874,2874,2887,2887,2887,2887,2901,2887,2887,2887,2901,2901,2901,2901,2901,2901,2901,2901,2887,2887,2887,2887,2901,2901,2901,2901,2901,2901,2901,2901,2914,2914,2928,2928,2928,2942,2942,2956,2956,2956,2970,2970,2970,2970,2970,2985,2985,2985,2985,2985,2985,2985,2985,2970,2970,2970,2970,2970,2970,2970,2970,2970,2970,2970,2956,2956,2956,2956,2956,2956,2956,2942,2942,2942,2928,2928,2928,2928,2928,2928,2914,2914,2914,2914,2914,2901,2901,2901,2901,2901,2901,2901,2887,2887,2887,2887,2887,2887,2887,2887,2887,2887,2887,2887,2887,2901,2901,2901,2901,2901,2901,2901,2914,2914,2914,2914,2914,2928,2928,2928,2928,2928,2928,2928,2928,2928,2928,2928,2914,2914,2914,2914,2914,2901,2901,2901,2887,2887,2887,2887,2887,2874,2874,2874,2874,2874,2860,2860,2860,2860,2860,2860,2860,2860,2860,2860,2860,2860,2860,2860,2860,2860,2860,2860,2860,2860,2860,2860,2860,2860,2847,2847,2847,2847,2847,2834,2834,2834,2808,2808,2796,2783,2783,2783,2771,2771,2758,2758,2746,2746,2746,2734,2734,2734,2734,2746,2746,2734,2734,2722,2722,2722,2722,2722,2722,2710,2710,2698,2698,2698,2686,2686,2686,2686,2686,2686,2698,2698,2710,2710,2710,2722,2722,2722,2734,2734,2734,2746,2746,2746,2746,2722,2722,2710,2710,2710,2698,2698,2710,2698,2698,2675,2652,2652,2629,2596,2596,2553,2553,2512,2471,2471,2433,2433,2395,2358,2358,2332,2332,2305,2280,2280,2247,2247,2239,2239,0,2207,2183,2183,2160,2160,2160,0,0,0,0,0,0,0,0,0,0,0,0,1907,1907,1901,1901,1901,1895,1895,1872,1833,1833,1833,0,1791,1786,1786,1765,1755,1755,1740,1740,1726,1707,1707,1688,1688,1674,1656,1656,1639,1639,1630,1617,1617,1613,1613,1609,1609,1609,1605,1605,1609,1605,1605,1605,1613,1635,1635,1661,1693,1693,1740,1807,1872,1872,1943,1974,1974,1974,1974,1968,1968,1955,1931,1931,1913,1913,1889,1872,1872,1855,1855,1828,1812,1812,1791,1791,1781,1765,1765,1745,1731,1731,1716,1716,1702,1688,1688,1679,1679,1665,1656,1656,1652,1652,1648,1648,1648,1643,1643,1648,1643,1643,1643,1643,1648,1648,1652,1661,1661,1665,1670,1670,1674,1674,1679,0,0,0,0,0,0,0,0,0,0,0,0,0,0,0,0,0,0,0,0,0,0,0,0,0,0,0,0,0,0,0,0,0,0,0,0,0,0,0,3986,3986,3961,3935,3935,3910,3910,3910,3886,3886,3862,3838,3838,3814
0,0,0,0,0,0,0,0,0,0,0,0,0,0,0,0,0,0,0,0,0,0,0,0,0,0,0,0,0,0,0,0,0,0,0,0,0,0,0,0,0,0,0,0,0,0,0,0,0,0,0,0,0,0,0,0,0,0,0,0,0,0,0,0,0,0,0,0,0,0,0,0,0,0,0,0,0,0,0,0,0,0,0,0,0,0,0,0,0,0,0,2367,2367,2386,2386,2395,2395,2386,2386,2386,2395,2395,2395,2404,2414,2414,2423,2423,2433,2433,2433,2452,2462,2462,2462,2462,2471,2481,2481,2481,2491,2491,2501,2501,2522,2543,2543,2585,2618,2618,2652,2675,2675,2722,2746,2746,2771,2771,2796,2808,2808,2821,2821,2821,2834,2834,2834,2847,2847,2847,2847,2847,2860,2860,2860,2874,2860,2860,2860,2860,2874,2874,2874,2874,2874,2874,2887,2887,2887,2887,2887,2887,2887,2887,2887,2874,2874,2874,2874,2874,2860,2860,2860,2860,2860,2860,2860,2860,2860,2860,2860,2860,2874,2874,2874,2874,2874,2874,2874,2874,2874,2874,2874,2874,2874,2874,2874,2860,2860,2874,2874,2874,2860,2860,2860,2860,2874,2874,2874,2887,2887,2887,2901,2901,2914,2928,2928,2942,2956,2956,2956,2956,2970,2970,2970,2985,2985,2985,2985,2970,2970,2970,2956,2956,2956,2956,2970,2970,2970,2970,2970,2956,2956,2956,2956,2956,2956,2956,2942,2942,2942,2928,2928,2928,2928,2928,2928,2914,2914,2914,2914,2914,2901,2901,2901,2901,2901,2901,2901,2887,2887,2887,2887,2887,2887,2887,2887,2887,2887,2887,2887,2887,2901,2901,2901,2901,2901,2901,2901,2914,2914,2914,2914,2914,2928,2928,2928,2928,2928,2928,2928,2928,2928,2928,2914,2914,2914,2901,2901,2901,2887,2887,2887,2874,2874,2874,2874,2874,2874,2874,2860,2860,2860,2860,2860,2860,2860,2860,2860,2847,2847,2847,2847,2847,2847,2860,2860,2860,2860,2860,2860,2860,2860,2860,2860,2860,2860,2847,2847,2847,2847,2847,2834,2834,2834,2808,2808,2796,2783,2783,2783,2771,2771,2758,2758,2746,2746,2746,2734,2734,2734,2734,2734,2722,2722,2722,2722,2722,2722,2722,2722,2710,2710,2710,2698,2698,2698,2686,2686,2686,2686,2686,2686,2698,2698,2698,2710,2710,2722,2722,2722,2734,2734,2734,2746,2746,2746,2746,2734,2722,2722,2722,2722,2710,2710,2710,2698,2686,2686,2663,2663,2640,2596,2596,2564,2564,2512,2471,2471,2433,2433,2395,2349,2349,2332,2332,2305,2280,2280,2247,2247,2247,0,0,2207,2183,2183,2160,2160,2160,0,0,0,0,0,0,0,0,0,0,0,0,1907,1907,1901,1901,1901,1901,0,1872,1833,1833,1833,0,1791,1786,1786,1765,1755,1755,1740,1740,1726,1707,1707,1688,1688,1674,1656,1656,1639,1639,1630,1617,1617,1613,1613,1609,1609,1609,1605,1605,1605,1605,1605,1605,1613,1635,1635,1661,1693,1693,1740,1801,1867,1867,1943,1980,1980,1974,1974,1968,1968,1955,1937,1937,1913,1913,1889,1872,1872,1850,1850,1828,1812,1812,1791,1791,1781,1765,1765,1745,1731,1731,1716,1716,1702,1693,1693,1679,1679,1665,1656,1656,1652,1652,1648,1648,1648,1643,1643,1648,1643,1643,1643,1643,1648,1648,1652,1661,1661,1665,1670,1670,1670,1670,1674,0,0,0,0,0,0,0,0,0,0,0,0,0,0,0,0,0,0,0,0,0,0,0,0,0,0,0,0,0,0,0,0,0,0,0,0,0,0,0,4147,4147,4119,4092,4092,4065,4038,4038,3986,3986,3961,3935,3935,3910
0,0,0,0,0,0,0,0,0,0,0,0,0,0,0,0,0,0,0,0,0,0,0,0,0,0,0,0,0,0,0,0,0,0,0,0,0,0,0,0,0,0,0,0,0,0,0,0,0,0,0,0,0,0,0,0,0,0,0,0,0,0,0,0,0,0,0,0,0,0,0,0,0,0,0,0,0,0,0,0,0,0,0,0,0,0,0,0,0,0,0,0,2386,2386,2386,0,2386,2386,2386,2386,2386,2395,2395,2404,2414,2414,2423,2423,2423,2433,2433,2452,2462,2462,2462,2462,2471,2481,2481,2481,2491,2491,2501,2501,2522,2543,2543,2585,2618,2618,2652,2675,2675,2722,2746,2746,2771,2771,2796,2808,2808,2821,2821,2821,2834,2834,2834,2834,2834,2847,2847,2847,2847,2847,2847,2860,2860,2860,2860,2847,2847,2847,2847,2860,2860,2860,2860,2860,2860,2860,2860,2874,2874,2860,2860,2860,2847,2847,2847,2847,2847,2834,2834,2834,2834,2834,2834,2834,2834,2834,2834,2834,2847,2847,2847,2847,2847,2847,2847,2847,2847,2847,2847,2847,2847,2847,2847,2834,2834,2874,2874,2874,2860,2860,2860,2860,2874,2874,2874,2887,2887,2887,2901,2901,2914,2928,2928,2942,2956,2956,2956,2956,2970,2970,2970,2985,2985,2985,2985,2970,2970,2970,2956,2956,2956,2942,2942,2942,2928,2928,2928,2914,2914,2914,2914,2901,2901,2901,2901,2887,2887,2887,2887,2887,2874,2874,2874,2874,2874,2874,2874,2860,2860,2860,2860,2860,2860,2847,2847,2834,2834,2834,2834,2834,2834,2821,2821,2821,2834,2847,2847,2847,2847,2847,2860,2860,2860,2874,2874,2874,2887,2887,2887,2887,2887,2887,2887,2887,2928,2928,2928,2928,2928,2928,2914,2914,2914,2901,2901,2901,2887,2887,2887,2874,2874,2874,2874,2874,2874,2874,2860,2860,2860,2860,2860,2860,2860,2860,2860,2847,2847,2847,2847,2847,2847,2847,2847,2847,2847,2847,2847,2847,2847,2847,2847,2847,2847,2847,2847,2834,2834,2834,2834,2821,2821,2796,2796,2783,2783,2783,2758,2758,2758,2746,2746,2734,2734,2734,2734,2734,2734,2722,2722,2722,2722,2722,2710,2710,2710,2710,2710,2710,2710,2710,2698,2698,2698,2686,2686,2686,2686,2686,2686,2698,2686,2686,2698,2698,2722,2734,2734,2746,2746,2746,2758,2758,2758,2758,2746,2734,2734,2734,2734,2734,2722,2722,2710,2686,2686,2663,2663,2640,2607,2607,2564,2564,2522,2471,2471,2433,2433,2395,2349,2349,2323,2323,2297,2272,2272,2247,2247,2247,0,0,2199,2176,2176,2153,2153,2153,0,0,0,0,0,0,0,0,0,0,0,0,1907,1907,1901,1901,1901,1901,1884,1878,1878,0,0,0,1801,1786,1786,1770,1755,1755,1740,1740,1726,1707,1707,1688,1688,1674,1656,1656,1643,1643,1630,1617,1617,1613,1613,1609,1609,1609,1609,1605,1605,1605,1609,1613,1613,1635,1635,1661,1693,1693,1801,1801,1867,1867,1943,1980,1980,1980,1980,1974,1974,1955,1937,1937,1913,1913,1889,1872,1872,1850,1850,1828,1812,1812,1791,1781,1781,1760,1760,1745,1731,1731,1716,1716,1702,1688,1688,1679,1679,1665,1656,1656,1652,1648,1648,1643,1643,1643,1643,1643,1643,1643,1643,1643,1648,1648,1652,1661,1661,1661,1665,1665,1670,1670,1674,0,0,0,0,0,0,0,0,0,0,0,0,0,0,0,0,0,0,0,0,0,0,0,0,0,0,0,0,0,0,0,0,0,0,0,0,0,0,0,4382,4382,4351,4291,4291,4232,4203,4203,4147,4147,4092,4065,4065,4038
0,0,0,0,0,0,0,0,0,0,0,0,0,0,0,0,0,0,0,0,0,0,0,0,0,0,0,0,0,0,0,0,0,0,0,0,0,0,0,0,0,0,0,0,0,0,0,0,0,0,0,0,0,0,0,0,0,0,0,0,0,0,0,0,0,0,0,0,0,0,0,0,0,0,0,0,0,0,0,0,0,0,0,0,0,0,0,0,0,0,0,0,0,0,0,0,2386,2386,2386,2386,2386,2395,2395,2404,2414,2414,2423,2423,2423,2433,2433,2442,2452,2452,2452,2452,2462,2471,2471,2481,2491,2491,2501,2501,2522,2543,2543,2574,2607,2607,2629,2652,2652,2675,2710,2710,2734,2734,2758,2771,2771,2783,2796,2796,2808,2821,2821,2821,2821,2821,2821,2821,2821,2821,2821,2821,2821,2821,2821,2808,2808,2808,2808,2821,2821,2821,2821,2821,2821,2821,2821,2874,2874,2860,2860,2860,2847,2847,2847,2847,2847,2834,2834,2834,2834,2834,2834,2834,2834,2834,2834,2834,2847,2847,2847,2847,2847,2847,2847,2847,2847,2847,2847,2847,2847,2847,2847,2834,2834,2834,2834,2834,2834,2821,2821,2821,2821,2834,2834,2834,2834,2834,2847,2847,2860,2874,2874,2901,2914,2914,2928,2928,2942,2956,2956,2970,2985,2985,2985,2970,2956,2956,2942,2928,2928,2914,2914,2914,2901,2901,2887,2874,2874,2860,2860,2860,2860,2860,2847,2847,2847,2834,2834,2834,2834,2834,2821,2821,2821,2821,2821,2821,2860,2860,2860,2860,2860,2847,2847,2834,2834,2834,2834,2834,2834,2821,2821,2821,2834,2847,2847,2847,2847,2847,2860,2860,2860,2874,2874,2874,2887,2887,2887,2887,2887,2887,2887,2874,2874,2874,2874,2860,2834,2834,2834,2821,2821,2821,2821,2808,2808,2808,2808,2821,2821,2821,2821,2821,2821,2821,2821,2808,2808,2808,2808,2808,2808,2808,2808,2796,2796,2796,2796,2796,2796,2808,2808,2808,2808,2808,2808,2808,2808,2808,2808,2808,2808,2808,2808,2796,2796,2796,2796,2796,2796,2783,2783,2758,2746,2746,2746,2758,2758,2746,2746,2734,2734,2734,2734,2734,2734,2722,2722,2722,2722,2722,2710,2710,2710,2710,2710,2710,2710,2710,2698,2698,2698,2686,2686,2686,2686,2686,2686,2698,2686,2686,2698,2698,2710,2734,2734,2734,2746,2746,2758,2758,2746,2746,2746,2734,2734,2734,2734,2734,2722,2722,2710,2686,2686,2663,2663,2640,2607,2607,2564,2564,2522,2471,2471,2433,2433,2395,2349,2349,2323,2323,2297,2263,2263,2239,2239,2223,2223,0,2191,2168,2168,2153,2153,2153,0,0,2131,2131,0,0,0,0,0,0,0,0,1907,1907,1907,1901,1901,1901,1884,1884,1884,0,0,0,1801,1791,1791,1775,1760,1760,1740,1740,1726,1707,1707,1688,1688,1674,1656,1656,1643,1643,1630,1617,1617,1613,1613,1609,1609,1609,1609,1605,1605,1605,1609,1613,1613,1630,1630,1661,1693,1693,1801,1801,1867,1867,1943,1980,1980,1980,1980,1974,1974,1955,1937,1937,1913,1913,1889,1872,1872,1850,1850,1828,1807,1807,1791,1775,1775,1760,1760,1745,1731,1731,1716,1716,1702,1688,1688,1679,1679,1665,1656,1656,1652,1648,1648,1643,1643,1643,1643,1643,1643,1643,1643,1643,1648,1648,1652,1661,1661,1661,1665,1665,1670,1670,1674,0,0,0,0,0,0,0,0,0,0,0,0,0,0,0,0,0,0,0,0,0,0,0,0,0,4351,4351,4413,4413,4477,4716,4716,4904,4904,4827,4827,4753,4646,4646,4382,4382,4351,4291,4291,4232,4203,4203,4147,4147,4092,4065,4065,4038
0,0,0,0,0,0,0,0,0,0,0,0,0,0,0,0,0,0,0,0,0,0,0,0,0,0,0,0,0,0,0,0,0,0,0,0,0,0,0,0,0,0,0,0,0,0,0,0,0,0,0,0,0,0,0,0,0,0,0,0,0,0,0,0,0,0,0,0,0,0,0,0,0,0,0,0,0,0,0,0,0,0,0,0,0,0,0,0,0,0,0,0,2376,2376,2376,2376,2376,2376,2376,2376,2386,2386,2386,2395,2404,2404,2414,2414,2423,2423,2423,2442,2452,2452,2452,2452,2462,2462,2462,2481,2481,2481,2491,2512,2512,2532,2532,2564,2585,2585,2607,2629,2629,2652,2710,2710,2734,2734,2758,2771,2771,2783,2796,2796,2808,2821,2821,2821,2821,2821,2821,2821,2821,2821,2821,2821,2821,2821,2821,2808,2808,2808,2808,2821,2821,2821,2821,2821,2821,2821,2821,2834,2834,2821,2821,2821,2821,2821,2808,2808,2808,2808,2808,2796,2796,2796,2796,2796,2796,2796,2796,2796,2808,2808,2808,2808,2808,2808,2808,2808,2808,2808,2808,2808,2808,2796,2796,2796,2796,2796,2796,2796,2783,2783,2783,2783,2783,2796,2796,2796,2796,2796,2796,2796,2808,2821,2821,2860,2874,2874,2887,2887,2914,2956,2956,2970,2985,2985,2985,2970,2956,2956,2942,2928,2928,2914,2914,2914,2901,2901,2887,2874,2874,2860,2860,2860,2860,2860,2847,2847,2847,2834,2834,2834,2834,2834,2821,2821,2821,2821,2821,2808,2796,2796,2796,2796,2783,2771,2771,2771,2746,2746,2746,2746,2746,2746,2746,2734,2734,2746,2746,2746,2746,2746,2771,2771,2771,2783,2783,2796,2796,2796,2796,2783,2783,2783,2783,2783,2783,2758,2758,2758,2734,2734,2734,2734,2722,2722,2722,2722,2722,2722,2722,2722,2722,2734,2734,2734,2746,2746,2746,2758,2758,2758,2808,2808,2808,2808,2808,2796,2796,2796,2796,2796,2796,2808,2808,2808,2808,2808,2808,2808,2808,2808,2808,2808,2808,2808,2808,2796,2796,2796,2796,2796,2796,2783,2783,2758,2746,2746,2746,2734,2734,2734,2734,2722,2722,2722,2710,2710,2722,2710,2710,2710,2710,2710,2698,2698,2710,2710,2710,2710,2698,2698,2698,2698,2675,2675,2675,2675,2675,2675,2675,2675,2675,2675,2675,2675,2686,2710,2710,2722,2734,2734,2734,2734,2734,2734,2734,2746,2746,2734,2734,2734,2722,2722,2710,2686,2686,2663,2663,2640,2607,2607,2574,2574,2522,2471,2471,2433,2433,2395,2358,2358,2323,2323,2297,2263,2263,2239,2239,2223,2223,0,2191,2168,2168,2153,2153,2153,0,0,2131,2131,0,0,0,0,0,0,0,0,1907,1907,1907,1901,1901,1901,1884,1884,1884,0,1828,1828,1801,1791,1791,1775,1760,1760,1740,1740,1726,1707,1707,1688,1688,1674,1656,1656,1643,1643,1630,1617,1617,1613,1613,1613,1609,1609,1609,1605,1605,1605,1609,1609,1609,1630,1630,1656,1693,1693,1807,1807,1867,1867,1943,1987,1987,1980,1980,1974,1974,1961,1937,1937,1913,1913,1889,1872,1872,1850,1850,1828,1807,1807,1791,1775,1775,1760,1760,1745,1731,1731,1716,1716,1702,1688,1688,1679,1679,1670,1656,1656,1652,1648,1648,1643,1643,1643,1643,1643,1643,1643,1643,1643,1648,1648,1648,1661,1661,1661,1665,1665,1670,1670,1674,0,0,0,0,0,0,0,0,0,0,0,0,0,0,0,0,0,0,0,0,0,0,0,0,0,4351,4351,4413,4413,4477,4716,4716,4904,4904,4827,4827,4753,4646,4646,4577,4510,4510,4477,4477,4413,4351,4351,4321,4291,4291,4291,4291,4261
0,0,0,0,0,0,0,0,0,0,0,0,0,0,0,0,0,0,0,0,0,0,0,0,0,0,0,0,0,0,0,0,0,0,0,0,0,0,0,0,0,0,0,0,0,0,0,0,0,0,0,0,0,0,0,0,0,0,0,0,0,0,0,0,0,0,0,0,0,0,0,0,0,0,0,0,0,0,0,0,0,0,0,0,0,0,0,0,0,0,0,0,2376,2376,2367,2367,2376,2376,2376,2376,2386,2386,2386,2395,2404,2404,2414,2414,2423,2423,2423,2442,2452,2452,2452,2452,2462,2462,2462,2481,2481,2481,2491,2512,2512,2532,2532,2564,2585,2585,2607,2629,2629,2652,2686,2686,2710,2710,2734,2746,2746,2758,2771,2771,2783,2783,2783,2783,2783,2783,2783,2783,2783,2783,2783,2783,2783,2783,2783,2771,2771,2783,2783,2783,2783,2783,2783,2783,2783,2783,2783,2796,2796,2783,2783,2783,2783,2783,2771,2771,2771,2771,2771,2771,2758,2758,2758,2758,2758,2758,2771,2771,2771,2771,2771,2771,2771,2808,2808,2808,2808,2808,2808,2808,2808,2796,2796,2796,2796,2796,2796,2796,2783,2783,2783,2783,2783,2796,2796,2796,2796,2796,2796,2796,2808,2821,2821,2860,2874,2874,2887,2887,2914,2928,2928,2956,2970,2970,2970,2956,2928,2928,2901,2860,2860,2860,2860,2847,2834,2834,2821,2821,2808,2796,2796,2796,2808,2808,2796,2796,2796,2783,2783,2783,2783,2783,2771,2771,2758,2758,2758,2746,2746,2746,2722,2722,2710,2698,2698,2698,2686,2686,2686,2686,2675,2675,2675,2675,2675,2686,2686,2686,2686,2686,2686,2686,2771,2783,2783,2796,2796,2796,2796,2783,2783,2783,2783,2783,2783,2758,2758,2758,2734,2734,2734,2734,2722,2722,2722,2722,2722,2722,2722,2722,2722,2734,2734,2734,2746,2746,2746,2758,2758,2758,2758,2758,2758,2758,2758,2771,2771,2758,2758,2758,2771,2771,2771,2771,2771,2771,2771,2771,2771,2771,2771,2758,2758,2758,2758,2758,2758,2758,2758,2758,2758,2746,2746,2746,2734,2734,2722,2722,2722,2710,2710,2698,2698,2698,2698,2698,2698,2698,2698,2698,2698,2698,2698,2698,2698,2698,2698,2686,2686,2686,2675,2675,2675,2675,2675,2675,2675,2675,2675,2675,2675,2675,2675,2675,2686,2710,2710,2722,2734,2734,2734,2734,2734,2734,2734,2746,2746,2734,2734,2734,2722,2722,2710,2698,2698,2675,2675,2640,2607,2607,2564,2564,2512,2471,2471,2433,2433,2386,2349,2349,2314,2314,2288,2255,2255,2239,2239,2215,2215,0,2191,2168,2168,2153,2153,2153,0,0,2123,2123,0,0,0,0,0,0,0,0,1913,1913,1907,1907,1907,1907,1884,1884,1855,1855,1828,1812,1812,1796,1796,1781,1760,1760,1740,1740,1726,1707,1707,1688,1688,1674,1656,1656,1643,1643,1630,1617,1617,1613,1613,1613,1609,1609,1609,1605,1605,1605,1609,1609,1609,1630,1630,1656,1693,1693,1807,1807,1872,1872,1943,1987,1987,1980,1980,1974,1974,1961,1937,1937,1913,1913,1889,1872,1872,1850,1850,1828,1807,1807,1791,1775,1775,1760,1760,1745,1731,1731,1716,1716,1702,1688,1688,1679,1679,1665,1656,1656,1648,1643,1643,1639,1639,1639,1639,1639,1639,1639,1639,1639,1643,1643,1648,1656,1656,1661,1661,1661,1665,1665,1670,0,0,0,0,0,0,0,0,0,0,0,0,0,0,0,0,0,0,0,0,0,0,0,0,0,0,5149,5149,5149,5149,5149,5149,5023,5023,4943,4865,4865,4790,4790,4716,4681,4681,4611,4611,4413,4351,4351,4321,4291,4291,4291,4291,4261
0,0,0,0,0,0,0,0,0,0,0,0,0,0,0,0,0,0,0,0,0,0,0,0,0,0,0,0,0,0,0,0,0,0,0,0,0,0,0,0,0,0,0,0,0,0,0,0,0,0,0,0,0,0,0,0,0,0,0,0,0,0,0,0,0,0,0,0,0,0,0,0,0,0,0,0,0,0,0,0,0,0,0,0,0,0,0,0,0,0,0,0,0,0,2367,2367,2358,2358,2367,2367,2376,2386,2386,2395,2404,2404,2414,2414,2423,2423,2423,2442,2442,2442,2452,2452,2452,2462,2462,2471,2471,2471,2491,2512,2512,2532,2532,2553,2564,2564,2585,2596,2596,2618,2640,2640,2663,2663,2686,2698,2698,2710,2722,2722,2722,2734,2722,2722,2722,2722,2722,2722,2722,2722,2722,2734,2734,2734,2734,2734,2771,2783,2783,2783,2783,2783,2783,2783,2783,2783,2783,2796,2796,2783,2783,2783,2783,2783,2771,2771,2771,2771,2771,2771,2758,2758,2758,2758,2758,2758,2771,2771,2771,2771,2771,2771,2771,2771,2783,2783,2783,2783,2783,2783,2783,2771,2771,2771,2771,2771,2771,2771,2758,2758,2758,2758,2746,2746,2746,2758,2758,2771,2771,2771,2783,2796,2796,2821,2834,2834,2860,2860,2887,2914,2914,2928,2942,2942,2942,2914,2874,2874,2847,2847,2808,2783,2783,2771,2746,2746,2722,2722,2710,2710,2710,2710,2710,2710,2710,2796,2796,2783,2783,2783,2783,2783,2771,2771,2758,2758,2758,2746,2746,2746,2722,2722,2710,2698,2698,2698,2686,2686,2686,2686,2675,2675,2675,2675,2675,2686,2686,2686,2686,2686,2686,2686,2698,2698,2698,2698,2698,2698,2698,2698,2686,2686,2686,2686,2686,2675,2675,2663,2663,2663,2663,2663,2652,2652,2663,2663,2652,2652,2652,2675,2663,2663,2675,2675,2675,2686,2686,2698,2698,2698,2698,2698,2710,2722,2722,2722,2722,2722,2722,2722,2722,2734,2734,2734,2734,2734,2734,2734,2734,2734,2734,2722,2722,2722,2758,2758,2758,2758,2758,2758,2758,2746,2746,2746,2734,2734,2722,2722,2722,2710,2710,2698,2698,2698,2698,2698,2698,2698,2698,2698,2698,2698,2698,2698,2698,2698,2698,2686,2686,2686,2675,2675,2663,2663,2663,2663,2652,2652,2652,2652,2652,2652,2652,2652,2663,2686,2686,2698,2710,2710,2722,2722,2722,2722,2722,2734,2734,2734,2734,2722,2710,2710,2698,2686,2686,2663,2663,2640,2596,2596,2553,2553,2501,2462,2462,2423,2423,2386,2340,2340,2305,2305,2272,2255,2255,2231,2231,2215,2199,2199,2183,2160,2160,2153,2153,2153,0,0,2123,2123,0,0,0,0,0,0,0,0,1913,1913,1913,1907,1907,1907,1889,1889,1855,1855,1833,1812,1812,1801,1801,1786,1765,1765,1740,1740,1726,1707,1707,1688,1688,1674,1656,1656,1643,1643,1626,1617,1617,1613,1609,1609,1609,1609,1605,1605,1605,1605,1605,1609,1609,1626,1626,1652,1688,1688,1801,1801,1867,1867,1943,1987,1980,1980,1980,1974,1974,1961,1943,1943,1913,1913,1889,1872,1872,1850,1828,1828,1807,1807,1786,1775,1775,1760,1760,1745,1731,1731,1716,1716,1702,1688,1688,1679,1679,1665,1656,1656,1648,1643,1643,1639,1639,1639,1639,1639,1639,1639,1639,1639,1643,1643,1648,1656,1656,1661,1661,1661,1665,1665,1670,0,0,0,0,0,0,0,0,0,0,0,0,0,0,0,0,0,0,0,0,0,0,0,0,0,0,5149,5149,5149,5149,5149,5149,5023,5023,4943,4865,4865,4790,4790,4716,4681,4681,4611,4611,4543,4510,4510,4477,4445,4445,4445,4445,4445
0,0,0,0,0,0,0,0,0,0,0,0,0,0,0,0,0,0,0,0,0,0,0,0,0,0,0,0,0,0,0,0,0,0,0,0,0,0,0,0,0,0,0,0,0,0,0,0,0,0,0,0,0,0,0,0,0,0,0,0,0,0,0,0,0,0,0,0,0,0,0,0,0,0,0,0,0,0,0,0,0,0,0,0,0,0,0,0,0,0,0,0,0,0,2358,2358,2358,2358,2358,2358,2367,2376,2376,2395,2404,2404,2404,2404,2414,2423,2423,2433,2442,2442,2452,2452,2452,2462,2462,2471,2471,2471,2491,2512,2512,2532,2532,2553,2564,2564,2585,2596,2596,2618,2640,2640,2663,2663,2686,2698,2698,2710,2722,2722,2722,2734,2722,2722,2722,2722,2722,2722,2722,2722,2722,2734,2734,2734,2734,2734,2734,2734,2734,2746,2746,2746,2746,2746,2746,2746,2746,2746,2746,2758,2758,2758,2758,2758,2758,2758,2746,2746,2746,2746,2746,2746,2746,2746,2746,2746,2746,2746,2746,2746,2746,2746,2746,2746,2746,2746,2746,2746,2746,2746,2746,2746,2746,2746,2746,2746,2746,2746,2722,2710,2710,2710,2698,2698,2698,2722,2722,2722,2771,2771,2783,2796,2796,2821,2834,2834,2860,2860,2887,2914,2914,2928,2942,2942,2942,2914,2874,2874,2847,2847,2808,2783,2783,2771,2746,2746,2722,2722,2710,2710,2710,2710,2710,2710,2710,2722,2722,2710,2710,2710,2710,2710,2698,2698,2686,2686,2686,2686,2675,2675,2652,2652,2652,2640,2640,2640,2629,2629,2629,2629,2618,2618,2618,2618,2629,2629,2629,2629,2629,2629,2629,2629,2629,2640,2640,2652,2652,2652,2652,2629,2629,2629,2629,2629,2629,2607,2607,2607,2607,2607,2596,2596,2596,2596,2607,2596,2596,2652,2652,2675,2663,2663,2675,2675,2675,2686,2686,2698,2698,2698,2698,2698,2710,2722,2722,2722,2722,2722,2722,2722,2722,2734,2734,2734,2734,2734,2734,2734,2734,2734,2734,2722,2722,2722,2722,2722,2722,2722,2722,2722,2722,2722,2722,2710,2698,2698,2698,2698,2698,2686,2686,2686,2686,2686,2675,2675,2686,2686,2686,2686,2686,2686,2686,2686,2686,2686,2686,2675,2663,2663,2652,2652,2640,2629,2629,2629,2618,2618,2618,2629,2618,2618,2629,2629,2640,2652,2652,2675,2686,2686,2698,2698,2710,2722,2722,2722,2734,2734,2734,2722,2710,2710,2698,2686,2686,2663,2663,2640,2596,2596,2553,2553,2501,2462,2462,2423,2423,2386,2340,2340,2305,2305,2272,2255,2255,2231,2231,2215,2199,2199,2183,2160,2160,2145,2145,2138,2138,0,2123,2123,0,0,0,0,0,0,0,0,1913,1913,1913,1907,1907,1901,1889,1889,1855,1855,1833,1812,1812,1801,1801,1786,1765,1765,1740,1740,1726,1707,1707,1688,1688,1670,1652,1652,1639,1639,1626,1617,1617,1613,1609,1609,1609,1609,1605,1605,1605,1605,1605,1605,1605,1622,1622,1652,1688,1688,1801,1801,1867,1867,1943,1987,1980,1980,1980,1974,1974,1968,1943,1943,1919,1919,1889,1872,1872,1850,1828,1828,1807,1807,1786,1775,1775,1760,1760,1745,1731,1731,1716,1716,1702,1688,1688,1679,1679,1665,1656,1656,1648,1643,1643,1639,1639,1639,1635,1635,1635,1635,1635,1635,1639,1639,1643,1652,1652,1652,1656,1656,1661,1665,1665,0,0,0,0,0,0,0,0,0,0,0,0,0,0,0,0,0,0,0,0,0,0,0,0,0,0,0,0,0,0,0,0,0,0,0,0,0,4865,4865,4827,4790,4790,4753,4681,4681,4646,4646,4611,4611,4611,4611,4577,4577
0,0,0,0,0,0,0,0,0,0,0,0,0,0,0,0,0,0,0,0,0,0,0,0,0,0,0,0,0,0,0,0,0,0,0,0,0,0,0,0,0,0,0,0,0,0,0,0,0,0,0,0,0,0,0,0,0,0,0,0,0,0,0,0,0,0,0,0,0,0,0,0,0,0,0,0,0,0,0,0,0,0,0,0,0,0,0,0,0,0,0,0,0,0,2358,2358,2358,2358,2358,2358,2367,2376,2376,2395,2404,2404,2404,2404,2414,2423,2423,2433,2442,2442,2452,2452,2452,2462,2462,2471,2471,2471,2491,2512,2512,2522,2522,2543,2564,2564,2564,2574,2574,2585,2607,2607,2629,2629,2652,2652,2652,2663,2686,2686,2698,2698,2698,2698,2698,2698,2698,2698,2698,2710,2710,2710,2710,2722,2722,2722,2722,2722,2722,2722,2722,2722,2722,2722,2722,2734,2734,2734,2734,2734,2734,2734,2734,2734,2734,2734,2734,2734,2734,2734,2746,2746,2746,2746,2746,2746,2746,2746,2746,2746,2746,2746,2746,2746,2746,2746,2746,2746,2746,2746,2746,2746,2746,2746,2746,2746,2746,2746,2722,2710,2710,2710,2698,2698,2698,2722,2722,2722,2722,2722,2734,2746,2746,2771,2771,2796,2860,2860,2887,2914,2874,2874,2874,2874,2874,2808,2808,2874,2847,2847,2808,2686,2686,2686,2663,2663,2652,2652,2640,2640,2640,2629,2629,2629,2629,2640,2640,2652,2652,2640,2640,2640,2640,2640,2640,2640,2640,2618,2618,2618,2607,2607,2596,2596,2607,2607,2596,2596,2596,2629,2618,2618,2618,2618,2629,2629,2629,2629,2629,2629,2629,2629,2629,2640,2640,2652,2652,2652,2652,2629,2629,2629,2629,2629,2629,2607,2607,2607,2607,2607,2596,2596,2596,2596,2607,2596,2596,2618,2618,2618,2618,2629,2652,2652,2652,2663,2663,2663,2663,2663,2663,2663,2675,2675,2675,2675,2686,2686,2686,2686,2686,2698,2698,2698,2698,2698,2698,2698,2686,2686,2686,2686,2686,2686,2686,2686,2686,2686,2675,2675,2675,2675,2675,2675,2675,2675,2675,2675,2675,2663,2663,2663,2663,2663,2663,2663,2663,2663,2663,2663,2686,2686,2686,2686,2686,2686,2686,2675,2663,2663,2652,2652,2640,2629,2629,2629,2618,2618,2618,2629,2618,2618,2629,2629,2640,2652,2652,2675,2686,2686,2698,2698,2710,2722,2722,2722,2722,2722,2722,2722,2710,2710,2686,2675,2675,2652,2652,2629,2596,2596,2553,2553,2501,2452,2452,2414,2414,2376,2332,2332,2305,2305,2272,2247,2247,2223,2223,2207,2199,2199,2176,2160,2160,2145,2145,2138,2138,0,2123,2123,0,0,0,0,0,0,0,0,1919,1919,1913,1907,1907,1901,1889,1889,1861,1861,1839,1817,1817,1801,1801,1786,1770,1770,1745,1745,1726,1707,1707,1688,1688,1670,1652,1652,1639,1639,1626,1617,1617,1613,1609,1609,1609,1609,1605,1605,1605,1605,1605,1605,1605,1622,1622,1648,1684,1688,1801,1801,1867,1867,1943,1980,1980,1980,1980,1974,1974,1961,1943,1943,1919,1889,1889,1867,1867,1850,1823,1823,1807,1807,1786,1770,1770,1755,1755,1745,1731,1731,1716,1716,1702,1688,1688,1679,1679,1665,1656,1656,1648,1643,1643,1639,1639,1635,1635,1635,1635,1635,1635,1635,1635,1635,1639,1648,1648,1652,1656,1656,1661,1665,1665,0,0,0,0,0,0,0,0,0,0,0,0,0,0,0,0,0,0,0,0,0,0,0,0,0,0,0,0,0,0,0,0,0,0,0,4827,4827,4790,4790,4753,4716,4716,4716,4646,4646,4611,4611,4577,4577,4577,4577,4543,4543
0,0,0,0,0,0,0,0,0,0,0,0,0,0,0,0,0,0,0,0,0,0,0,0,0,0,0,0,0,0,0,0,0,0,0,0,0,0,0,0,0,0,0,0,0,0,0,0,0,0,0,0,0,0,0,0,0,0,0,0,0,0,0,0,0,0,0,0,0,0,0,0,0,0,0,0,0,0,0,0,0,0,0,0,0,0,0,0,0,0,0,0,2340,2340,2340,2340,2349,2349,2349,2349,2358,2367,2367,2386,2395,2395,2404,2404,2414,2423,2423,2433,2442,2442,2452,2452,2452,2462,2462,2471,2481,2481,2491,2512,2512,2522,2522,2532,2543,2543,2543,2553,2553,2564,2574,2574,2585,2585,2596,2618,2618,2629,2652,2652,2663,2663,2675,2698,2698,2698,2698,2698,2698,2710,2710,2710,2710,2722,2722,2722,2722,2722,2722,2722,2722,2722,2722,2722,2722,2734,2734,2734,2734,2734,2734,2734,2734,2734,2734,2734,2734,2734,2734,2734,2734,2734,2734,2734,2734,2734,2734,2734,2734,2734,2722,2722,2722,2722,2734,2734,2722,2722,2722,2722,2722,2734,2734,2722,2722,2722,2722,2722,2698,2698,2698,2686,2686,2686,2675,2675,2675,2686,2698,2698,2710,2710,2710,2746,2746,2771,2796,2796,2821,2847,2847,2847,2860,2821,2821,2796,2758,2758,2710,2710,2675,2675,2686,2686,2663,2663,2652,2652,2640,2640,2640,2629,2629,2629,2629,2640,2640,2652,2652,2640,2640,2640,2640,2640,2640,2640,2640,2618,2618,2618,2607,2607,2596,2596,2607,2607,2596,2596,2596,2607,2607,2596,2596,2596,2596,2596,2596,2596,2585,2585,2585,2585,2585,2596,2585,2585,2585,2585,2585,2574,2574,2564,2564,2564,2564,2564,2564,2543,2543,2543,2543,2543,2543,2553,2553,2553,2564,2574,2574,2585,2585,2596,2607,2607,2607,2618,2618,2629,2629,2629,2640,2640,2640,2640,2640,2640,2640,2652,2652,2652,2652,2663,2663,2698,2698,2698,2698,2698,2686,2686,2686,2686,2686,2686,2686,2686,2686,2686,2675,2675,2675,2675,2675,2675,2675,2675,2675,2675,2675,2663,2663,2663,2663,2663,2663,2663,2663,2663,2663,2663,2663,2663,2663,2663,2663,2663,2663,2652,2652,2652,2640,2629,2629,2618,2618,2618,2607,2607,2607,2607,2596,2596,2618,2618,2618,2640,2640,2652,2663,2663,2686,2686,2686,2698,2698,2698,2698,2698,2710,2698,2686,2686,2675,2652,2652,2640,2640,2618,2585,2585,2543,2543,2491,2452,2452,2404,2404,2367,2323,2323,2305,2305,2272,2247,2247,2223,2223,2207,2199,2199,2176,2160,2160,2153,2153,2138,2138,0,2123,2123,0,0,0,0,0,0,0,0,1919,1919,1913,1907,1907,1901,1889,1889,1861,1861,1839,1817,1817,1801,1801,1786,1770,1770,1745,1745,1726,1707,1707,1688,1688,1670,1652,1652,1639,1639,1626,1613,1613,1609,1609,1609,1605,1605,1605,1601,1601,1601,1605,1605,1605,1622,1622,1648,1684,0,1796,1796,1861,1861,1937,1980,1974,1974,1980,1974,1974,1961,1943,1943,1919,1889,1889,1867,1867,1850,1823,1823,1807,1807,1786,1770,1770,1755,1755,1745,1731,1731,1716,1716,1702,1688,1688,1679,1679,1665,1656,1656,1648,1643,1643,1639,1639,1635,1635,1635,1635,1635,1635,1635,1635,1635,1639,1648,1648,1648,1652,1652,1656,1665,1665,0,0,0,0,0,0,0,0,0,0,0,0,0,0,0,0,0,0,0,0,0,0,0,0,0,0,0,0,0,0,0,0,0,0,4790,4753,4753,4716,4716,4716,4681,4681,4646,4611,4611,4577,4577,4543,4510,4510,4510,4477,4477
0,0,0,0,0,0,0,0,0,0,0,0,0,0,0,0,0,0,0,0,0,0,0,0,0,0,0,0,0,0,0,0,0,0,0,0,0,0,0,0,0,0,0,0,0,0,0,0,0,0,0,0,0,0,0,0,0,0,0,0,0,0,0,0,0,0,0,0,0,0,0,0,0,0,0,0,0,0,0,0,0,0,0,0,0,0,0,0,0,0,0,0,2332,2332,2332,2340,2340,2340,2340,2340,2349,2358,2358,2376,2386,2386,2404,2404,2414,2423,2423,2433,2452,2452,2452,2462,2462,2462,2462,2481,2481,2481,2501,2512,2512,2522,2522,2532,2543,2543,2543,2553,2553,2564,2574,2574,2585,2585,2596,2618,2618,2629,2652,2652,2663,2663,2675,2675,2675,2675,2675,2675,2686,2686,2686,2710,2698,2698,2698,2698,2698,2698,2698,2698,2698,2698,2698,2698,2698,2710,2710,2710,2710,2710,2722,2722,2710,2710,2710,2710,2710,2710,2710,2710,2710,2710,2710,2710,2710,2710,2710,2710,2710,2710,2698,2698,2698,2698,2710,2710,2710,2710,2710,2710,2710,2710,2710,2698,2698,2722,2722,2722,2698,2698,2698,2686,2686,2686,2675,2675,2675,2686,2698,2698,2710,2710,2710,2746,2746,2771,2796,2796,2821,2847,2847,2847,2860,2821,2821,2796,2758,2758,2710,2710,2675,2652,2652,2652,2629,2629,2618,2618,2607,2596,2596,2596,2596,2607,2607,2618,2618,2607,2607,2607,2607,2607,2607,2607,2607,2607,2607,2607,2596,2596,2596,2596,2585,2585,2585,2585,2574,2574,2574,2585,2585,2574,2574,2574,2574,2574,2574,2574,2564,2564,2564,2564,2564,2564,2564,2564,2553,2553,2564,2543,2543,2532,2532,2532,2532,2564,2564,2543,2543,2543,2543,2543,2543,2553,2553,2553,2564,2574,2574,2585,2585,2596,2607,2607,2607,2618,2618,2629,2629,2629,2640,2640,2640,2640,2640,2640,2640,2652,2652,2652,2652,2663,2663,2663,2663,2663,2663,2652,2652,2652,2652,2652,2652,2640,2640,2640,2640,2640,2640,2640,2652,2640,2640,2640,2640,2640,2640,2640,2640,2640,2640,2640,2640,2640,2640,2640,2652,2640,2640,2640,2652,2652,2640,2640,2640,2640,2640,2629,2629,2629,2618,2607,2607,2607,2607,2596,2596,2596,2585,2585,2596,2585,2585,2585,2596,2640,2640,2652,2663,2663,2686,2686,2686,2698,2698,2698,2698,2698,2710,2698,2686,2686,2675,2652,2652,2640,2640,2618,2585,2585,2543,2543,2491,2452,2452,2404,2404,2367,2323,2323,2297,2297,2263,2239,2239,2223,2207,2207,2191,2191,2176,2160,2160,2153,2153,2138,2123,2123,2123,2116,2116,2116,0,0,0,0,0,0,1919,1919,1913,1907,1907,1901,1889,1889,1867,1867,1839,1823,1823,1807,1807,1791,1770,1770,1745,1745,1726,1707,1707,1688,1688,1670,1652,1652,1639,1639,1622,1613,1613,1609,1609,1609,1605,1605,1605,1601,1601,1601,1605,1605,1605,1622,1648,1648,1684,0,1796,1796,1861,1861,1937,1980,1974,1974,1980,1974,1974,1961,1943,1943,1919,1889,1889,1867,1867,1850,1823,1823,1801,1801,1786,1770,1770,1755,1755,1745,1731,1731,1716,1716,1702,1688,1688,1679,1665,1665,1656,1656,1648,1643,1643,1639,1639,1635,1635,1635,1630,1630,1630,1630,1635,1635,1639,1643,1643,1648,1652,1652,1656,1661,1661,0,0,0,0,0,0,0,0,0,0,0,0,0,0,0,0,0,0,0,0,0,0,0,0,0,0,0,0,0,0,0,0,0,0,4790,4753,4753,4716,4716,4716,4681,4681,4646,4611,4611,4577,4577,4543,4510,4510,4510,4477,4477
0,0,0,0,0,0,0,0,0,0,0,0,0,0,0,0,0,0,0,0,0,0,0,0,0,0,0,0,0,0,0,0,0,0,0,0,0,0,0,0,0,0,0,0,0,0,0,0,0,0,0,0,0,0,0,0,0,0,0,0,0,0,0,0,0,0,0,0,0,0,0,0,0,0,0,0,0,0,0,0,0,0,0,0,0,0,0,0,0,0,0,0,2332,2332,2332,2340,2340,2340,2340,2340,2349,2358,2358,2376,2386,2386,2404,2404,2414,2423,2423,2433,2452,2452,2452,2462,2462,2462,2462,2481,2481,2481,2501,2512,2512,2522,2522,2522,2532,2532,2532,2532,2532,2532,2543,2543,2553,2553,2564,2585,2585,2585,2607,2607,2618,2618,2629,2629,2629,2640,2640,2640,2640,2640,2652,2663,2663,2652,2652,2652,2652,2663,2652,2652,2652,2652,2652,2652,2652,2663,2663,2663,2663,2710,2722,2722,2710,2710,2710,2710,2710,2710,2710,2710,2710,2710,2710,2710,2710,2710,2710,2710,2710,2710,2698,2698,2698,2698,2710,2710,2710,2710,2710,2710,2710,2710,2710,2698,2698,2698,2698,2698,2686,2663,2663,2663,2663,2663,2652,2652,2652,2652,2698,2663,2663,2675,2675,2710,2710,2734,2758,2758,2796,2847,2847,2847,2860,2821,2821,2796,2758,2758,2710,2710,2629,2618,2618,2618,2607,2607,2585,2585,2574,2574,2574,2574,2574,2574,2574,2574,2574,2574,2574,2574,2574,2564,2564,2564,2564,2574,2574,2574,2596,2596,2596,2596,2585,2585,2585,2585,2574,2574,2574,2585,2585,2574,2574,2574,2574,2574,2574,2574,2564,2564,2564,2564,2564,2564,2564,2564,2553,2553,2564,2543,2543,2532,2532,2532,2522,2522,2532,2532,2532,2532,2522,2522,2522,2522,2532,2532,2543,2553,2553,2553,2553,2574,2585,2585,2596,2596,2596,2618,2618,2618,2618,2618,2618,2629,2629,2629,2629,2629,2629,2629,2629,2640,2640,2640,2640,2640,2640,2629,2629,2629,2629,2629,2629,2618,2618,2618,2618,2618,2618,2618,2629,2629,2629,2629,2629,2629,2629,2640,2640,2640,2640,2640,2640,2640,2640,2640,2652,2640,2640,2640,2652,2652,2640,2640,2640,2640,2640,2629,2629,2629,2618,2607,2607,2607,2607,2596,2596,2596,2585,2585,2596,2585,2585,2585,2596,2618,2618,2618,2640,2640,2640,2640,2652,2652,2652,2663,2663,2663,2675,2663,2652,2652,2652,2629,2629,2618,2618,2596,2564,2564,2522,2522,2471,2442,2442,2395,2395,2358,2314,2314,2288,2288,2263,2231,2231,2223,2199,2199,2191,2191,2176,2160,2160,2145,2145,2138,2123,2123,2116,2109,2109,2109,0,0,0,0,0,0,1925,1919,1919,1907,1907,1901,1895,1895,1867,1867,1844,1828,1828,1812,1812,1796,1775,1775,1745,1745,1726,1707,1707,1688,1688,1670,1652,1652,1639,1639,1622,1613,1613,1609,1605,1605,1605,1605,1605,1601,1601,1601,1601,1601,1601,1622,1643,1643,1679,0,1796,1796,1861,1861,1937,1974,1968,1968,1974,1974,1961,1961,1943,1943,1919,1889,1889,1867,1867,1850,1823,1823,1801,1801,1786,1770,1770,1755,1755,1740,1731,1731,1716,1716,1702,1688,1688,1679,1665,1665,1656,1656,1648,1643,1643,1639,1639,1635,1635,1635,1630,1630,1630,1630,1635,1635,1639,1643,1643,1648,1652,1652,1656,1661,1661,0,0,0,0,0,0,0,0,0,0,0,0,0,0,0,0,0,0,0,0,0,0,0,0,0,0,0,0,0,0,0,0,4681,4681,4646,4646,4646,4611,4611,4611,4577,4577,4577,4543,4543,4477,4477,4445,4445,4445,4413,4413,4413
0,0,0,0,0,0,0,0,0,0,0,0,0,0,0,0,0,0,0,0,0,0,0,0,0,0,0,0,0,0,0,0,0,0,0,0,0,0,0,0,0,0,0,0,0,0,0,0,0,0,0,0,0,0,0,0,0,0,0,0,0,0,0,0,0,0,0,0,0,0,0,0,0,0,0,0,0,0,0,0,0,0,0,0,0,0,0,0,0,0,0,2323,2323,2323,2323,2332,2332,2332,2332,2332,2340,2358,2358,2367,2386,2386,2395,2395,2414,2423,2423,2433,2442,2442,2462,2462,2462,2471,2471,2481,2491,2491,2491,2501,2501,2501,2501,2512,2512,2512,2512,2512,2501,2501,2501,2543,2553,2553,2564,2585,2585,2585,2607,2607,2618,2618,2629,2629,2629,2640,2640,2640,2640,2640,2652,2663,2663,2652,2652,2652,2652,2663,2652,2652,2652,2652,2652,2652,2652,2663,2663,2663,2663,2663,2663,2663,2663,2663,2663,2663,2663,2663,2663,2663,2663,2663,2652,2652,2652,2652,2663,2652,2652,2663,2652,2652,2652,2652,2663,2663,2663,2663,2663,2663,2663,2663,2663,2652,2652,2652,2640,2640,2629,2618,2618,2607,2607,2607,2607,2607,2607,2607,2607,2607,2607,2607,2607,2710,2710,2675,2675,2675,2698,2722,2722,0,0,0,0,0,0,0,0,0,2629,2618,2618,2618,2607,2607,2585,2585,2574,2574,2574,2574,2574,2574,2574,2574,2574,2574,2574,2574,2574,2564,2564,2564,2564,2574,2574,2564,2564,2564,2564,2564,2553,2553,2553,2553,2553,2553,2553,2553,2553,2553,2553,2543,2543,2553,2543,2543,2532,2532,2532,2532,2532,2532,2522,2522,2522,2522,2522,2512,2512,2491,2491,2491,2491,2491,2491,2491,2491,2491,2491,2491,2491,2501,2501,2501,2512,2522,2522,2532,2532,2543,2553,2553,2564,2574,2574,2574,2574,2585,2618,2618,2618,2629,2629,2629,2629,2629,2629,2629,2629,2640,2640,2640,2640,2640,2640,2629,2629,2629,2629,2629,2629,2618,2618,2618,2618,2618,2618,2618,2629,2629,2629,2629,2629,2629,2629,2629,2629,2618,2618,2618,2629,2629,2629,2629,2629,2629,2629,2629,2629,2629,2629,2629,2629,2629,2629,2629,2629,2629,2607,2596,2596,2596,2596,2585,2574,2574,2574,2574,2585,2574,2574,2574,2574,2596,2596,2607,2607,2607,2629,2629,2629,2640,2640,2640,2640,2640,2640,2640,2629,2629,2629,2618,2618,2607,2607,2585,2564,2564,2522,2522,2471,2442,2442,2395,2395,2358,2314,2314,2288,2288,2263,2231,2231,2223,2199,2199,2191,2191,2176,2160,2160,2145,2145,2138,2123,2123,2116,2109,2109,2109,0,0,0,0,0,0,1925,1919,1919,1907,1907,1901,1895,1895,1867,1867,1844,1828,1828,1812,1812,1796,1775,1775,1745,1745,1726,1707,1707,1688,1688,1670,1652,1652,1635,1622,1622,1609,1609,1609,1605,1605,1605,1605,1601,1601,1601,1601,1601,1601,1601,1617,1643,1643,1679,0,1796,1796,1861,1861,1931,1968,1968,1968,1974,1974,1961,1961,1943,1943,1919,1889,1889,1867,1867,1850,1823,1823,1801,1801,1786,1770,1770,1755,1755,1740,1731,1731,1716,1716,1702,1688,1688,1679,1670,1670,1656,1656,1648,1643,1643,1639,1639,1635,1635,1635,1630,1630,1630,1630,1635,1635,1639,1643,1643,1648,1652,1652,1656,1661,1661,0,0,0,0,0,0,0,0,0,0,0,0,0,0,0,0,0,0,0,0,0,0,0,4753,4681,4681,4646,4611,4611,4577,4577,4543,4543,4543,4543,4510,4510,4510,4510,4510,4510,4510,4477,4445,4445,4413,4413,4413,4445,4445,4413,4413,4413
0,0,0,0,0,0,0,0,0,0,0,0,0,0,0,0,0,0,0,0,0,0,0,0,0,0,0,0,0,0,0,0,0,0,0,0,0,0,0,0,0,0,0,0,0,0,0,0,0,0,0,0,0,0,0,0,0,0,0,0,0,0,0,0,0,0,0,0,0,0,0,0,0,0,0,0,0,0,0,0,0,0,0,0,0,0,0,2314,2314,2305,2305,2305,2314,2314,2314,2323,2332,2332,2332,2332,2340,2358,2358,2367,2386,2386,2395,2395,2414,2423,2423,2433,2442,2442,2462,2462,2462,2471,2471,2481,2491,2491,2491,2501,2501,2501,2501,2512,2512,2512,2512,2512,2501,2501,2501,2512,2522,2522,2532,2543,2543,2553,2553,2553,2574,2574,2596,2596,2585,2585,2607,2607,2607,2607,2607,2618,2618,2618,2629,2618,2618,2618,2618,2618,2618,2618,2618,2618,2618,2618,2618,2618,2618,2629,2629,2618,2618,2618,2618,2663,2663,2663,2663,2663,2663,2663,2652,2652,2652,2652,2663,2652,2652,2663,2618,2618,2618,2652,2663,2663,2663,2663,2663,2663,2663,2663,2663,2652,2652,2652,2640,2640,2629,2618,2618,2607,2607,2607,2607,2607,2607,2607,2607,2607,2607,2607,2607,0,0,2675,2675,2675,2698,2722,2722,0,0,0,0,0,2640,2640,2607,2607,2585,2564,2564,2564,2564,2553,2532,2532,2522,2522,2532,2532,2532,2522,2522,2532,2532,2532,2532,2522,2522,2522,2522,2522,2522,2532,2532,2522,2522,2522,2522,2522,2522,2512,2512,2512,2522,2512,2512,2522,2522,2522,2522,2522,2522,2512,2512,2512,2512,2501,2501,2501,2532,2532,2522,2522,2522,2522,2522,2512,2512,2491,2491,2491,2491,2491,2491,2491,2491,2491,2491,2491,2491,2501,2501,2501,2512,2522,2522,2532,2532,2543,2553,2553,2564,2574,2574,2574,2574,2585,2585,2585,2585,2585,2585,2596,2596,2596,2607,2607,2607,2618,2607,2607,2607,2607,2607,2607,2596,2596,2596,2596,2596,2596,2596,2596,2596,2596,2596,2596,2585,2585,2596,2596,2596,2596,2596,2596,2607,2607,2607,2596,2596,2607,2607,2607,2607,2607,2618,2618,2618,2618,2618,2618,2618,2607,2607,2607,2607,2607,2596,2596,2596,2596,2596,2585,2574,2574,2574,2574,2585,2574,2574,2574,2574,2596,2596,2607,2607,2607,2629,2629,2629,2640,2640,2640,2640,2640,2640,2640,2629,2629,2629,2618,2618,2607,2607,2585,2553,2553,2512,2512,2462,2423,2423,2386,2386,2340,2305,2305,2280,2280,2255,2231,2231,2223,2199,2199,2191,2191,2168,2160,2160,2145,2145,2138,2123,2123,2116,2102,2102,2102,0,0,0,0,0,0,1925,1919,1919,1913,1913,1907,1895,1895,1872,1872,1850,1828,1828,1812,1812,1801,1781,1781,1750,1750,1726,1707,1707,1688,1688,1670,1652,1652,1635,1622,1622,1609,1609,1609,1605,1605,1605,1605,1601,1601,1601,1601,1601,1601,1601,1617,1643,1643,1679,0,1796,1796,1861,1861,1931,1968,1968,1968,1974,1968,1955,1955,1943,1943,1919,1889,1889,1867,1867,1850,1823,1823,1801,1801,1786,1770,1770,1755,1755,1740,1726,1726,1716,1716,1702,1688,1688,1679,1670,1670,1656,1656,1648,1643,1643,1639,1639,1635,1635,1635,1630,1630,1630,1630,1635,1635,1639,1643,1643,1648,1652,1652,1656,1661,1661,0,0,0,0,0,0,0,0,0,0,0,0,0,0,0,0,0,0,0,0,0,0,0,4753,4681,4681,4646,4611,4611,4577,4577,4543,4543,4543,4543,4510,4510,4510,4510,4510,4510,4510,4477,4445,4445,4413,4413,4382,4351,4351,4321,4321,4321
0,0,0,0,0,0,0,0,0,0,0,0,0,0,0,0,0,0,0,0,0,0,0,0,0,0,0,0,0,0,0,0,0,0,0,0,0,0,0,0,0,0,0,0,0,0,0,0,0,0,0,0,0,0,0,0,0,0,0,0,0,0,0,0,0,0,0,0,0,0,0,0,0,0,0,0,0,0,0,0,0,0,0,0,0,0,0,2314,2314,2305,2305,2305,2314,2314,2314,2323,2323,2323,2332,2332,2340,2358,2358,2367,2386,2386,2395,2395,2404,2423,2423,2433,2442,2442,2462,2462,2462,2471,2471,2481,2491,2491,2491,2501,2501,2501,2501,2501,2501,2491,2491,2501,2491,2491,2491,2501,2501,2501,2512,2512,2512,2522,2532,2532,2553,2553,2564,2574,2574,2585,2607,2607,2607,2607,2607,2618,2618,2618,2629,2618,2618,2618,2618,2618,2618,2618,2618,2618,2618,2618,2618,2618,2618,2629,2629,2618,2618,2618,2618,0,0,0,0,0,0,0,0,0,0,0,0,0,0,0,2618,2618,2618,2618,2618,2618,2618,2618,2618,2618,2618,2618,2618,2618,2607,2607,2607,2607,2585,2564,2564,2564,2564,2553,2553,2553,2543,2543,2543,2543,2543,2543,2607,0,0,2675,2675,2607,2607,2618,2618,2629,2629,0,0,2596,2574,2574,2553,2553,2522,2512,2512,2512,2522,2512,2491,2491,2481,2481,2491,2481,2481,2481,2481,2532,2532,2532,2532,2522,2522,2522,2522,2522,2522,2532,2532,2522,2522,2522,2522,2522,2522,2512,2512,2512,2522,2512,2512,2522,2522,2522,2522,2522,2522,2512,2512,2512,2512,2501,2501,2501,2501,2501,2491,2491,2481,2481,2481,2471,2471,2462,2462,2462,2452,2452,2462,2462,2462,2462,2462,2462,2462,2462,2462,2462,2471,2471,2491,2491,2491,2501,2512,2512,2522,2532,2532,2532,2532,2543,2543,2543,2553,2553,2553,2553,2553,2553,2553,2553,2564,2564,2564,2564,2564,2564,2564,2564,2553,2553,2553,2553,2553,2553,2553,2553,2596,2596,2596,2596,2585,2585,2596,2596,2596,2596,2596,2596,2607,2607,2607,2596,2596,2607,2607,2607,2607,2607,2618,2618,2618,2618,2618,2618,2618,2607,2607,2607,2607,2607,2596,2585,2585,2574,2574,2574,2564,2564,2564,2564,2553,2553,2553,2553,2553,2574,2574,2574,2574,2574,2574,2574,2585,2585,2585,2596,2596,2596,2596,2596,2585,2585,2574,2574,2574,2553,2553,2532,2512,2512,2471,2471,2442,2404,2404,2367,2367,2332,2305,2305,2272,2272,2255,2231,2231,2215,2199,2199,2191,2191,2168,2160,2160,2153,2153,2138,2123,2123,2116,2102,2102,2102,0,0,0,0,0,0,1931,1925,1925,1913,1913,1907,1901,1901,1872,1872,1850,1833,1833,1817,1817,1801,1781,1781,1750,1750,1726,1707,1707,1688,1688,1670,1652,1652,1635,1622,1622,1609,1609,1609,1605,1605,1601,1601,1601,1601,1601,1601,1601,1601,1601,1613,1643,1643,1674,0,1791,1791,1861,1861,1931,1968,1968,1968,1968,1968,1955,1955,1943,1943,1919,1889,1889,1867,1867,1850,1823,1823,1801,1801,1786,1770,1770,1750,1750,1736,1726,1726,1716,1716,1702,1688,1688,1679,1670,1670,1661,1661,1652,1643,1643,1639,1639,1635,1635,1635,1630,1630,1630,1630,1635,1639,1639,1643,1643,1648,1652,1652,1656,1661,1661,0,0,0,0,0,0,0,0,0,0,0,0,0,0,0,0,0,0,0,0,0,4865,4865,4753,4681,4681,4646,4611,4611,4577,4577,4543,4543,4543,4510,4510,4510,4477,4477,4477,4445,4445,4413,4382,4382,4351,4351,4321,4291,4291,4291,4291,4261
0,0,0,0,0,0,0,0,0,0,0,0,0,0,0,0,0,0,0,0,0,0,0,0,0,0,0,0,0,0,0,0,0,0,0,0,0,0,0,0,0,0,0,0,0,0,0,0,0,0,0,0,0,0,0,0,0,0,0,0,0,0,0,0,0,0,0,0,0,0,0,0,0,0,0,0,0,0,0,0,0,0,0,0,0,0,0,2314,2314,2305,2305,2305,2305,2314,2314,2323,2323,2323,2323,2323,2332,2349,2349,2367,2376,2376,2395,2404,2404,2423,2423,2442,2452,2452,2471,2471,2471,2481,2481,2491,2501,2501,2501,2512,2512,2512,2512,2501,2501,2491,2491,2501,2491,2491,2491,2501,2501,2501,2512,2512,2512,2522,2532,2532,2553,2553,2564,2574,2574,0,0,0,0,0,0,0,0,2629,2629,2618,2618,2618,2618,2618,2618,2618,2618,2618,2618,2618,2618,2618,2618,2629,2629,2618,2618,2618,2618,0,0,0,0,0,0,0,0,0,0,0,0,0,0,0,2618,2618,2618,2618,2618,2618,2618,2618,2618,2618,2618,2618,2618,2618,2607,2607,2607,2607,2585,2564,2564,2564,2564,2553,2553,2553,2543,2543,2543,2543,2543,2543,0,0,0,0,0,2607,2607,2618,2618,2629,2629,0,0,2596,2574,2574,2553,2553,2522,2512,2512,2512,2522,2512,2491,2491,2481,2481,2491,2481,2481,2481,2481,2491,2481,2481,2481,2481,2481,2471,2471,2471,2471,2471,2471,2471,2471,2471,2471,2471,2471,2481,2481,2481,2481,2481,2491,2491,2491,2491,2491,2491,2491,2491,2481,2481,2471,2471,2471,2462,2462,2462,2462,2462,2452,2442,2442,2442,2442,2423,2423,2423,2423,2423,2423,2423,2423,2423,2423,2423,2423,2433,2442,2442,2442,2442,2491,2491,2491,2501,2512,2512,2522,2532,2532,2532,2532,2543,2543,2543,2553,2553,2553,2553,2553,2553,2553,2553,2564,2564,2564,2564,2564,2564,2564,2564,2553,2553,2553,2553,2553,2553,2553,2553,2553,2553,2543,2543,2543,2543,2543,2543,2553,2553,2553,2564,2564,2564,2574,2574,2574,2585,2585,2585,2585,2585,2585,2585,2585,2585,2585,2585,2585,2574,2574,2564,2564,2564,2553,2553,2543,2532,2532,2532,2522,2522,2512,2512,2512,2522,2522,2522,2522,2532,2532,2532,2543,2543,2543,2543,2553,2553,2553,2553,2553,2553,2596,2596,2585,2585,2574,2574,2574,2553,2553,2532,2512,2512,2471,2471,2442,2404,2404,2367,2367,2332,2305,2305,2272,2272,2255,2239,2239,2215,2199,2199,2191,2191,2168,2160,2160,2153,2153,2138,2123,2123,2116,2094,2094,2094,0,0,0,0,0,0,1931,1925,1925,1913,1913,1907,1901,1901,1872,1872,1850,1833,1833,1817,1801,1801,1781,1781,1750,1731,1726,1712,1712,1688,1670,1670,1652,1652,1635,1622,1622,1609,1609,1609,1605,1605,1601,1601,1601,1601,1601,1601,1601,1601,1601,1613,1639,1639,1674,0,1791,1791,1861,1861,1931,1968,1968,1968,1968,1968,1955,1955,1943,1943,1919,1889,1889,1867,1867,1850,1823,1823,1801,1801,1786,1770,1770,1750,1750,1736,1726,1726,1716,1716,1702,1688,1688,1679,1670,1670,1661,1661,1652,1643,1643,1639,1639,1635,1635,1635,1630,1630,1630,1630,1635,1639,1639,1643,1643,1648,1652,1652,1656,1661,1661,1670,1670,0,0,0,0,0,0,0,0,0,0,0,0,0,0,0,0,0,0,0,4865,4865,4753,4681,4681,4646,4611,4611,4577,4577,4543,4543,4543,4510,4510,4510,4477,4477,4477,4445,4445,4413,4382,4382,4351,4351,4321,4291,4291,4291,4291,4261
0,0,0,0,0,0,0,0,0,0,0,0,0,0,0,0,0,0,0,0,0,0,0,0,0,0,0,0,0,0,0,0,0,0,0,0,0,0,0,0,0,0,0,0,0,0,0,0,0,0,0,0,0,0,0,0,0,0,0,0,0,0,0,0,0,0,0,0,0,0,0,0,0,0,0,0,0,0,0,0,0,0,0,0,0,0,0,2314,2314,2305,2305,2305,2305,2314,2314,2323,2323,2323,2323,2323,2332,2349,2349,2367,2376,2376,2395,2414,2414,2423,2423,2442,2452,2452,2471,2481,2481,2491,2491,2491,2501,2501,2501,2501,2501,2501,2491,2491,2491,2491,2481,2481,2471,2471,2471,2481,2481,2481,2501,2501,2501,2512,2522,2522,2543,2543,2564,2574,2574,0,0,0,0,0,0,0,0,0,0,0,0,0,0,0,0,0,0,0,0,0,0,0,0,0,0,0,0,0,0,0,0,0,0,0,0,0,0,0,0,0,0,0,0,0,0,0,0,0,0,0,0,0,0,0,0,0,0,0,0,0,0,0,0,0,0,0,0,0,0,0,2543,2543,2543,2543,2543,2543,0,0,0,0,0,2607,2607,2618,2618,2629,2629,0,0,2596,2574,2574,2553,2553,2522,2512,2512,2512,2522,2512,2491,2491,2481,2481,2491,2481,2481,2481,2481,2491,2481,2481,2481,2481,2481,2471,2471,2471,2471,2471,2471,2471,2471,2471,2471,2471,2471,2481,2481,2481,2481,2481,2491,2491,2491,2491,2491,2491,2491,2491,2481,2481,2471,2471,2471,2462,2462,2462,2462,2462,2452,2442,2442,2442,2442,2423,2423,2423,2423,2423,2423,2423,2423,2423,2423,2423,2423,2433,2442,2442,2442,2442,2452,2462,2462,2471,2481,2481,2491,2491,2491,2501,2501,2512,2512,2512,2512,2512,2512,2522,2522,2522,2522,2522,2532,2532,2532,2532,2532,2532,2532,2532,2522,2522,2522,2522,2522,2512,2512,2512,2512,2512,2512,2512,2512,2512,2512,2512,2512,2512,2512,2512,2512,2522,2532,2532,2532,2543,2543,2543,2553,2553,2553,2553,2585,2585,2585,2585,2585,2574,2574,2564,2564,2564,2553,2553,2543,2532,2532,2532,2522,2522,2512,2512,2512,2522,2522,2522,2522,2532,2532,2532,2543,2543,2543,2543,2553,2553,2553,2553,2553,2553,2553,2543,2532,2532,2532,2522,2522,2512,2512,2501,2481,2481,2452,2452,2414,2386,2386,2358,2358,2323,2297,2297,2272,2255,2255,2231,2231,2215,2199,2199,2191,2191,2168,2160,2160,2145,2145,2138,2123,2123,2116,2087,2087,2087,0,0,0,0,0,0,1931,1919,1919,1913,1913,1907,1901,1901,1872,1872,1850,1833,1833,1817,1801,1801,1781,1781,1750,1731,1731,1712,1712,1693,1670,1670,1652,1652,1635,1622,1622,1609,1609,1609,1605,1605,1601,1601,1601,1601,1601,1601,1601,1601,1601,1613,1639,1639,1670,0,1791,1791,1861,1861,1925,1968,1961,1961,1961,1961,1955,1955,1937,1937,1913,1889,1889,1867,1867,1844,1823,1823,1801,1801,1781,1770,1770,1750,1750,1736,1726,1726,1716,1702,1702,1693,1693,1684,1674,1674,1661,1661,1652,1648,1648,1643,1639,1639,1635,1635,1635,1635,1635,1635,1635,1639,1639,1643,1643,1652,1652,1652,1656,1661,1661,1670,1670,0,0,0,0,0,0,0,0,0,0,0,0,0,0,0,0,0,0,0,4943,4865,4865,4753,4753,4716,4681,4681,4646,4646,4611,4543,4543,4510,4510,4510,4477,4477,4477,4445,4445,4413,4382,4382,4321,4321,4321,4291,4291,4291,4291,4261
0,0,0,0,0,0,0,0,0,0,0,0,0,0,0,0,0,0,0,0,0,0,0,0,0,0,0,0,0,0,0,0,0,0,0,0,0,0,0,0,0,0,0,0,0,0,0,0,0,0,0,0,0,0,0,0,0,0,0,0,0,0,0,0,0,0,0,0,0,0,0,0,0,0,0,0,0,0,0,0,0,0,0,0,0,0,0,2297,2297,2297,2297,2297,2305,2305,2305,2314,2314,2314,2323,2323,2332,2349,2349,2358,2376,2376,2395,2414,2414,2423,2423,2442,2452,2452,2471,2481,2481,2491,2491,2491,2501,2501,2501,2501,2501,2501,2491,2491,2491,2481,2481,2481,2471,2471,2471,2481,2481,2481,2501,2501,2501,2512,2522,2522,2522,2522,2532,0,0,0,0,0,0,0,0,0,0,0,0,0,0,0,0,0,0,0,0,0,0,0,0,0,0,0,0,0,0,0,0,0,0,0,0,0,0,0,0,0,0,0,0,0,0,0,0,0,0,0,0,0,0,0,0,0,0,0,0,0,0,0,0,0,0,0,0,0,0,0,0,0,0,0,0,0,0,0,0,0,0,0,0,0,0,0,0,0,0,0,0,0,0,0,0,0,0,0,0,0,0,0,0,0,0,0,0,0,0,0,0,0,0,0,0,0,0,0,0,0,0,0,0,0,0,0,0,0,0,0,0,0,0,0,2491,2491,2491,2491,2491,2491,2491,2491,2481,2481,2471,2471,2471,2462,2462,2462,2462,2462,2452,2442,2442,2442,2442,2423,2423,2423,2423,2423,2423,2423,2423,2423,2423,2423,2423,2433,2442,2442,2442,2442,2452,2462,2462,2471,2481,2481,2491,2491,2491,2501,2501,2512,2512,2512,2512,2512,2512,2522,2522,2522,2522,2522,2532,2532,2532,2532,2532,2532,2532,2532,2522,2522,2522,2522,2522,2512,2512,2512,2512,2512,2512,2512,2512,2512,2512,2512,2512,2512,2512,2512,2512,2522,2532,2532,2532,2543,2543,2543,2553,2553,2553,2553,2564,2564,2564,2553,2553,2553,2553,2532,2522,2522,2522,2522,2501,2501,2501,2501,2491,2491,2491,2491,2491,2491,2491,2491,2501,2501,2501,2512,2522,2522,2522,2522,2522,2522,2522,2522,2522,2512,2512,2501,2491,2491,2491,2491,2491,2481,2481,2471,2452,2452,2423,2423,2395,2376,2376,2349,2349,2323,2288,2288,2272,2255,2255,2231,2231,2215,2199,2199,2191,2191,2176,2160,2160,2145,2145,2138,2123,2123,2116,2087,2087,2087,0,0,0,0,0,0,1931,1919,1919,1913,1913,1907,1901,1901,1872,1872,1850,1833,1833,1817,1801,1801,1781,1781,1750,1731,1731,1712,1712,1693,1670,1670,1652,1652,1635,1622,1622,1609,1609,1605,1605,1605,1601,1601,1601,1601,1601,1601,1601,1601,1601,1613,1639,1639,1670,0,1786,1786,1850,1850,1919,1955,1949,1949,1955,1955,1949,1949,1937,1937,1913,1884,1884,1867,1867,1844,1823,1823,1801,1801,1781,1770,1770,1750,1750,1736,1726,1726,1716,1702,1702,1693,1693,1684,1674,1674,1665,1665,1656,1652,1652,1648,1643,1643,1639,1639,1635,1635,1635,1635,1635,1639,1639,1643,1643,1652,1652,1652,1656,1661,1661,1670,1670,0,0,0,0,0,0,0,0,0,0,0,0,0,0,0,0,0,5106,5106,4943,4865,4865,4753,4753,4716,4681,4681,4646,4646,4611,4577,4577,4543,4510,4510,4510,4510,4477,4445,4445,4413,4382,4382,4321,4321,4291,4291,4291,4291,4291,4291
0,0,0,0,0,0,0,0,0,0,0,0,0,0,0,0,0,0,0,0,0,0,0,0,0,0,0,0,0,0,0,0,0,0,0,0,0,0,0,0,0,0,0,0,0,0,0,0,0,0,0,0,0,0,0,0,0,0,0,0,0,0,0,0,0,0,0,0,0,0,0,0,0,0,0,0,0,0,0,0,0,0,0,0,0,0,2272,2272,2280,2272,2272,2272,2280,2288,2288,2297,2297,2297,2305,2305,2314,2340,2340,2349,2367,2367,2386,2404,2404,2423,2423,2442,2462,2462,2471,2491,2491,2491,2501,2501,2501,2501,2501,2501,2501,2501,2501,2491,2491,2481,2481,2481,2481,2491,2491,2491,2491,2491,2501,2501,2501,2512,2522,2522,2522,2522,2532,2532,2532,2532,2532,2532,2543,2543,2553,2553,2553,2553,2574,2574,2574,2574,2574,2574,2574,2574,2574,2574,2574,2564,2564,2574,2564,2564,2564,2564,2564,2564,2564,2564,2564,2564,2564,2564,2564,2564,2564,2564,2564,2564,2564,2564,2564,2564,2564,2574,2574,2574,2574,2574,2574,2574,2574,2574,2574,2585,2585,2585,2585,0,0,0,0,0,0,0,0,0,0,0,0,0,0,0,0,0,0,0,0,0,0,0,0,0,0,0,0,0,0,0,0,0,0,0,0,0,0,0,0,0,0,0,0,0,0,0,0,0,0,0,0,0,0,0,0,0,0,0,0,0,0,0,0,0,0,0,0,0,0,0,0,0,0,0,0,0,0,0,0,0,0,0,0,0,0,0,0,0,0,0,0,0,0,0,0,0,0,0,0,0,0,0,0,0,0,0,0,0,0,0,0,0,0,0,0,0,0,0,0,0,0,0,0,0,0,0,0,0,0,0,0,0,0,0,2532,2532,2532,2532,2532,2532,2532,2532,2522,2522,2522,2522,2522,2512,2512,2512,2512,2512,2512,2512,2512,2512,2512,2512,2512,2512,2512,2512,2512,2522,2532,2532,2532,2543,2543,2543,2553,2553,2553,2553,2564,2564,2564,2553,2553,2553,2553,2532,2522,2522,2522,2522,2501,2501,2501,2501,2491,2491,2491,2491,2491,2491,2491,2491,2501,2501,2501,2512,2522,2522,2522,2522,2522,2522,2522,2522,2522,2512,2512,2501,2491,2491,2491,2491,2491,2481,2481,2471,2452,2452,2423,2423,2395,2376,2376,2349,2349,2323,2288,2288,2272,2247,2247,2231,2231,2215,2199,2199,2191,2191,2168,2160,2160,2145,2138,2138,2123,2123,2116,2080,2080,2080,0,0,0,0,1949,1949,1925,1919,1919,1913,1913,1907,1895,1895,1872,1872,1850,1833,1833,1817,1801,1801,1781,1781,1750,1731,1731,1712,1712,1693,1674,1674,1652,1652,1639,1622,1622,1609,1609,1605,1605,1605,1601,1601,1601,1601,1601,1601,1601,1601,1601,1613,1639,1639,1670,0,1786,1786,1850,1850,1919,1955,1949,1949,1955,1955,1949,1949,1937,1937,1913,1884,1884,1867,1867,1844,1823,1823,1801,1801,1781,1765,1765,1750,1750,1736,1726,1726,1716,1702,1702,1693,1693,1684,1674,1674,1665,1665,1656,1652,1652,1648,1643,1643,1639,1639,1635,1635,1635,1635,1635,1639,1639,1643,1643,1652,1652,1652,1656,1661,1661,1670,0,0,0,0,0,0,0,0,0,0,0,0,0,5420,5420,5420,0,0,5106,5106,5023,4943,4943,4865,4865,4790,4753,4753,4716,4716,4681,4611,4611,4577,4543,4543,4510,4510,4477,4445,4445,4413,4382,4382,4321,4321,4291,4291,4291,4291,4291,4291
0,0,0,0,0,0,0,0,0,0,0,0,0,0,0,0,0,0,0,0,0,0,0,0,0,0,0,0,0,0,0,0,0,0,0,0,0,0,0,0,0,0,0,0,0,0,0,0,0,0,0,0,0,0,0,0,0,0,0,0,0,0,0,0,0,0,0,0,0,0,0,0,0,0,0,0,0,0,0,0,0,0,0,0,0,0,2272,2272,2280,2272,2272,2272,2280,2288,2288,2297,2297,2297,2305,2305,2314,2340,2340,2349,2367,2367,2386,2404,2404,2423,2423,2442,2462,2462,2471,2491,2491,2491,2501,2501,2501,2501,2501,2501,2501,2491,2491,2491,2491,2481,2481,2481,2481,2481,2491,2491,2491,2491,2491,2491,2491,2501,2512,2512,2512,2512,2522,2522,2522,2532,2532,2532,2543,2543,2543,2553,2553,2553,2564,2564,2564,2574,2574,2574,2574,2574,2574,2574,2574,2564,2564,2574,2564,2564,2564,2564,2564,2564,2564,2564,2564,2564,2564,2564,2564,2564,2564,2564,2564,2564,2564,2564,2564,2564,2564,2574,2574,2574,2574,2574,2574,2574,2574,2574,2574,2585,2585,2585,2585,2585,2574,2574,2564,2543,2543,2543,2532,2532,2532,2532,2532,2532,2532,2532,2532,2522,2522,2522,2522,2522,0,2512,2512,2512,2512,2512,2512,2512,2522,2501,2501,2491,2491,2491,2481,2481,2481,2481,2491,2481,2471,2471,2471,2471,2471,2462,2462,2462,2462,2462,2462,2462,2462,2462,2462,2452,2452,2462,2462,2462,2462,2462,0,0,0,0,0,0,0,0,0,0,0,0,0,0,0,0,0,0,0,0,0,0,0,0,0,0,0,0,0,0,0,0,0,0,0,0,0,0,0,0,0,0,0,0,0,0,0,0,0,0,0,0,0,0,0,0,0,0,0,0,0,0,0,0,0,0,0,0,0,0,0,0,0,0,0,0,0,0,0,0,0,0,0,0,0,0,0,0,0,0,0,0,0,0,0,0,0,0,0,0,0,0,0,0,0,0,0,0,0,0,0,0,0,0,0,0,0,0,0,0,0,0,0,0,0,0,0,0,0,0,0,0,0,0,0,2501,2501,2501,2501,2512,2522,2501,2501,2501,2501,2501,2501,2501,2501,2501,2512,2501,2491,2491,2491,2491,2491,2481,2481,2471,2452,2452,2423,2423,2395,2376,2376,2349,2349,2323,2288,2288,2272,2247,2247,2231,2231,2215,2199,2199,2191,2191,2168,2153,2153,2145,2131,2131,2123,2123,2102,2073,2073,2039,2039,2039,0,0,1949,1949,1925,1919,1919,1913,1913,1907,1895,1895,1872,1872,1850,1833,1833,1817,1801,1801,1781,1781,1755,1731,1731,1712,1712,1693,1674,1674,1652,1652,1639,1622,1622,1609,1609,1605,1605,1605,1601,1601,1601,1601,1601,1601,1601,1601,1601,1613,1635,1635,1670,0,1786,1786,1850,1850,1919,1949,1943,1943,1949,1949,1943,1943,1931,1931,1913,1884,1884,1867,1867,1844,1823,1823,1801,1801,1786,1765,1765,1750,1750,1736,1726,1726,1716,1707,1707,1697,1697,1688,1679,1679,1670,1670,1661,1656,1656,1648,1643,1643,1643,1643,1639,1639,1639,1639,1639,1639,1639,1648,1648,1652,1656,1656,1661,1665,1665,1670,0,0,0,0,0,0,0,0,0,0,0,0,0,5420,5420,5420,0,0,0,0,5023,4943,4943,4865,4865,4790,4753,4753,4716,4716,4681,4611,4611,4577,4543,4543,4510,4510,4477,4445,4445,4413,4382,4382,4321,4321,4291,4291,4291,4291,4291,4291
0,0,0,0,0,0,0,0,0,0,0,0,0,0,0,0,0,0,0,0,0,0,0,0,0,0,0,0,0,0,0,0,0,0,0,0,0,0,0,0,0,0,0,0,0,0,0,0,0,0,0,0,0,0,0,0,0,0,0,0,0,0,0,0,0,0,0,0,0,0,0,0,0,0,0,0,0,0,0,0,0,0,0,0,2247,2247,2247,2247,2255,2255,2255,2255,2263,2272,2272,2280,2288,2288,2288,2288,2305,2323,2323,2349,2358,2358,2376,2395,2395,2414,2414,2433,2452,2452,2471,2481,2481,2491,2501,2501,2501,2501,2491,2491,2491,2491,2491,2491,2491,2491,2481,2481,2481,2481,2481,2481,2491,2491,2491,2491,2491,2501,2512,2512,2512,2512,2522,2522,2522,2532,2532,2532,2543,2543,2543,2553,2553,2564,2564,2564,2564,2574,2574,2574,2574,2574,2574,2574,2574,2574,2574,2574,2564,2564,2564,2564,2564,2564,2564,2564,2564,2564,2564,2553,2553,2553,2553,2553,2553,2553,2564,2564,2564,2564,2564,2564,2564,2564,2564,2564,2564,2564,2564,2564,2553,2553,2553,2553,2543,2543,2543,2543,2543,2532,2532,2532,2532,2532,2532,2532,2522,2522,2522,2522,2522,2522,2512,2512,2512,2512,2512,2501,2501,2501,2501,2512,2512,2512,2522,2501,2501,2491,2491,2491,2481,2481,2481,2481,2491,2481,2471,2471,2471,2471,2471,2462,2462,2462,2462,2462,2462,2462,2462,2462,2462,2452,2452,2462,2462,2462,2462,2462,2462,2471,2471,2471,2471,2481,2481,2481,2491,2491,2491,2512,2501,2501,2512,2512,2512,2512,2512,2512,2501,2501,2501,2501,2481,2481,2481,2491,2481,2481,2481,2462,2462,2462,2452,2452,2452,2452,2452,2452,2452,2452,2452,2452,2452,2462,2462,2462,2471,2491,2491,2491,2491,2491,2491,2491,2501,2501,2501,2512,2512,2512,0,0,0,0,0,0,0,0,0,0,0,0,0,0,0,0,0,0,0,0,0,0,0,0,0,0,0,0,0,0,0,0,0,0,0,0,0,0,0,0,0,0,0,0,0,0,0,0,0,0,0,0,0,0,0,0,0,0,0,0,0,0,0,0,0,0,0,0,0,0,0,0,0,0,2481,2481,2481,2481,2481,2481,2481,2481,2471,2471,2471,2471,2471,2452,2452,2442,2433,2433,2433,2433,2433,2433,2433,2423,2423,2423,2423,0,0,0,0,0,0,2323,2288,2288,2272,2255,2255,2231,2231,2215,2199,2199,2191,2191,2176,2153,2153,2145,2131,2131,2123,2123,2102,2073,2073,2039,2039,2039,0,0,1949,1949,1925,1919,1919,1913,1913,1907,1895,1895,1867,1850,1850,1828,1828,1812,1801,1801,1781,1781,1755,1731,1731,1712,1712,1693,1674,1674,1652,1652,1639,1622,1622,1609,1609,1609,1605,1605,1601,1601,1601,1601,1601,1601,1605,1605,1605,1613,1635,1635,1670,0,0,1844,1844,1844,1913,1943,1937,1937,1943,1943,1943,1943,1931,1931,1913,1884,1884,1867,1867,1844,1823,1823,1801,1801,1786,1770,1770,1750,1750,1736,1726,1726,1716,1707,1707,1702,1702,1693,1684,1684,1674,1674,1665,1661,1661,1648,1643,1643,1643,1643,1639,1639,1639,1639,1639,1639,1639,1648,1648,1652,1656,1656,1661,1665,1665,1670,0,0,0,0,0,0,0,0,0,0,0,0,0,5281,5281,5236,5236,0,0,0,5064,4983,4983,4943,4943,4865,4827,4827,4790,4716,4716,4681,4681,4646,4611,4611,4543,4543,4510,4477,4477,4413,4382,4382,4351,4351,4321,4321,4321,4321,4321,4321
0,0,0,0,0,0,0,0,0,0,0,0,0,0,0,0,0,0,0,0,0,0,0,0,0,0,0,0,0,0,0,0,0,0,0,0,0,0,0,0,0,0,0,0,0,0,0,0,0,0,0,0,0,0,0,0,0,0,0,0,0,0,0,0,0,0,0,0,0,0,0,0,0,0,0,0,0,0,0,0,0,0,0,0,2223,2223,2223,2231,2239,2239,2239,2239,2247,2255,2255,2263,2272,2272,2288,2288,2305,2323,2323,2349,2358,2358,2376,2395,2395,2414,2414,2433,2452,2452,2471,2481,2481,2491,2501,2501,2501,2501,2491,2491,2491,2491,2491,2491,2491,2491,2491,2491,2491,2481,2481,2481,2491,2491,2491,2491,2491,2501,2512,2512,2512,2512,2512,2512,2512,2522,2522,2522,2532,2532,2543,2543,2543,2553,2553,2553,2564,2564,2564,2564,2564,2574,2574,2574,2574,2574,2574,2574,2564,2564,2564,2564,2564,2564,2564,2564,2553,2553,2553,2553,2553,2553,2553,2553,2553,2553,2553,2553,2553,2553,2553,2553,2553,2553,2564,2564,2564,2564,2564,2564,2553,2553,2553,2553,2543,2543,2543,2543,2543,2532,2532,2532,2532,2532,2532,2532,2522,2522,2522,2522,2522,2522,2512,2512,2512,2512,2512,2501,2501,2501,2501,2501,2501,2501,2501,2501,2501,2491,2491,2491,2481,2481,2481,2481,2491,2481,2471,2471,2471,2471,2471,2462,2462,2462,2462,2462,2462,2462,2462,2462,2462,2452,2452,2462,2462,2462,2462,2462,2462,2471,2471,2471,2471,2481,2481,2481,2491,2491,2491,2512,2501,2501,2512,2512,2512,2512,2512,2512,2501,2501,2501,2501,2481,2481,2481,2491,2481,2481,2481,2462,2462,2462,2452,2452,2452,2452,2452,2452,2452,2452,2452,2452,2452,2462,2462,2462,2471,2491,2491,2491,2491,2491,2491,2491,2501,2501,2501,2512,2512,2512,2512,2512,2512,2522,2522,2522,2522,2522,2522,2522,2522,2522,2522,2522,2522,2522,2522,2522,2512,2512,2512,2512,2512,2501,2501,2501,2501,2501,2501,2501,2491,2491,2491,2491,2491,2491,2491,2491,2501,2501,2512,2512,2512,2522,2522,2522,2532,2532,2532,2532,2543,2543,2543,2522,2522,2512,2512,2501,2491,2491,2471,2471,0,0,0,0,0,0,0,0,0,0,0,0,2481,2481,2481,2481,2481,2481,2481,2481,2471,2471,2471,2471,2471,2452,2452,2442,2433,2433,2433,2433,2433,2433,2433,2423,2423,2423,2395,2395,2376,2358,2358,2340,2340,2323,2288,2288,2272,2255,2255,2231,2231,2215,2199,2199,2191,2191,2176,2153,2153,2145,2131,2131,2123,2123,2102,2066,2066,2039,2039,2039,0,0,1943,1943,1925,1919,1919,1913,1913,1901,1895,1895,1867,1844,1844,1828,1828,1812,1796,1796,1775,1775,1755,1731,1731,1712,1712,1693,1674,1674,1656,1656,1639,1622,1622,1613,1613,1609,1605,1605,1601,1601,1601,1601,1601,1601,1605,1605,1605,1613,1635,1635,1670,0,0,1844,1844,1844,1913,1943,1937,1937,1943,1943,1937,1937,1925,1925,1907,1884,1884,1861,1861,1844,1823,1823,1801,1801,1786,1770,1770,1750,1736,1736,1726,1726,1716,1707,1707,1702,1702,1693,1684,1684,1674,1670,1665,1661,1661,1652,1652,1652,1648,1648,1643,1643,1643,1639,1639,1643,1643,1648,1648,1656,1656,1656,1661,1665,1665,1670,0,0,0,0,0,0,0,0,0,0,0,0,0,5281,5281,5236,5236,0,0,0,0,5023,5023,4943,4943,4904,4865,4865,4790,4753,4753,4716,4716,4681,4646,4646,4577,4543,4543,4477,4477,4445,4382,4382,4351,4351,4321,4321,4321,4321,4321,4321
0,0,0,0,0,0,0,0,0,0,0,0,0,0,0,0,0,0,0,0,0,0,0,0,0,0,0,0,0,0,0,0,0,0,0,0,0,0,0,0,0,0,0,0,0,0,0,0,0,0,0,0,0,0,0,0,0,0,0,0,0,0,0,0,0,0,0,0,0,0,0,0,0,0,0,0,0,0,0,0,0,0,0,0,2223,2223,2223,2231,2239,2239,2239,2239,2247,2255,2255,2263,2272,2272,2280,2280,2288,2314,2314,2340,2358,2358,2367,2386,2386,2414,2414,2433,2452,2452,2471,2481,2481,2491,2491,2491,2491,2491,2491,2491,2491,2491,2491,2491,2491,2491,2491,2491,2491,2481,2481,2481,2491,2491,2491,2491,2491,2491,2491,2491,2491,2491,2501,2501,2501,2501,2512,2512,2522,2522,2532,2532,2532,2543,2553,2553,2564,2564,2564,2564,2564,2574,2574,2574,2574,2574,2574,2574,2574,2564,2564,2564,2564,2564,2564,2564,2553,2553,2553,2553,2553,2553,2553,2553,2553,2553,2553,2553,2553,2553,2553,2553,2553,2553,2553,2553,2543,2543,2543,2543,2543,2543,2543,2543,2532,2532,2532,2532,2522,2522,2522,2522,2522,2522,2512,2512,2512,2512,2512,2501,2501,2501,2491,2491,2491,2491,2491,2491,2491,2481,2481,2481,2481,2481,2481,2481,2481,2481,2481,2481,2481,2481,2481,2481,2481,2481,2481,2481,2481,2471,2471,2471,2471,2471,2462,2462,2462,2471,2471,2471,2471,2471,2471,2471,2471,2471,2471,2471,2471,2481,2481,2481,2481,2491,2491,2491,2501,2512,2512,2512,2512,2522,2522,2522,2522,2522,2522,2522,2522,2512,2512,2501,2481,2481,2481,2491,2481,2481,2481,2462,2462,2462,2452,2452,2452,2452,2452,2452,2452,2452,2452,2452,2452,2462,2462,2462,2471,2491,2491,2491,2491,2491,2491,2491,2501,2501,2501,2501,2501,2512,2512,2512,2512,2512,2512,2512,2522,2522,2522,2522,2522,2522,2522,2522,2522,2522,2522,2522,2512,2512,2512,2512,2512,2501,2501,2501,2501,2501,2501,2501,2491,2491,2491,2491,2491,2491,2491,2491,2501,2501,2512,2512,2512,2522,2522,2522,2532,2532,2532,2532,2543,2543,2543,2522,2522,2512,2512,2501,2491,2491,2471,2471,2462,2462,2462,2452,2452,2452,2442,2442,2442,2442,2442,2442,2452,2462,2462,2471,2471,2462,2462,2452,2442,2442,2442,2442,2442,2433,2433,2414,2404,2404,2395,2395,2395,2404,2404,2404,2395,2395,2376,2376,2367,2349,2349,2332,2314,2314,2288,2288,2272,2255,2255,2231,2231,2215,2199,2199,2191,2191,2168,2153,2153,2138,2131,2131,2131,0,2102,2066,2066,2066,0,0,0,0,1943,1943,1925,1919,1919,1913,1913,1901,1895,1895,1867,1844,1844,1828,1828,1812,1796,1796,1775,1775,1755,1731,1731,1712,1712,1693,1674,1674,1656,1656,1639,1622,1622,1613,1613,1609,1605,1605,1601,1601,1601,1601,1601,1601,1605,1605,1605,1609,1630,1630,1665,0,1775,1775,1844,1844,1907,1937,1931,1931,1937,1937,1931,1931,1919,1919,1901,1878,1878,1861,1861,1839,1823,1823,1807,1807,1786,1770,1770,1750,1736,1736,1726,1726,1721,1712,1712,1702,1702,1697,1688,1688,1679,1670,1670,1665,1665,1656,1652,1652,1652,1652,1648,1643,1643,1643,1643,1643,1643,1648,1648,1661,1661,1661,1665,1670,1670,1674,0,0,0,0,0,0,0,0,0,0,0,0,0,5281,5281,5192,5149,5149,5149,0,5064,5023,5023,4943,4943,4904,4865,4865,4790,4753,4753,4716,4716,4681,4646,4646,4577,4543,4543,4477,4477,4445,4382,4382,4351,4351,4321,4321,4321,4321,4351,4351
0,0,0,0,0,0,0,0,0,0,0,0,0,0,0,0,0,0,0,0,0,0,0,0,0,0,0,0,0,0,0,0,0,0,0,0,0,0,0,0,0,0,0,0,0,0,0,0,0,0,0,0,0,0,0,0,0,0,0,0,0,0,0,0,0,0,0,0,0,0,0,0,0,0,0,0,0,0,2176,2176,2176,0,0,2199,2199,2207,2207,2215,2223,2223,2223,2223,2231,2239,2239,2247,2263,2263,2272,2272,2280,2305,2305,2332,2349,2349,2367,2386,2386,2404,2404,2423,2442,2442,2462,2471,2471,2481,2481,2481,2481,2471,2471,2491,2491,2491,2491,2491,2491,2491,2491,2491,2491,2491,2491,2491,2491,2491,2491,2491,2491,2491,2491,2491,2491,2491,2501,2501,2501,2501,2512,2512,2522,2522,2532,2532,2532,2543,2553,2553,2553,2564,2564,2564,2564,2564,2574,2574,2574,2574,2574,2574,2574,2564,2564,2564,2564,2564,2564,2564,2553,2553,2553,2553,2553,2553,2553,2553,2553,2553,2553,2553,2553,2553,2553,2553,2553,2543,2543,2543,2543,2543,2543,2543,2543,2543,2543,2543,2532,2532,2532,2532,2522,2522,2522,2512,2512,2512,2512,2512,2501,2501,2512,2501,2501,2501,2491,2491,2491,2491,2491,2491,2491,2481,2481,2481,2481,2481,2481,2481,2481,2481,2481,2481,2481,2481,2481,2481,2481,2481,2481,2481,2481,2471,2471,2471,2471,2471,2462,2462,2462,2462,2462,2462,2462,2462,2452,2452,2452,2462,2462,2462,2462,2471,2471,2471,2471,2481,2491,2491,2501,2501,2501,2501,2501,2512,2512,2512,2512,2512,2512,2512,2512,2512,2512,2512,2501,2501,2501,2501,2501,2491,2491,2481,2471,2471,2471,2471,2462,2462,2462,2462,2462,2471,2471,2471,2471,2471,2471,2471,2471,2481,2481,2491,2491,2491,2491,2491,2501,2501,2501,2501,2501,2512,2512,2512,2512,2512,2512,2512,2522,2522,2522,2522,2522,2522,2522,2522,2522,2522,2522,2522,2512,2512,2512,2512,2512,2501,2501,2501,2501,2501,2501,2501,2491,2491,2491,2491,2491,2491,2491,2491,2501,2501,2501,2501,2512,2512,2512,2522,2522,2522,2532,2532,2532,2532,2532,2522,2522,2512,2512,2491,2481,2481,2462,2462,2452,2442,2442,2433,2433,2433,2423,2423,2423,2423,2423,2423,2433,2442,2442,2452,2442,2442,2442,2433,2423,2423,2423,2423,2423,2423,2433,2414,2404,2404,2395,2395,2395,2404,2404,2404,2395,2395,2376,2376,2367,2349,2349,2332,2314,2314,2288,2288,2280,2263,2263,2239,2239,2223,2199,2199,2191,2191,2168,2153,2153,2138,2131,2131,2123,2123,2094,2060,2060,2060,0,0,0,0,1943,1943,1925,1919,1919,1913,1913,1901,1889,1889,1861,1839,1839,1823,1823,1807,1796,1796,1775,1775,1755,1731,1731,1712,1712,1693,1674,1674,1656,1656,1643,1626,1626,1613,1613,1609,1605,1605,1601,1601,1601,1601,1601,1601,1605,1605,1605,1609,1626,1626,1665,0,1775,1775,1844,1844,1907,1937,1931,1931,1937,1937,1931,1931,1919,1919,1901,1878,1878,1861,1861,1839,1823,1823,1807,1807,1786,1770,1770,1750,1740,1740,1726,1726,1721,1712,1712,1702,1702,1697,1688,1688,1679,1670,1670,1665,1665,1656,1652,1652,1652,1652,1648,1643,1643,1643,1643,1643,1643,1648,1648,1661,1661,1661,1665,1670,1670,1674,0,0,0,0,0,0,0,5236,5192,5192,5192,5192,5192,0,0,5192,5106,5106,5064,5064,5064,5023,5023,4983,4983,4943,4904,4904,4865,4827,4827,4790,4790,4716,4681,4681,4646,4577,4577,4543,4543,4477,4413,4413,4382,4382,4382,4382,4382,4382,4413,4413
0,0,0,0,0,0,0,0,0,0,0,0,0,0,0,0,0,0,0,0,0,0,0,0,0,0,0,0,0,0,0,0,0,0,0,0,0,0,0,0,0,0,0,0,0,0,0,0,0,0,0,0,0,0,0,0,0,0,0,0,0,0,0,0,0,0,0,0,0,0,0,0,0,0,0,0,2145,2145,2145,2176,2168,2168,2176,2176,2183,2207,2207,2215,2223,2223,2223,2223,2231,2239,2239,2247,2263,2263,2272,2272,2280,2305,2305,2332,2349,2349,2367,2386,2386,2404,2404,2423,2442,2442,2462,2471,2471,2481,2481,2481,2481,2471,2471,2481,2481,2481,2481,2481,2481,2481,2481,2481,2471,2471,2481,2481,2481,2481,2481,2481,2481,2481,2481,2481,2481,2481,2481,2491,2491,2491,2501,2501,2512,2522,2522,2522,2522,2532,2543,2543,2553,2553,2553,2564,2564,2564,2574,2574,2574,2574,2574,2574,2574,2564,2564,2564,2564,2564,2553,2553,2553,2553,2553,2543,2543,2553,2553,2553,2553,2553,2553,2553,2553,2553,2553,2553,2553,2543,2543,2543,2543,2543,2543,2543,2543,2543,2543,2543,2532,2532,2532,2532,2522,2522,2522,2512,2512,2512,2512,2512,2501,2501,2501,2491,2491,2491,2481,2481,2481,2481,2481,2481,2471,2471,2471,2471,2471,2471,2471,2471,2471,2471,2471,2471,2471,2471,2471,2471,2471,2471,2471,2471,2471,2462,2462,2462,2462,2462,2452,2452,2452,2452,2452,2452,2442,2442,2442,2442,2442,2452,2452,2452,2462,2462,2462,2471,2471,2481,2491,2491,2491,2501,2501,2501,2501,2512,2512,2512,2512,2512,2512,2512,2512,2512,2512,2512,2512,2512,2512,2512,2501,2501,2501,2491,2491,2491,2481,2481,2481,2471,2471,2471,2471,2471,2471,2471,2471,2471,2471,2471,2471,2481,2481,2481,2481,2481,2491,2491,2491,2491,2491,2491,2491,2491,2491,2491,2501,2501,2501,2501,2512,2512,2512,2512,2512,2512,2512,2512,2512,2512,2512,2512,2512,2512,2501,2501,2501,2501,2501,2491,2491,2491,2491,2491,2491,2491,2491,2481,2481,2481,2481,2481,2491,2491,2491,2491,2501,2501,2501,2512,2522,2522,2522,2522,2522,2532,2532,2522,2522,2512,2512,2491,2481,2481,2462,2462,2452,2442,2442,2433,2433,2433,2423,2423,2423,2423,2423,2423,2433,2442,2442,2452,2442,2442,2442,2433,2423,2423,2423,2423,2423,2404,2404,2395,2376,2376,2376,2386,2386,2386,2386,2386,2386,2386,2367,2367,2358,2340,2340,2332,2314,2314,2288,2288,2280,2263,2263,2239,2239,2223,2199,2199,2183,2183,2168,2153,2153,2138,2131,2131,2116,2116,2087,2060,2060,2060,0,0,1980,1980,1949,1949,1931,1925,1925,1913,1907,1901,1889,1889,1861,1839,1839,1823,1823,1807,1796,1796,1775,1775,1755,1731,1731,1712,1712,1693,1674,1674,1656,1656,1643,1626,1626,1617,1617,1609,1605,1605,1601,1601,1601,1601,1601,1601,1605,1605,1605,1609,1626,1626,1665,0,1775,1775,1844,1844,1907,1937,1931,1931,1931,1931,1925,1925,1913,1913,1895,1872,1872,1855,1855,1839,1823,1823,1801,1801,1786,1770,1770,1750,1740,1740,1726,1726,1721,1712,1712,1707,1707,1697,1693,1693,1679,1674,1674,1665,1665,1661,1656,1656,1652,1648,1648,1648,1648,1643,1643,1648,1648,1652,1661,1661,1665,1665,1665,1670,1670,1679,0,0,0,0,0,0,0,5236,5192,5192,5192,5192,5192,0,0,0,5106,5106,5064,5064,5064,5064,5064,5064,4983,4983,4943,4943,4904,4904,4904,4865,4865,4716,4681,4681,4646,4577,4577,4543,4543,4477,4413,4413,4382,4382,4382,4382,4382,4382,4413,4413
0,0,0,0,0,0,0,0,0,0,0,0,0,0,0,0,0,0,0,0,0,0,0,0,0,0,0,0,0,0,0,0,0,0,0,0,0,0,0,0,0,0,0,0,0,0,0,0,0,0,0,0,0,0,0,0,0,0,0,0,0,0,0,0,0,0,0,0,0,0,0,0,0,0,0,0,2145,2145,2145,0,2168,2168,2176,2176,2183,2191,2191,2199,2207,2207,2207,2207,2215,2223,2223,2239,2247,2247,2263,2263,2272,2297,2297,2323,2340,2340,2358,2376,2376,2395,2395,2414,2433,2433,2452,2462,2462,2471,2471,2471,2471,2471,2471,2471,2462,2462,2471,2471,2471,2471,2471,2471,2462,2462,2471,2471,2471,2471,2471,2471,2471,2471,2471,2471,2471,2471,2471,2471,2471,2491,2501,2501,2512,2522,2522,2522,2522,2532,2543,2543,2553,2553,2553,2564,2564,2564,2574,2574,2574,2574,2574,2574,2574,2564,2564,2564,2564,2564,2553,2553,2553,2553,2553,2543,2543,2543,2543,2543,2543,2543,2543,2543,2543,2543,2543,2543,2543,2543,2543,2543,2532,2532,2532,2532,2532,2532,2532,2532,2532,2532,2522,2522,2512,2512,2512,2501,2501,2501,2491,2491,2491,2481,2481,2481,2481,2481,2471,2471,2471,2471,2471,2462,2462,2462,2462,2462,2462,2462,2462,2462,2462,2462,2462,2462,2462,2462,2462,2462,2471,2471,2471,2471,2471,2462,2462,2462,2462,2462,2452,2452,2452,2452,2452,2452,2442,2442,2442,2442,2442,2452,2452,2452,2462,2462,2462,2471,2471,2481,2491,2491,2491,2501,2501,2501,2501,2501,2501,2501,2501,2501,2501,2501,2501,2501,2501,2501,2501,2501,2501,2501,2501,2491,2491,2491,2481,2481,2481,2481,2471,2471,2471,2462,2462,2462,2462,2462,2462,2462,2471,2471,2471,2471,2471,2481,2481,2481,2481,2481,2481,2481,2481,2481,2491,2491,2491,2491,2491,2491,2491,2501,2501,2501,2501,2501,2512,2512,2512,2512,2512,2512,2512,2512,2512,2512,2501,2501,2501,2501,2501,2491,2491,2491,2491,2491,2491,2491,2491,2481,2481,2481,2481,2481,2491,2491,2491,2491,2501,2501,2501,2512,2522,2522,2522,2522,2522,2522,2522,2501,2501,2491,2491,2471,2462,2462,2442,2442,2433,2423,2423,2414,2404,2404,2404,2404,2404,2404,2404,2404,2404,2414,2414,2423,2423,2423,2423,2404,2404,2404,2404,2404,2395,2386,2386,2367,2358,2358,2358,2358,2358,2358,2367,2367,2367,2367,2349,2349,2349,2340,2340,2323,2314,2314,2297,2297,2280,2263,2263,2239,2239,2223,2199,2199,2183,2183,2168,2160,2160,2145,2131,2131,2116,2116,2087,2087,0,0,0,0,1980,1980,1955,1955,1937,1925,1925,1913,1907,1907,1889,1889,1861,1839,1839,1817,1817,1801,1791,1791,1775,1775,1750,1731,1731,1712,1712,1693,1674,1674,1656,1656,1643,1626,1626,1617,1617,1609,1605,1605,1601,1601,1601,1601,1601,1601,1605,1605,1605,1605,1622,1622,1665,0,1775,1775,1844,1844,1907,1937,1925,1925,1931,1925,1919,1919,1907,1907,1889,1872,1872,1850,1850,1833,1817,1817,1801,1801,1786,1770,1770,1750,1740,1740,1731,1731,1721,1716,1716,1712,1712,1702,1693,1693,1684,1674,1674,1670,1670,1665,1656,1656,1652,1648,1648,1648,1648,1648,1648,1648,1648,1652,1661,1661,1665,1665,1665,1670,1670,1679,0,0,0,0,0,5236,5236,5192,5149,5149,5106,5106,5064,5064,0,0,5106,5106,5064,5064,5064,5064,5064,5064,4983,4983,4943,4943,4904,4904,4904,4865,4865,4790,4753,4753,4681,4646,4646,4577,4577,4543,4477,4477,4445,4445,4445,4445,4445,4445,4477,4510
