1968,1968,1980,1980,1993,2006,2006,2013,2026,2026,2032,2032,2046,2046,2046,2053,2060,2060,2060,2060,2066,2066,2066,2073,2087,2087,2109,2123,2123,2123,2123,2123,2131,2131,2138,2145,2145,2153,2153,2138,2138,2131,2131,2131,2131,2131,2131,2131,2131,2116,2109,2109,2094,2094,2094,2094,2094,2094,2102,2102,2102,2102,2102,2102,2102,2102,2109,2116,2116,2116,2116,2116,2123,2123,2116,2116,2116,2123,2123,2123,2123,2123,2131,2138,2138,2145,2153,2153,2168,2168,2176,2191,2191,2207,2215,2215,2231,2247,2247,2247,2247,2255,2255,2247,2247,2247,2239,2239,2239,2239,2239,2231,2231,2239,2239,2239,2231,2223,2223,2223,2223,2215,2207,2207,2199,2191,2191,2191,2191,2191,2191,2191,2191,2191,2191,2191,2191,2191,2191,2199,2199,2199,2199,2199,2199,2199,2199,2199,2199,2191,2191,2191,2191,2183,2176,2176,2168,2168,2168,2168,2168,2160,2153,2153,2145,2145,2145,2145,2145,2145,2138,2138,2138,2138,2138,2138,2138,2131,2131,2131,2131,2123,2123,2123,2131,2131,2131,2138,2138,2138,2145,2145,2145,2145,2153,2153,2153,2153,2160,2160,2160,2160,2160,2160,2160,2160,2160,2160,2160,2160,2160,2160,2160,2160,2160,2160,2160,2160,2160,2160,2160,2160,2160,2160,2160,2160,2160,2160,2160,2160,2168,2168,2168,2168,2168,2168,2168,2168,2176,2176,2176,2183,2183,2183,2183,2191,2191,2183,2176,2176,2176,2176,2176,2176,2176,2176,2176,2183,2183,2183,2183,2191,2199,2199,2207,2223,2223,2223,2223,2231,2231,2231,2231,2239,2239,2239,2239,2239,2239,2239,2239,2239,2239,2239,2239,2239,2239,2239,2239,2239,2239,2239,2239,2239,2239,2239,2239,2239,2239,2239,2247,2247,2247,2247,2263,2272,2263,2255,2255,2255,2255,2247,2247,2263,2255,2247,2247,2239,2239,2223,2223,2231,2231,2239,2239,2239,2239,2239,2247,2247,2247,2255,2255,2255,2263,2263,2263,2272,2272,2263,2263,2255,2255,2247,2239,2239,2239,2231,2231,2223,2223,2207,2207,2207,2207,2207,2207,2207,2207,2207,2207,2215,2215,2223,2231,2231,2231,2231,2239,2239,2239,2247,2255,2255,2255,2263,2263,2263,2263,2263,2272,2272,2272,2272,2272,2272,2272,2263,2263,2255,2255,2239,2223,2223,2199,2168,2168,2145,2145,2131,2116,2116,2109,2109,2087,2073,2073,2053,2046,2046,2032,2032,2026,2013,2013,2006,2006,1993,1980,1980,1980,1974,1974,1961,1961,1955,1949,1949,1937,1937,1919,1907,1907,1889,1872,1872,1855,1855,1839,1823,1823,1807,1807,1791,1775,1775,1765,1765,1755,1745,1745,1740,1736,1736,1731,1731,1731,1731,1731,1731,1731,1731,1731,1740,1740,1755,1770,1770,1796,1839,1839,1878,1913,1913,1949,1993,1993,1980,1980,1968,1968,1961,1943,1943,1931,1925,1925,1913,1913,1907,1901,1901,1889,1889,1884,1884,1884,1884,1884,1889,1889,1889,1889,1907,1919,1919,1925,1943,1943,1949,1961,1961,1961,1961,1961,4038,4038,4065,4065,4065,4065,4092,4119,4119,4203,4232,4232,4261,4261,4321,4321,4321,4351,4382,4382,4413,4413,4413,4445,4445,4477,4510,4510,4577,4646,4646,4716,4681,4681,4681,4681,4716,4716,4716,4716,4716,4646,4646,4611,4611,4646,4646,4681,4681,4716,4753,4753,4790,4790,4790,4827,4827,4827,4827,4790,4790,4790,4753,4716,4716,4716,4716,4681,4681,4681,4681,4681,4646,4646,4646,4611,4611,4611,4577,4577,4543,4477,4477,4445,4413,4413,4413,4413,4413,4413,4413,4413,4413,4413,4413,4413,4382,4382,4382,4382,4382,4382,4382,4382,4382,4382,4382,4382,4351,4351,4291,4291,4203,4119,4119,4038,4038,3961,3862,3862,3791,3791,3678,3613,3613
1968,1968,1980,1980,1993,2006,2006,2013,2026,2026,2032,2032,2046,2046,2046,2053,2060,2060,2060,2060,2066,2066,2066,2073,2087,2087,2109,2123,2123,2123,2116,2116,2116,2116,2123,2131,2131,2138,2138,2123,2123,2116,2116,2123,2123,2123,2123,2109,2109,2102,2094,2094,2087,2087,2080,2080,2087,2087,2087,2087,2087,2087,2087,2087,2094,2094,2102,2109,2109,2116,2116,2116,2123,2116,2116,2116,2116,2123,2123,2123,2123,2123,2131,2138,2138,2145,2153,2153,2168,2168,2176,2191,2191,2207,2215,2215,2231,2247,2247,2247,2247,2255,2255,2247,2247,2247,2239,2239,2239,2239,2239,2231,2231,2223,2223,2223,2215,2207,2207,2207,2207,2199,2191,2191,2183,2183,2183,2176,2176,2176,2183,2183,2183,2183,2183,2183,2183,2183,2183,2183,2183,2191,2191,2191,2191,2191,2191,2191,2183,2183,2183,2183,2183,2176,2176,2176,2160,2160,2160,2160,2160,2153,2145,2145,2138,2131,2131,2131,2131,2131,2123,2123,2123,2123,2123,2123,2138,2131,2131,2131,2131,2123,2123,2123,2131,2131,2131,2138,2138,2138,2145,2145,2153,2153,2153,2160,2160,2160,2168,2168,2168,2168,2168,2168,2168,2168,2168,2168,2168,2168,2160,2160,2160,2160,2160,2160,2160,2160,2160,2160,2160,2160,2160,2160,2160,2160,2160,2160,2160,2153,2153,2153,2153,2153,2153,2160,2160,2160,2160,2160,2168,2168,2168,2176,2176,2176,2176,2176,2176,2176,2168,2168,2168,2168,2168,2168,2168,2176,2176,2176,2176,2183,2191,2191,2207,2215,2215,2223,2231,2231,2231,2231,2231,2239,2239,2239,2239,2239,2239,2239,2239,2239,2239,2239,2239,2239,2239,2239,2239,2239,2239,2239,2239,2239,2239,2239,2239,2239,2239,2239,2247,2247,2247,2247,2263,2272,2263,2255,2255,2255,2255,2247,2247,2247,2247,2239,2239,2231,2231,2215,2215,2223,2223,2231,2231,2231,2231,2231,2239,2239,2239,2247,2255,2255,2255,2255,2255,2263,2263,2255,2255,2255,2255,2247,2239,2239,2239,2231,2231,2223,2223,2207,2207,2207,2207,2207,2207,2207,2207,2207,2207,2215,2215,2223,2223,2223,2231,2231,2239,2239,2239,2247,2255,2255,2255,2263,2263,2263,2263,2263,2272,2272,2272,2272,2272,2280,2272,2263,2263,2255,2255,2247,2223,2223,2199,2176,2176,2153,2153,2138,2116,2116,2109,2109,2087,2073,2073,2053,2046,2046,2032,2032,2019,2013,2013,2000,2000,1987,1974,1974,1974,1968,1968,1961,1961,1955,1943,1943,1931,1931,1919,1907,1907,1889,1872,1872,1855,1855,1839,1823,1823,1807,1807,1791,1775,1775,1765,1765,1750,1740,1740,1736,1731,1731,1726,1726,1726,1726,1726,1726,1726,1731,1731,1740,1740,1745,1760,1760,1791,1833,1833,1878,1901,1901,1943,1993,1993,1980,1980,1968,1968,1961,1943,1943,1937,1925,1925,1919,1919,1913,1907,1907,1895,1895,1889,1889,1889,1889,1889,1889,1889,1895,1907,1907,1919,1919,1931,1949,1949,1961,1961,1961,1961,1961,1961,4038,4038,4065,4065,4065,4065,4092,4119,4119,4203,4232,4232,4261,4261,4321,4321,4321,4351,4382,4382,4413,4413,4413,4445,4445,4477,4510,4510,4577,4646,4646,4716,4681,4681,4681,4681,4716,4716,4716,4753,4716,4681,4681,4646,4646,4646,4646,4681,4716,4716,4753,4753,4790,4790,4790,4827,4827,4827,4827,4827,4827,4827,4790,4753,4753,4716,4716,4716,4716,4716,4716,4716,4716,4681,4681,4646,4646,4646,4611,4611,4577,4510,4510,4445,4445,4445,4413,4413,4413,4413,4413,4413,4413,4413,4413,4413,4382,4382,4382,4382,4382,4382,4382,4382,4382,4382,4382,4382,4351,4351,4261,4261,4203,4092,4092,4012,4012,3935,3862,3862,3745,3745,3678,3571,3571
1961,1968,1974,1974,1980,1993,1993,2006,2019,2019,2026,2026,2032,2039,2039,2046,2053,2053,2060,2060,2066,2066,2066,2073,2087,2087,2102,2109,2109,2116,2109,2102,2102,2102,2109,2116,2116,2116,2116,2123,2123,2116,2116,2123,2123,2123,2123,2109,2109,2102,2094,2094,2087,2087,2080,2080,2087,2087,2087,2087,2087,2087,2087,2087,2094,2094,2102,2109,2109,2116,2116,2116,2123,2116,2116,2116,2116,2116,2116,2123,2123,2123,2131,2131,2131,2138,2145,2145,2160,2160,2168,2183,2183,2191,2207,2207,2223,2231,2231,2231,2231,2239,2239,2239,2231,2231,2231,2231,2223,2215,2215,2215,2215,2207,2199,2199,2199,2191,2191,2183,2183,2183,2176,2176,2168,2168,2168,2160,2160,2160,2168,2168,2168,2168,2168,2168,2176,2176,2176,2183,2183,2191,2191,2191,2191,2191,2191,2191,2183,2183,2183,2183,2183,2176,2176,2176,2160,2160,2160,2160,2160,2153,2145,2145,2138,2131,2131,2131,2131,2131,2123,2123,2123,2123,2123,2116,2116,2116,2116,2116,2116,2116,2116,2116,2116,2116,2123,2123,2123,2138,2145,2145,2153,2153,2153,2160,2160,2160,2168,2168,2168,2168,2168,2168,2168,2168,2168,2168,2168,2168,2168,2168,2168,2168,2168,2160,2160,2160,2160,2160,2160,2160,2160,2153,2153,2153,2145,2145,2145,2145,2145,2145,2145,2145,2145,2145,2145,2153,2160,2160,2168,2168,2168,2176,2176,2176,2176,2176,2176,2176,2168,2168,2168,2168,2168,2168,2168,2176,2176,2176,2176,2183,2191,2191,2207,2215,2215,2223,2231,2231,2231,2231,2239,2239,2239,2239,2239,2239,2239,2239,2239,2239,2239,2239,2239,2231,2231,2231,2239,2239,2239,2231,2231,2231,2231,2231,2239,2239,2239,2239,2239,2239,2239,2239,2247,2263,2255,2247,2247,2247,2247,2239,2239,2239,2231,2223,2223,2223,2223,2207,2207,2215,2215,2223,2223,2223,2223,2223,2231,2239,2239,2239,2247,2247,2247,2247,2255,2255,2255,2255,2255,2255,2255,2247,2239,2239,2239,2231,2231,2223,2223,2215,2207,2207,2207,2207,2207,2207,2215,2215,2215,2215,2215,2223,2223,2223,2231,2231,2239,2239,2239,2247,2255,2255,2255,2263,2263,2263,2263,2263,2272,2272,2272,2272,2272,2280,2272,2263,2263,2255,2247,2247,2223,2223,2199,2176,2176,2153,2153,2138,2116,2116,2109,2109,2087,2066,2066,2053,2039,2039,2026,2026,2019,2006,2006,1993,1993,1980,1968,1968,1961,1961,1961,1955,1955,1949,1943,1943,1931,1931,1919,1901,1901,1889,1878,1878,1855,1855,1839,1823,1823,1807,1807,1791,1775,1775,1765,1765,1750,1740,1740,1736,1731,1731,1726,1726,1726,1726,1726,1726,1726,1731,1731,1740,1740,1745,1760,1760,1791,1833,1833,1901,1901,1901,1943,1987,1987,1980,1980,1968,1968,1961,1943,1943,1937,1925,1925,1919,1919,1913,1907,1907,1895,1895,1889,1889,1889,1889,1889,1889,1889,1889,1907,1907,1919,1919,1931,1949,1949,1961,1968,1968,1974,1974,1974,4038,4065,4092,4092,4119,4119,4175,4203,4203,4261,4291,4291,4351,4382,4382,4413,4413,4413,4413,4413,4413,4413,4413,4477,4477,4477,4510,4510,4577,4681,4681,4716,4716,4716,4716,4716,4753,4753,4753,4753,4753,4681,4681,4646,4646,4681,4681,4716,4753,4753,4790,4790,4790,4827,4827,4827,4827,4827,4865,4865,4827,4827,4790,4753,4753,4716,4716,4716,4716,4716,4716,4716,4716,4681,4681,4646,4646,4646,4611,4577,4577,4510,4510,4445,4445,4445,4413,4413,4413,4413,4413,4413,4413,4413,4382,4382,4382,4382,4382,4382,4382,4382,4382,4382,4382,4382,4382,4351,4321,4321,4261,4261,4175,4092,4092,4012,4012,3935,3814,3814,3722,3722,3634,3571,3571
1949,1968,1974,1974,1980,1993,1993,2006,2019,2019,2026,2026,2032,2039,2039,2046,2053,2053,2060,2060,2066,2066,2066,2073,2087,2087,2102,2109,2109,2116,2109,2102,2102,2102,2109,2116,2116,2116,2116,2102,2102,2102,2102,2102,2102,2109,2109,2102,2102,2094,2080,2080,2073,2073,2073,2073,2073,2073,2073,2073,2073,2080,2080,2087,2087,2087,2102,2102,2102,2109,2109,2109,2116,2116,2116,2116,2116,2116,2116,2123,2123,2123,2131,2131,2131,2131,2145,2145,2153,2153,2160,2176,2176,2191,2199,2199,2215,2223,2223,2223,2223,2231,2239,2239,2231,2231,2231,2231,2223,2215,2215,2215,2215,2207,2199,2199,2199,2191,2191,2183,2183,2183,2176,2176,2168,2168,2168,2160,2160,2160,2168,2168,2168,2168,2168,2168,2176,2176,2176,2176,2176,2176,2183,2183,2183,2176,2176,2176,2176,2176,2176,2176,2176,2176,2168,2168,2160,2153,2153,2153,2153,2145,2138,2138,2131,2123,2123,2123,2123,2116,2116,2116,2109,2109,2109,2109,2109,2109,2109,2109,2102,2102,2109,2109,2109,2109,2116,2123,2123,2131,2145,2145,2153,2153,2153,2160,2160,2168,2168,2168,2176,2176,2176,2176,2176,2176,2183,2176,2176,2176,2176,2176,2176,2168,2168,2168,2160,2160,2160,2160,2160,2160,2160,2153,2153,2153,2145,2145,2145,2145,2145,2145,2145,2145,2145,2145,2145,2153,2153,2153,2160,2168,2168,2168,2168,2168,2176,2168,2160,2160,2160,2160,2160,2160,2160,2160,2168,2168,2168,2176,2176,2183,2191,2191,2207,2215,2215,2215,2231,2231,2231,2231,2231,2231,2231,2231,2231,2231,2231,2231,2231,2231,2231,2231,2231,2231,2231,2231,2231,2231,2231,2231,2231,2231,2231,2231,2231,2231,2231,2231,2239,2239,2239,2239,2247,2263,2255,2247,2247,2247,2247,2239,2239,2239,2231,2223,2223,2223,2223,2207,2207,2215,2215,2223,2223,2223,2223,2223,2231,2239,2239,2239,2247,2247,2247,2247,2255,2255,2255,2255,2255,2247,2247,2247,2239,2239,2231,2231,2231,2223,2223,2215,2207,2207,2207,2207,2207,2207,2215,2215,2215,2215,2215,2223,2223,2223,2231,2231,2231,2239,2239,2247,2255,2255,2255,2263,2263,2263,2263,2263,2272,2272,2272,2280,2280,2280,2280,2263,2263,2263,2247,2247,2231,2231,2207,2176,2176,2153,2153,2131,2116,2116,2109,2109,2087,2066,2066,2053,2039,2039,2026,2026,2019,2006,2006,1993,1993,1980,1968,1968,1961,1961,1961,1955,1955,1949,1943,1943,1931,1931,1919,1901,1901,1889,1878,1878,1855,1855,1839,1823,1823,1807,1807,1791,1775,1775,1760,1760,1750,1740,1740,1736,1731,1731,1726,1726,1726,1726,1726,1726,1726,1731,1731,1740,1740,1745,1755,1755,1781,1833,1833,1895,1895,1895,1937,1987,1987,1980,1980,1968,1968,1961,1943,1943,1937,1931,1931,1919,1919,1913,1913,1913,1895,1895,1889,1889,1889,1889,1889,1889,1889,1889,1907,1907,1919,1919,1931,1949,1949,1968,1974,1974,1974,1980,1980,4092,4119,4119,4119,4147,4147,4203,4261,4261,4321,4351,4351,4382,4413,4413,4413,4413,4445,4445,4445,4445,4445,4445,4477,4477,4477,4510,4510,4577,4681,4681,4716,4716,4716,4716,4716,4753,4753,4753,4753,4753,4681,4681,4646,4646,4681,4681,4716,4753,4753,4790,4790,4790,4827,4827,4827,4827,4827,4865,4865,4827,4827,4827,4790,4790,4790,4790,4753,4753,4753,4753,4716,4716,4716,4716,4681,4646,4646,4646,4577,4577,4543,4543,4477,4445,4445,4413,4413,4413,4413,4413,4413,4413,4413,4382,4382,4382,4382,4382,4382,4382,4382,4382,4382,4382,4382,4382,4351,4321,4321,4261,4261,4175,4092,4092,4012,4012,3935,3814,3814,3722,3722,3634,3531,3531
1949,1955,1961,1961,1968,1980,1980,1993,2006,2006,2013,2013,2026,2026,2026,2039,2053,2053,2060,2060,2060,2066,2066,2073,2080,2080,2094,2102,2102,2102,2094,2087,2087,2087,2094,2102,2102,2102,2102,2087,2087,2087,2087,2087,2087,2087,2087,2087,2087,2080,2073,2073,2066,2066,2060,2060,2060,2060,2066,2073,2073,2073,2073,2080,2087,2087,2102,2102,2102,2109,2109,2109,2116,2116,2116,2116,2116,2123,2123,2123,2123,2123,2131,2131,2131,2131,2145,2145,2153,2153,2160,2176,2176,2191,2199,2199,2215,2223,2223,2223,2223,2223,2223,2223,2215,2215,2215,2215,2215,2207,2207,2199,2199,2191,2183,2183,2176,2176,2176,2168,2168,2168,2160,2160,2153,2153,2153,2153,2153,2153,2153,2153,2153,2160,2160,2160,2160,2160,2160,2168,2168,2168,2176,2176,2176,2168,2168,2176,2176,2176,2176,2168,2168,2168,2160,2160,2153,2145,2145,2138,2138,2138,2138,2138,2131,2123,2123,2123,2123,2116,2116,2116,2109,2109,2109,2109,2109,2109,2109,2109,2102,2102,2109,2109,2109,2109,2116,2123,2123,2131,2145,2145,2153,2160,2160,2160,2160,2168,2176,2176,2176,2176,2176,2176,2176,2176,2183,2176,2176,2176,2176,2176,2176,2168,2168,2168,2160,2160,2160,2160,2160,2153,2153,2153,2145,2145,2145,2145,2138,2138,2138,2138,2138,2138,2138,2138,2138,2145,2145,2145,2153,2153,2153,2160,2160,2160,2160,2160,2153,2153,2153,2153,2153,2153,2160,2160,2160,2160,2160,2168,2168,2176,2191,2191,2207,2215,2215,2215,2231,2231,2231,2231,2231,2231,2231,2231,2231,2231,2231,2231,2231,2231,2231,2231,2231,2231,2231,2231,2231,2231,2231,2231,2231,2231,2231,2231,2231,2231,2231,2231,2231,2231,2239,2239,2239,2255,2247,2239,2239,2231,2231,2231,2231,2231,2223,2215,2215,2215,2215,2207,2207,2207,2207,2215,2215,2215,2223,2223,2223,2231,2231,2239,2239,2239,2247,2247,2247,2255,2255,2247,2247,2247,2247,2247,2239,2239,2231,2231,2231,2223,2223,2215,2215,2215,2215,2215,2215,2215,2215,2215,2215,2215,2215,2223,2231,2231,2231,2231,2231,2239,2239,2247,2255,2255,2263,2263,2263,2263,2263,2263,2272,2272,2272,2280,2280,2280,2280,2272,2272,2263,2255,2255,2231,2231,2207,2176,2176,2153,2153,2131,2116,2116,2102,2102,2087,2066,2066,2046,2032,2032,2019,2019,2006,2000,2000,1987,1987,1974,1961,1961,1961,1955,1955,1955,1955,1949,1937,1937,1925,1925,1913,1901,1901,1889,1878,1878,1861,1861,1839,1823,1823,1807,1807,1791,1775,1775,1760,1760,1750,1740,1740,1736,1731,1731,1726,1726,1721,1721,1721,1721,1726,1726,1726,1740,1740,1745,1755,1755,1781,0,0,1895,1895,1895,1937,1987,1987,1980,1980,1968,1968,1961,1943,1943,1937,1931,1931,1925,1925,1919,1913,1913,1901,1895,1895,1889,1889,1889,1889,1889,1889,1889,1901,1901,1913,1913,1925,1943,1943,1961,1968,1968,1968,1968,1968,4092,4119,4119,4119,4147,4147,4203,4261,4261,4321,4351,4351,4382,4413,4413,4413,4413,4445,4445,4445,4445,4445,4445,4477,4477,4510,4510,4510,4611,4681,4681,4716,4716,4716,4716,4716,4753,4790,4790,4790,4790,4753,4753,4716,4716,4716,4716,4716,4790,4790,4790,4790,4790,4827,4827,4827,4865,4865,4865,4865,4865,4865,4827,4827,4827,4827,4827,4790,4790,4790,4790,4753,4753,4716,4716,4716,4646,4646,4646,4611,4611,4577,4577,4477,4445,4445,4413,4413,4413,4382,4382,4382,4382,4382,4382,4382,4382,4382,4382,4382,4382,4382,4382,4382,4382,4382,4382,4351,4321,4321,4261,4261,4175,4092,4092,3961,3961,3886,3767,3767,3700,3700,3592,3511,3511
1943,1949,1949,1949,1961,1968,1968,1980,1993,1993,2000,2000,2013,2019,2019,2026,2039,2039,2046,2060,2060,2060,2060,2066,2073,2073,2094,2102,2102,2102,2094,2087,2087,2087,2094,2102,2102,2102,2102,2087,2087,2087,2087,2087,2087,2087,2087,2087,2087,2080,2073,2073,2066,2066,2060,2060,2060,2060,2066,2073,2073,2073,2073,2080,2080,2080,2094,2102,2102,2102,2102,2109,2116,2116,2116,2116,2116,2123,2123,2123,2123,2123,2131,2131,2131,2131,2145,2145,2153,2153,2160,2176,2176,2183,2191,2191,2199,2207,2207,2215,2215,2215,2215,2207,2199,2199,2199,2199,2191,2191,2191,2183,2183,2176,2168,2168,2160,2153,2153,2153,2153,2145,2145,2145,2138,2138,2153,2153,2153,2153,2153,2153,2153,2160,2160,2160,2160,2160,2160,2168,2168,2168,2176,2176,2176,2168,2168,2176,2176,2176,2176,2168,2168,2168,2160,2160,2153,2145,2145,2138,2138,2138,2131,2131,2123,2116,2116,2109,2109,2109,2109,2109,2102,2102,2102,2102,2102,2102,2102,2102,2094,2094,2102,2102,2109,2109,2109,2123,2123,2131,2138,2138,2153,2160,2160,2160,2160,2168,2176,2176,2183,2183,2183,2191,2191,2183,2183,2183,2183,2183,2183,2183,2183,2176,2176,2168,2168,2168,2160,2160,2160,2153,2153,2153,2145,2145,2145,2145,2138,2138,2138,2138,2138,2138,2138,2138,2138,2145,2145,2145,2153,2153,2153,2160,2160,2160,2160,2160,2153,2153,2153,2153,2153,2153,2160,2160,2160,2160,2160,2168,2168,2176,2191,2191,2199,2207,2207,2215,2223,2223,2223,2223,2231,2231,2231,2231,2231,2231,2231,2231,2231,2231,2231,2231,2231,2231,2231,2231,2223,2223,2223,2223,2223,2223,2223,2223,2223,2223,2223,2223,2223,2223,2231,2231,2231,2239,2239,2231,2231,2231,2231,2223,2223,2223,2223,2215,2215,2207,2207,2199,2199,2207,2207,2207,2215,2215,2223,2223,2223,2231,2231,2239,2239,2239,2247,2247,2247,2255,2255,2247,2247,2247,2247,2247,2239,2239,2239,2239,2239,2231,2231,2223,2223,2223,2223,2223,2223,2223,2223,2223,2223,2223,2223,2223,2231,2231,2231,2231,2231,2239,2239,2247,2255,2255,2263,2263,2263,2263,2263,2263,2272,2272,2272,2280,2280,2280,2280,2272,2272,2263,2255,2255,2231,2231,2207,2176,2176,2153,2153,2131,2116,2116,2102,2102,2080,2060,2060,2039,2032,2032,2019,2019,2006,1993,1993,1987,1987,1974,1961,1961,1955,1955,1955,1955,1955,1949,1937,1937,1925,1925,1913,1901,1901,1889,1878,1878,1861,1861,1844,1823,1823,1807,1807,1791,1775,1775,1760,1760,1750,1740,1740,1736,1731,1731,1726,1726,1721,1721,1721,1721,1726,1726,1726,1736,1736,1740,1750,1750,1781,1823,1823,1895,1895,1895,1931,1980,1980,1980,1980,1968,1961,1961,1943,1943,1937,1931,1931,1925,1925,1919,1913,1913,1901,1895,1895,1889,1889,1889,1889,1889,1889,1889,1901,1901,1901,1901,1913,1937,1937,1943,1955,1955,1955,1961,1961,4092,4147,4175,4175,4232,4261,4261,4321,4321,4382,4413,4413,4445,4477,4477,4477,4477,4477,4510,4477,4477,4477,4477,4510,4510,4510,4543,4543,4611,4716,4716,4753,4753,4753,4753,4753,4753,4790,4790,4827,4827,4753,4753,4753,4753,4753,4753,4790,4790,4790,4790,4790,4790,4827,4827,4827,4865,4865,4865,4865,4865,4865,4827,4827,4827,4827,4827,4790,4790,4790,4790,4753,4753,4716,4716,4716,4646,4646,4646,4611,4611,4577,4577,4477,4445,4445,4413,4413,4413,4382,4382,4382,4382,4382,4382,4382,4382,4382,4382,4382,4382,4382,4382,4382,4382,4382,4382,4351,4321,4321,4232,4232,4175,4092,4092,3961,3961,3886,3767,3767,3700,3700,3592,3511,3511
1943,1949,1949,1949,1961,1968,1968,1980,1993,1993,2000,2000,2013,2019,2019,2026,2039,2039,2046,2060,2060,2060,2060,2066,2073,2073,2094,2094,2094,2102,2087,2087,2087,2080,2080,2087,2087,2087,2087,2080,2080,2080,2073,2073,2073,2080,2080,2080,2080,2073,2066,2066,2060,2060,2060,2060,2060,2060,2060,2060,2060,2066,2066,2073,2080,2080,2087,2094,2094,2102,2102,2109,2116,2116,2116,2123,2123,2123,2131,2131,2131,2131,2131,2131,2131,2138,2145,2145,2153,2153,2160,2176,2176,2183,2191,2191,2199,2207,2207,2215,2215,2215,2215,2207,2199,2199,2199,2199,2191,2191,2191,2183,2183,2176,2168,2168,2160,2153,2153,2153,2153,2145,2145,2145,2138,2138,2138,2138,2138,2138,2145,2145,2145,2145,2145,2145,2153,2153,2153,2160,2160,2160,2160,2160,2168,2168,2168,2168,2168,2168,2168,2160,2160,2160,2153,2153,2145,2145,2145,2138,2138,2123,2123,2123,2116,2116,2116,2109,2109,2102,2102,2102,2094,2094,2094,2094,2094,2094,2094,2094,2094,2094,2102,2102,2102,2102,2109,2116,2116,2131,2138,2138,2153,2160,2160,2168,2168,2176,2183,2183,2191,2191,2191,2191,2191,2199,2199,2199,2191,2191,2191,2191,2183,2183,2183,2176,2168,2168,2168,2168,2160,2153,2153,2153,2145,2145,2145,2145,2138,2138,2138,2138,2138,2138,2138,2138,2131,2131,2138,2138,2145,2145,2145,2153,2153,2153,2160,2153,2145,2145,2145,2153,2153,2153,2160,2160,2160,2160,2160,2168,2168,2176,2191,2191,2199,2207,2207,2215,2215,2215,2223,2223,2223,2223,2223,2223,2231,2231,2231,2231,2223,2223,2223,2223,2223,2223,2223,2223,2223,2223,2223,2223,2223,2223,2223,2223,2223,2223,2223,2223,2223,2223,2231,2231,2231,2239,2239,2231,2231,2231,2231,2223,2223,2223,2223,2215,2215,2207,2207,2199,2199,2207,2207,2207,2215,2215,2215,2215,2223,2223,2223,2231,2239,2239,2239,2239,2239,2247,2247,2247,2247,2247,2247,2247,2239,2239,2239,2239,2239,2231,2231,2223,2223,2223,2223,2223,2223,2223,2223,2223,2223,2223,2223,2231,2231,2231,2239,2239,2239,2239,2239,2247,2255,2255,2263,2263,2263,2263,2263,2263,2272,2272,2280,2288,2288,2288,2280,2280,2280,2272,2255,2255,2239,2239,2207,2176,2176,2153,2153,2131,2116,2116,2102,2102,2080,2060,2060,2039,2032,2032,2019,2019,2006,1993,1993,1987,1987,1974,1961,1961,1955,1955,1955,1955,1955,1943,1937,1937,1925,1913,1913,1901,1901,1889,1872,1872,1861,1861,1844,1823,1823,1807,1807,1791,1775,1775,1760,1760,1750,1740,1740,1736,1731,1731,1726,1726,1721,1721,1721,1721,1726,1726,1726,1736,1736,1740,1745,1745,1775,1812,1812,0,0,1925,1925,1974,1974,1980,1980,1968,1961,1961,1943,1943,1937,1931,1931,1925,1925,1919,1919,1919,1901,1901,1901,1889,1889,1889,1889,1889,1889,1889,1901,1901,1901,1901,1913,1937,1937,1943,1955,1955,1955,1961,1961,4232,4232,4261,4261,4291,4351,4351,4413,4413,4413,4413,4413,4445,4477,4477,4477,4477,4477,4510,4477,4477,4477,4477,4510,4510,4510,4543,4543,4611,4681,4681,4753,4753,4753,4753,4753,4753,4790,4790,4827,4827,4753,4753,4753,4753,4753,4753,4790,4790,4790,4827,4790,4790,4827,4827,4827,4827,4827,4865,4865,4865,4865,4827,4827,4827,4827,4827,4827,4790,4790,4790,4790,4790,4753,4753,4716,4681,4681,4646,4611,4611,4577,4577,4477,4445,4445,4413,4413,4413,4382,4382,4382,4382,4382,4382,4382,4382,4382,4382,4382,4382,4382,4382,4382,4382,4382,4382,4351,4321,4321,4232,4232,4147,4038,4038,3935,3935,3838,3722,3722,3634,3634,3551,3491,3491
1931,1937,1937,1937,1943,1955,1955,1968,1974,1974,1987,1987,1993,2006,2006,2013,2026,2026,2039,2046,2046,2053,2053,2060,2073,2073,2087,2087,2087,2094,2080,2073,2073,2073,2073,2080,2080,2080,2080,2066,2066,2066,2066,2066,2066,2073,2073,2066,2066,2060,2060,2066,2060,2060,2060,2060,2060,2060,2060,2060,2060,2066,2066,2073,2080,2080,2087,2094,2094,2102,2109,2109,2116,2116,2123,2123,2123,2131,2131,2131,2138,2138,2138,2138,2138,2138,2145,2145,2153,2153,2160,2168,2168,2176,2183,2183,2199,2199,2199,2207,2199,2199,2199,2199,2191,2191,2183,2183,2183,2176,2176,2168,2168,2160,2153,2153,2145,2145,2145,2138,2138,2138,2138,2138,2131,2131,2131,2131,2131,2131,2131,2131,2131,2138,2138,2138,2145,2145,2145,2153,2153,2153,2153,2153,2160,2160,2160,2160,2160,2160,2160,2160,2160,2160,2153,2153,2145,2145,2145,2138,2138,2123,2123,2123,2116,2116,2116,2109,2109,2102,2102,2102,2094,2094,2094,2094,2094,2094,2094,2094,2094,2094,2102,2102,2102,2102,2109,2116,2116,2131,2138,2138,2145,2153,2153,2168,2168,2176,2183,2183,2191,2191,2191,2191,2191,2199,2199,2199,2191,2191,2191,2191,2183,2183,2183,2176,2168,2168,2168,2168,2160,2153,2153,2153,2145,2145,2145,2145,2138,2138,2138,2138,2131,2131,2131,2131,2131,2131,2138,2138,2145,2145,2145,2145,2145,2153,2153,2153,2145,2145,2145,2153,2153,2153,2160,2160,2160,2160,2160,2168,2168,2176,2191,2191,2207,2215,2215,2215,2215,2215,2223,2223,2223,2223,2223,2223,2231,2231,2231,2231,2223,2223,2223,2223,2223,2223,2223,2223,2223,2223,2223,2215,2215,2215,2215,2215,2215,2223,2223,2223,2223,2223,2223,2223,2231,2239,2231,2231,2231,2223,2223,2223,2223,2223,2215,2215,2215,2207,2207,2199,2199,2199,2199,2207,2207,2207,2215,2215,2215,2223,2223,2223,2231,2231,2231,2231,2231,2247,2247,2247,2247,2239,2239,2239,2239,2239,2239,2239,2239,2239,2231,2231,2231,2231,2231,2231,2231,2231,2231,2231,2231,2231,2231,2239,2239,2239,2239,2247,2247,2247,2247,2247,2255,2255,2263,2263,2263,2263,2263,2272,2272,2272,2280,2288,2288,2288,2280,2280,2280,2272,2255,2255,2239,2239,2207,2176,2176,2153,2153,2131,2109,2109,2094,2094,2080,2060,2060,2039,2026,2026,2013,2013,2006,1993,1993,1980,1980,1974,1961,1961,1955,1955,1955,1949,1949,1943,1937,1937,1925,1913,1913,1901,1901,1889,1872,1872,1861,1861,1844,1823,1823,1807,1807,1791,1781,1781,1765,1755,1750,1745,1745,1736,1731,1731,1726,1726,1726,1726,1726,1726,1726,1731,1731,1736,1740,1740,1745,1745,1775,1812,1812,0,0,1925,1925,1974,1974,1987,1987,1974,1961,1961,1949,1949,1943,1931,1931,1925,1925,1919,1919,1919,1901,1901,1901,1889,1889,1889,1884,1884,1884,1884,1895,1895,1895,1895,1901,1919,1919,1925,1931,1931,1937,1937,1937,4232,4232,4261,4261,4291,4351,4351,4413,4413,4477,4477,4477,4510,4543,4543,4543,4543,4543,4543,4510,4510,4510,4510,4543,4543,4543,4577,4577,4646,4681,4681,4753,4753,4753,4753,4753,4790,4827,4827,4827,4827,4790,4790,4790,4790,4790,4790,4790,4827,4827,4827,4827,4827,4827,4827,4827,4827,4827,4865,4865,4865,4865,4827,4827,4865,4827,4827,4827,4827,4827,4827,4790,4790,4753,4753,4716,4681,4681,4646,4611,4611,4577,4577,4477,4445,4445,4413,4413,4413,4382,4382,4382,4382,4382,4382,4382,4382,4382,4382,4382,4382,4382,4382,4382,4382,4351,4351,4351,4291,4291,4232,4232,4119,3986,3986,3886,3886,3791,3700,3700,3592,3592,3511,3452,3452
1919,1919,1925,1925,1931,1937,1937,1949,1961,1961,1974,1974,1980,1993,1993,2013,2026,2026,2039,2046,2046,2053,2053,2060,2073,2073,2087,2087,2087,2094,2080,2073,2073,2073,2073,2080,2080,2080,2080,2066,2066,2066,2066,2066,2066,2073,2073,2066,2066,2060,2060,2060,2053,2053,2053,2053,2053,2053,2053,2053,2053,2060,2060,2066,2073,2073,2087,2094,2094,2094,2109,2109,2116,2116,2123,2123,2123,2131,2131,2131,2138,2138,2138,2138,2138,2138,2145,2145,2153,2153,2160,2168,2168,2176,2183,2176,2176,2183,2183,2191,2191,2183,2183,2183,2176,2176,2176,2176,2168,2160,2160,2153,2153,2153,2153,2153,2145,2145,2145,2138,2138,2138,2138,2138,2131,2131,2131,2131,2131,2131,2131,2131,2131,2138,2138,2138,2145,2145,2145,2153,2153,2153,2153,2153,2160,2160,2160,2160,2160,2160,2160,2153,2153,2153,2145,2145,2138,2131,2131,2123,2123,2123,2109,2109,2109,2102,2102,2094,2094,2094,2094,2094,2094,2087,2087,2087,2087,2087,2087,2087,2087,2094,2094,2094,2102,2102,2109,2116,2116,2123,2138,2138,2145,2153,2153,2160,2160,2168,2176,2176,2183,2191,2191,2191,2191,2199,2207,2199,2199,2199,2191,2191,2191,2183,2183,2176,2176,2176,2168,2168,2160,2160,2160,2153,2153,2153,2145,2145,2138,2138,2138,2138,2131,2131,2131,2131,2131,2138,2138,2138,2145,2145,2145,2145,2145,2153,2153,2153,2145,2145,2145,2145,2145,2153,2160,2160,2160,2160,2160,2168,2168,2176,2183,2183,2199,2207,2207,2207,2215,2215,2215,2215,2215,2215,2215,2223,2223,2223,2223,2223,2223,2223,2215,2215,2215,2215,2215,2215,2215,2215,2215,2215,2215,2207,2207,2207,2207,2207,2207,2215,2215,2215,2215,2215,2223,2231,2231,2231,2231,2223,2223,2223,2215,2215,2215,2215,2215,2207,2207,2199,2199,2199,2199,2207,2207,2207,2215,2215,2215,2223,2223,2223,2231,2231,2231,2231,2231,2247,2247,2247,2247,2239,2239,2239,2239,2239,2239,2247,2247,2239,2231,2231,2231,2231,2231,2231,2231,2231,2231,2231,2231,2231,2231,2239,2239,2239,2239,2247,2247,2247,2247,2247,2255,2255,2263,2263,2263,2263,2263,2272,2272,2272,2280,2288,2288,2288,2288,2280,2280,2272,2255,2255,2239,2239,2207,2183,2183,2153,2153,2131,2109,2109,2094,2073,2073,2060,2060,2039,2019,2019,2013,2013,2000,1993,1993,1980,1980,1974,1961,1961,1955,1955,1955,1949,1949,1943,1937,1937,1925,1913,1913,1901,1901,1889,1872,1872,1861,1861,1844,1828,1828,1807,1807,1796,1781,1781,1765,1755,1750,1745,1745,1736,1731,1731,1726,1726,1726,1726,1726,1726,1726,1731,1731,1736,1740,1740,1745,1745,1775,1812,1812,0,0,1925,1925,1968,1968,1987,1987,1974,1961,1961,1949,1949,1943,1937,1937,1925,1925,1919,1913,1913,1907,1901,1901,1895,1895,1889,1884,1884,1878,1878,1884,1884,1889,1889,1895,1907,1907,1913,1919,1919,1925,1937,1937,0,4382,4382,4382,4413,4477,4477,4543,4577,4577,4577,4577,4577,4577,4577,4611,4611,4577,4577,4577,4543,4543,4543,4577,4577,4577,4611,4611,4646,4716,4716,4753,4753,4753,4753,4753,4790,4827,4827,4827,4827,4790,4790,4790,4790,4790,4790,4790,4827,4827,4827,4827,4827,4827,4827,4827,4827,4827,4865,4865,4865,4865,4827,4827,4865,4827,4827,4827,4827,4827,4827,4790,4790,4753,4753,4716,4681,4681,4646,4611,4611,4577,4577,4510,4445,4445,4382,4382,4382,4382,4382,4382,4382,4382,4382,4382,4382,4382,4382,4382,4382,4382,4382,4382,4382,4351,4351,4351,4291,4291,4232,4232,4119,3986,3986,3886,3886,3791,3700,3700,3592,3592,3511,3452,3452
1919,1919,1925,1925,1931,1937,1937,1949,1961,1961,1974,1974,1980,1993,1993,2000,2019,2019,2026,2039,2039,2053,2053,2053,2066,2066,2080,2080,2080,2080,2073,2066,2066,2066,2066,2073,2073,2073,2066,2060,2060,2060,2060,2060,2060,2066,2066,2060,2060,2053,2053,2053,2046,2046,2046,2046,2053,2046,2046,2053,2053,2053,2053,2066,2073,2073,2080,2087,2087,2094,2109,2109,2109,2109,2116,2123,2123,2131,2138,2138,2138,2138,2138,2138,2138,2138,2145,2145,2153,2153,2160,2168,2168,2176,2183,2176,2176,2183,2183,2191,2191,2183,2183,2183,2176,2176,2176,2176,2168,2160,2160,2153,2153,2153,2145,2145,2138,2131,2131,2131,2131,2123,2123,2123,2123,2123,2123,2123,2123,2123,2123,2131,2131,2131,2131,2131,2131,2131,2138,2145,2145,2145,2153,2153,2153,2160,2160,2160,2160,2153,2153,2153,2145,2145,2145,2145,2138,2131,2131,2123,2123,2123,2109,2109,2102,2102,2102,2094,2094,2094,2094,2094,2087,2087,2087,2087,2087,2087,2087,2087,2087,2094,2094,2094,2102,2102,2109,2116,2116,2123,2138,2138,2145,2153,2153,2160,2160,2168,2176,2176,2183,2191,2191,2191,2191,2199,2207,2199,2199,2199,2199,2199,2191,2183,2183,2176,2176,2176,2168,2168,2160,2160,2160,2153,2153,2153,2145,2145,2138,2138,2138,2138,2131,2131,2131,2131,2131,2138,2138,2138,2145,2145,2145,2145,2145,2153,2153,2153,2145,2145,2145,2145,2145,2153,2160,2160,2160,2168,2168,2168,2176,2176,2183,2183,2199,2207,2199,2199,2207,2207,2207,2207,2215,2215,2215,2215,2223,2223,2223,2223,2223,2223,2215,2215,2215,2215,2215,2215,2215,2215,2215,2215,2215,2207,2207,2207,2207,2207,2207,2215,2215,2215,2215,2215,2223,2231,2231,2231,2231,2223,2223,2223,2215,2215,2215,2215,2215,2207,2207,2191,2191,2199,2199,2199,2207,2207,2207,2207,2215,2215,2215,2223,2223,2223,2223,2231,2231,2239,2239,2239,2239,2239,2239,2239,2239,2239,2239,2247,2247,2247,2239,2239,2239,2239,2239,2239,2239,2239,2239,2239,2239,2239,2239,2247,2247,2247,2247,2255,2255,2255,2255,2255,2255,2255,2263,2272,2272,2272,2272,2272,2280,2280,2280,2288,2288,2288,2288,2280,2280,2272,2263,2263,2239,2239,2215,2183,2183,2153,2153,2131,2109,2109,2094,2073,2073,2060,2060,2039,2019,2019,2013,2013,2000,1993,1993,1980,1980,1974,1961,1961,1955,1949,1949,1949,1949,1943,1937,1937,1925,1913,1913,1901,1901,1889,1872,1872,1861,1861,1844,1828,1828,1807,1807,1796,1781,1781,1765,1755,1755,1745,1745,1736,1731,1731,1731,1731,1726,1726,1726,1726,1726,1731,1731,1736,1740,1740,1750,1750,1775,1812,1812,0,0,1919,1919,1968,1968,2006,0,1974,1961,1961,1949,1949,1943,1937,1937,1931,1931,1919,1913,1913,1907,1901,1901,1895,1895,1889,1884,1884,1878,1878,1884,1884,1889,1889,1895,1907,1907,1913,1919,1919,1925,1925,1925,0,4382,4382,4382,4413,4477,4477,4543,4577,4577,4577,4577,4577,4577,4577,4611,4611,4577,4577,4577,4543,4543,4543,4577,4577,4577,4611,4611,4646,4716,4716,4716,4753,4753,4753,4753,4790,4827,4827,4865,4865,4827,4827,4827,4827,4827,4827,4827,4865,4827,4827,4827,4827,4827,4827,4827,4865,4865,4865,4865,4865,4865,4865,4865,4865,4865,4865,4865,4827,4827,4827,4827,4827,4753,4753,4716,4681,4681,4646,4611,4611,4577,4577,4543,4445,4445,4382,4382,4382,4382,4382,4382,4382,4382,4382,4382,4382,4382,4382,4382,4382,4382,4382,4351,4351,4351,4351,4321,4291,4291,4203,4203,4065,3935,3935,3838,3838,3745,3634,3634,3551,3551,3471,3414,3414
1907,1907,1913,1913,1913,1931,1931,1943,1955,1955,1968,1968,1974,1980,1980,1993,2006,2006,2019,2032,2032,2039,2039,2046,2060,2060,2066,2073,2073,2073,2066,2060,2060,2053,2053,2060,2053,2053,2053,2053,2060,2060,2060,2060,2060,2066,2066,2060,2060,2053,2053,2053,2046,2046,2046,2046,2053,2046,2046,2053,2053,2053,2053,2066,2073,2073,2080,2087,2087,2102,2109,2109,2109,2109,2116,2123,2123,2131,2131,2131,2138,2138,2138,2138,2138,2138,2145,2145,2145,2145,2153,2160,2160,2160,2160,2160,2168,2168,2168,2176,2176,2168,2168,2168,2160,2160,2160,2160,2160,2153,2153,2145,2145,2138,2131,2131,2131,2123,2123,2123,2123,2116,2116,2116,2116,2116,2116,2116,2116,2116,2116,2116,2116,2116,2123,2123,2123,2131,2131,2145,2145,2145,2153,2153,2153,2160,2160,2160,2160,2153,2153,2153,2145,2145,2145,2145,2138,2131,2131,2123,2123,2123,2109,2109,2102,2102,2102,2094,2094,2094,2094,2094,2087,2087,2087,2087,2087,2087,2087,2087,2087,2094,2094,2094,2102,2102,2109,2116,2116,2123,2131,2131,2138,2145,2145,2160,2160,2160,2168,2168,2176,2183,2183,2183,2191,2191,2191,2191,2199,2199,2191,2191,2191,2191,2191,2183,2176,2176,2176,2176,2168,2160,2160,2160,2153,2153,2145,2145,2145,2138,2138,2138,2138,2138,2138,2138,2138,2138,2138,2138,2145,2145,2145,2145,2145,2153,2153,2153,2145,2145,2145,2153,2153,2153,2160,2160,2160,2168,2168,2176,2176,2176,2183,2183,2199,2207,2199,2199,2207,2207,2207,2207,2215,2215,2215,2215,2215,2215,2215,2215,2215,2215,2215,2207,2207,2207,2207,2207,2207,2207,2207,2207,2207,2207,2207,2207,2207,2207,2207,2207,2207,2207,2215,2215,2215,2223,2223,2223,2223,2223,2223,2223,2215,2215,2215,2207,2207,2207,2207,2191,2191,2191,2191,2199,2199,2199,2207,2207,2207,2207,2207,2215,2215,2215,2215,2223,2223,2223,2223,2239,2239,2239,2239,2239,2239,2239,2239,2247,2247,2247,2247,2247,2247,2247,2247,2255,2255,2255,2255,2255,2255,2255,2255,2255,2255,2255,2255,2255,2255,2263,2263,2263,2263,2263,2263,2272,2272,2272,2272,2272,2280,2280,2280,2288,2288,2288,2288,2280,2280,2272,2263,2263,2239,2239,2215,2183,2183,2153,2153,2123,2102,2102,2087,2066,2066,2046,2046,2032,2019,2019,2006,2006,2000,1987,1987,1980,1974,1974,1961,1961,1955,1949,1949,1949,1949,1943,1931,1931,1925,1913,1913,1901,1901,1884,1872,1872,1861,1861,1844,1828,1828,1812,1812,1801,1786,1786,1770,1760,1760,1750,1750,1740,1736,1736,1731,1731,1731,1731,1731,1731,1731,1736,1736,1736,1740,1740,1755,1755,1775,1812,1812,0,0,1919,1919,1968,1968,1987,1987,1974,1961,1961,1949,1949,1943,1937,1937,1931,1931,1919,1913,1913,1907,1901,1901,1895,1895,1889,1884,1884,1878,1878,1884,1884,1884,1884,1884,1901,1901,1901,1907,1907,1907,1913,1913,0,4611,4611,4611,4611,4646,4646,4681,4716,4681,4681,4681,4681,4681,4646,4646,4681,4646,4646,4611,4611,4611,4611,4611,4646,4646,4646,4646,4681,4716,4716,4716,4753,4753,4790,4790,4790,4865,4865,4865,4904,4865,4865,4827,4827,4827,4827,4865,4904,4865,4865,4865,4827,4827,4827,4827,4865,4865,4865,4865,4865,4865,4865,4865,4865,4865,4865,4865,4827,4827,4827,4827,4827,4753,4716,4716,4681,4681,4646,4611,4611,4577,4577,4543,4445,4445,4382,4382,4382,4382,4382,4382,4382,4382,4382,4382,4382,4382,4382,4382,4382,4382,4351,4351,4351,4351,4351,4321,4261,4261,4147,4147,3986,3862,3862,3767,3767,3656,3571,3571,3491,3491,3414,3414,3414
1907,1907,1913,1913,1913,1931,1931,1943,1955,1955,1968,1968,1974,1980,1980,1993,2006,2006,2019,2032,2032,2039,2039,2046,2060,2060,2066,2073,2073,2073,2066,2060,2060,2053,2053,2060,2053,2053,2053,2046,2046,2046,2053,2060,2060,2066,2066,2060,2060,2053,2053,2053,2046,2046,2046,2046,2053,2046,2046,2046,2046,2053,2053,2060,2066,2066,2073,2087,2087,2094,2102,2102,2109,2109,2116,2123,2123,2131,2131,2131,2138,2138,2138,2138,2138,2138,2138,2138,2145,2145,2145,2153,2153,2153,2153,2153,2153,2160,2160,2160,2153,2153,2168,2168,2160,2160,2160,2160,2160,2153,2153,2145,2145,2138,2131,2131,2131,2123,2123,2123,2123,2116,2116,2116,2116,2116,2116,2116,2116,2116,2116,2116,2116,2116,2123,2123,2123,2131,2131,2138,2138,2138,2145,2145,2145,2153,2153,2153,2153,2153,2153,2145,2145,2145,2138,2138,2138,2131,2131,2123,2116,2116,2109,2109,2102,2102,2102,2094,2094,2094,2094,2094,2087,2087,2087,2087,2087,2087,2087,2087,2087,2094,2094,2094,2102,2109,2109,2116,2116,2116,2131,2131,2131,2145,2145,2145,2145,2153,2160,2160,2168,2176,2176,2183,2191,2191,2191,2191,2199,2199,2191,2191,2191,2191,2191,2183,2183,2183,2176,2176,2176,2168,2168,2160,2160,2160,2160,2160,2153,2145,2145,2145,2145,2145,2145,2145,2145,2138,2138,2138,2145,2145,2145,2145,2145,2153,2153,2153,2145,2145,2145,2153,2153,2153,2160,2160,2160,2168,2168,2176,2176,2176,2183,2183,2199,2199,2199,2199,2199,2199,2199,2199,2207,2207,2207,2207,2207,2207,2207,2207,2199,2199,2199,2199,2199,2199,2199,2199,2199,2199,2199,2199,2199,2199,2199,2199,2199,2199,2199,2199,2207,2207,2215,2215,2215,2223,2223,2223,2223,2223,2223,2223,2215,2215,2215,2207,2207,2207,2207,2191,2191,2191,2191,2199,2199,2199,2207,2207,2207,2207,2207,2215,2215,2215,2215,2223,2223,2223,2223,2231,2231,2231,2231,2239,2239,2239,2239,2247,2247,2247,2247,2247,2247,2247,2247,2255,2255,2255,2255,2255,2255,2255,2255,2255,2255,2255,2255,2255,2255,2263,2263,2263,2263,2263,2263,2272,2272,2272,2272,2272,2280,2280,2288,2288,2288,2288,2288,2280,2280,2272,2263,2263,2239,2239,2207,2176,2176,2145,2145,2123,2102,2102,2087,2066,2066,2046,2046,2032,2019,2019,2006,2006,2000,1987,1987,1980,1974,1974,1961,1961,1955,1949,1949,1949,1949,1943,1931,1931,1925,1913,1913,1901,1901,1884,1872,1872,1861,1861,1844,1828,1828,1812,1801,1801,1786,1786,1770,1760,1760,1750,1750,1740,1736,1736,1731,1731,1731,1731,1731,1731,1731,1736,1736,1736,1740,1740,1755,1755,1775,1812,1812,0,0,1919,1919,1961,1961,1987,1987,1974,1961,1961,1949,1949,1937,1937,1937,1931,1919,1919,1913,1913,1901,1895,1895,1889,1889,1884,1878,1878,1878,1878,1884,1884,1884,1884,1884,1901,1901,1901,1907,1907,1907,1913,1913,0,0,0,0,4904,4904,4904,4904,4904,4827,4827,4827,4753,4753,4753,4716,4716,4716,4716,4646,4646,4646,4646,4646,4646,4646,4646,4646,4681,4716,4716,4716,4753,4753,4790,4790,4790,4865,4865,4865,4904,4865,4865,4827,4827,4827,4827,4865,4904,4865,4865,4865,4827,4827,4827,4827,4865,4865,4865,4865,4865,4865,4865,4865,4865,4865,4865,4865,4827,4827,4827,4827,4827,4753,4716,4716,4716,4716,4681,4646,4646,4577,4577,4543,4445,4445,4382,4382,4382,4382,4382,4382,4382,4382,4382,4382,4382,4382,4382,4382,4382,4382,4351,4351,4351,4351,4351,4321,4261,4261,4147,4147,3986,3862,3862,3767,3767,3656,3571,3571,3491,3491,3414,3376,3376
1907,1907,1907,1907,1913,1925,1925,1937,1949,1949,1955,1955,1968,1974,1974,1987,2000,2000,2013,2026,2026,2039,2039,2039,2053,2053,2060,2060,2060,2066,2060,2053,2053,2046,2046,2053,2046,2046,2046,2046,2046,2046,2046,2053,2053,2060,2060,2060,2060,2053,2053,2053,2053,2053,2053,2046,2046,2046,2046,2046,2046,2053,2053,2060,2066,2066,2073,2087,2087,2094,2102,2102,2109,2109,2116,2131,2131,2131,2138,2138,2138,2138,2138,2138,2138,2138,2138,2138,2145,2145,2145,2153,2153,2153,2153,2153,2153,2160,2160,2160,2153,2153,2153,2153,2145,2145,2145,2145,2145,2145,2145,2138,2138,2131,2131,2131,2123,2116,2116,2116,2116,2109,2109,2109,2109,2109,2109,2109,2109,2109,2109,2109,2109,2109,2116,2116,2116,2123,2123,2131,2131,2131,2138,2138,2145,2145,2145,2145,2145,2145,2145,2145,2138,2138,2138,2138,2131,2123,2123,2116,2116,2116,2109,2109,2109,2102,2102,2094,2094,2094,2094,2094,2094,2094,2094,2094,2094,2094,2094,2094,2094,2094,2102,2102,2102,2109,2109,2116,2116,2116,2131,2131,2131,2145,2145,2145,2145,2153,2160,2160,2168,2176,2176,2176,2183,2183,2191,2191,2191,2199,2191,2191,2191,2191,2191,2183,2183,2183,2176,2176,2176,2168,2168,2160,2160,2160,2160,2160,2153,2145,2145,2145,2145,2145,2145,2145,2145,2145,2145,2145,2145,2145,2145,2153,2153,2153,2153,2153,2145,2145,2145,2153,2153,2153,2160,2160,2168,2168,2168,2176,2176,2176,2183,2183,2191,2199,2199,2199,2199,2199,2199,2199,2207,2207,2207,2207,2207,2207,2207,2207,2199,2199,2199,2199,2199,2199,2199,2199,2199,2199,2199,2199,2199,2199,2199,2199,2199,2199,2199,2199,2207,2207,2207,2215,2215,2223,2223,2223,2223,2223,2223,2223,2215,2215,2215,2207,2207,2207,2207,2191,2191,2191,2191,2199,2199,2199,2207,2207,2207,2207,2207,2215,2215,2215,2215,2215,2215,2223,2223,2231,2231,2231,2231,2239,2239,2239,2239,2247,2255,2255,2255,2255,2255,2255,2255,2263,2263,2263,2263,2263,2263,2263,2263,2263,2263,2263,2263,2263,2263,2263,2263,2272,2272,2272,2272,2272,2272,2280,2280,2280,2280,2280,2288,2288,2288,2288,2288,2280,2280,2272,2263,2263,2239,2239,2207,2176,2176,2145,2145,2123,2102,2102,2080,2060,2060,2046,2046,2032,2019,2019,2006,2006,2000,1987,1987,1980,1974,1974,1961,1961,1955,1949,1949,1949,1949,1937,1931,1931,1919,1907,1907,1895,1895,1884,1872,1872,1861,1861,1844,1828,1828,1817,1801,1801,1791,1791,1775,1765,1765,1755,1755,1745,1740,1740,1736,1736,1736,1731,1731,1731,1736,1736,1736,1740,1745,1745,1760,1760,1781,1812,1812,0,0,1919,1919,1961,1961,2000,0,1974,1961,1961,1949,1949,1937,1937,1937,1931,1919,1919,1913,1913,1901,1895,1895,1889,1889,1884,1878,1878,1878,1878,1878,1872,1872,1872,1878,1884,1884,1889,1889,1889,1895,1895,1895,0,5064,5064,5106,4904,4904,4904,4904,4904,4827,4827,4827,4753,4753,4753,4716,4716,4716,4716,4646,4646,4646,4646,4646,4646,4646,4646,4646,4716,4716,4716,4753,4753,4753,4790,4827,4827,4865,4865,4904,4943,4865,4865,4865,4865,4865,4865,4904,4904,4904,4865,4865,4865,4865,4827,4827,4865,4865,4865,0,4904,4904,4865,4865,4865,4865,4865,4865,4865,4865,4865,4865,4865,4753,4716,4716,4716,4716,4681,4646,4646,4577,4577,4543,4445,4445,4382,4382,4382,4382,4382,4382,4382,4382,4382,4382,4382,4382,4382,4382,4351,4351,4351,4351,4351,4321,4321,4232,4147,4147,4038,4038,3886,3791,3791,3700,3700,3592,3511,3511,3452,3452,3395,3340,3340
1907,1907,1907,1907,1919,1925,1925,1937,1949,1949,1955,1955,1968,1974,1974,1987,2000,2000,2006,2019,2019,2032,2032,2039,2039,2039,2046,2060,2060,2066,2060,2053,2053,2046,2046,2053,2046,2046,2046,2046,2046,2046,2046,2053,2053,2060,2060,2060,2060,2060,2053,2053,2053,2053,2053,2046,2046,2046,2053,2053,2053,2053,2053,2060,2066,2066,2073,2080,2080,2094,2102,2102,2109,2109,2109,2123,2123,2123,2131,2131,2131,2131,2131,2131,2131,2131,2131,2131,2138,2138,2138,2138,2138,2138,2138,2138,2138,2145,2145,2145,2145,2145,2145,2138,2138,2138,2138,2138,2138,2138,2138,2131,2131,2123,2116,2116,2116,2109,2109,2109,2109,2109,2102,2102,2102,2102,2102,2102,2109,2109,2109,2109,2109,2109,2116,2116,2116,2123,2123,2131,2131,2131,2138,2138,2145,2145,2145,2145,2145,2145,2145,2145,2138,2138,2138,2138,2131,2123,2123,2116,2116,2116,2109,2109,2109,2102,2102,2094,2094,2094,2094,2094,2094,2094,2094,2094,2094,2094,2094,2094,2094,2094,2102,2102,2102,2109,2109,2116,2116,2116,2123,2123,2131,2131,2131,2138,2138,2145,2153,2153,2153,2160,2160,2168,2176,2176,2183,2183,2191,2191,2191,2199,2199,2199,2199,2191,2183,2183,2183,2183,2183,2176,2176,2176,2168,2168,2168,2168,2160,2160,2160,2160,2153,2153,2153,2153,2153,2153,2153,2153,2153,2153,2153,2153,2160,2160,2160,2153,2153,2153,2153,2153,2160,2160,2168,2168,2168,2168,2168,2176,2176,2176,2183,2183,2191,2191,2191,2191,2191,2191,2191,2191,2199,2199,2199,2199,2199,2199,2199,2199,2199,2199,2191,2191,2191,2191,2191,2191,2191,2191,2191,2191,2191,2191,2191,2191,2191,2191,2191,2199,2199,2199,2207,2207,2207,2215,2215,2223,2223,2223,2223,2223,2215,2215,2215,2207,2207,2207,2207,2199,2191,2191,2191,2199,2199,2199,2207,2207,2207,2207,2207,2215,2215,2215,2215,2215,2215,2223,2223,2231,2231,2231,2231,2239,2239,2239,2239,2247,2255,2255,2255,2255,2255,2255,2255,2263,2263,2263,2272,2272,2272,2272,2263,2263,2263,2263,2263,2263,2263,2263,2263,2272,2272,2272,2272,2272,2272,2280,2280,2280,2280,2280,2288,2288,2288,2288,2288,2280,2280,2272,2263,2263,2239,2239,2207,2176,2176,2145,2145,2123,2094,2094,2073,2060,2060,2039,2039,2026,2019,2019,2006,2006,2000,1987,1987,1980,1974,1974,1961,1961,1955,1949,1949,1949,1937,1937,1931,1931,1919,1907,1907,1895,1895,1884,1872,1872,1861,1861,1844,1833,1833,1817,1807,1807,1791,1791,1781,1770,1770,1760,1760,1750,1745,1745,1740,1740,1740,1736,1736,1736,1736,1736,1736,1740,1745,1745,1760,1760,1781,1812,1812,0,1919,1919,1919,1961,1961,2000,0,1974,1961,1961,1943,1943,1937,1937,1937,1925,1919,1919,1907,1907,1901,1895,1895,1889,1889,1884,1872,1872,1872,1872,1872,1872,1872,1867,1867,1878,1878,1878,1878,1878,1878,1884,1884,0,5064,5064,5106,5106,5106,5064,5023,5023,4943,4904,4904,4865,4865,4827,4790,4790,4753,4753,4681,4681,4681,4681,4681,4681,4681,4716,4716,4716,4753,4753,4790,4790,4790,4790,4827,4827,4865,4865,4904,4943,4865,4865,4865,4865,4865,4865,4904,4904,4904,4865,4865,4865,4865,4827,4827,4865,4865,4865,0,4904,4904,4865,4865,4865,4865,4865,4865,4865,4865,4865,4865,4865,4753,4716,4716,4716,4716,4681,4646,4646,4577,4543,4543,4445,4445,4382,4382,4382,4382,4382,4382,4382,4382,4382,4382,4382,4382,4382,4351,4351,4351,4321,4261,4261,4232,4232,4119,4038,4038,3910,3910,3886,3791,3791,3700,3700,3592,3511,3511,3452,3452,3395,3340,3340
1907,1907,1913,1913,1919,1931,1931,1943,1949,1949,1955,1955,1968,1974,1974,1987,2000,2000,2006,2019,2019,2032,2032,2039,2039,2039,2046,2053,2053,2060,2053,2046,2046,2039,2039,2039,2039,2039,2032,2032,2032,2032,2039,2039,2039,2053,2053,2053,2053,2053,2053,2053,2053,2053,2053,2046,2046,2046,2046,2053,2046,2046,2053,2053,2060,2060,2066,2080,2080,2080,2094,2094,2102,2102,2109,2116,2116,2123,2123,2123,2123,2123,2123,2123,2123,2123,2123,2123,2131,2138,2138,2138,2138,2138,2138,2138,2138,2145,2145,2145,2145,2145,2145,2138,2138,2138,2138,2138,2138,2138,2138,2131,2131,2123,2116,2116,2116,2109,2109,2109,2109,2109,2102,2102,2102,2102,2102,2102,2102,2102,2102,2102,2102,2109,2109,2109,2116,2123,2123,2123,2123,2131,2138,2138,2138,2138,2138,2145,2145,2138,2138,2138,2138,2138,2131,2131,2123,2123,2123,2116,2116,2116,2109,2109,2109,2102,2102,2102,2102,2094,2094,2094,2094,2094,2094,2094,2094,2094,2094,2094,2094,2102,2102,2102,2102,2109,2109,2109,2109,2116,2123,2123,2131,2131,2131,2138,2138,2145,2153,2153,2153,2160,2160,2168,2176,2176,2183,2183,2191,2191,2191,2199,2199,2199,2199,2199,2199,2199,2199,2191,2191,2191,2191,2191,2168,2168,2168,2168,2160,2160,2160,2160,2153,2153,2153,2153,2153,2153,2153,2153,2153,2153,2153,2153,2160,2160,2160,2153,2153,2153,2153,2153,2160,2160,2168,2168,2168,2168,2168,2176,2176,2176,2183,2183,2191,2191,2191,2183,2183,2183,2191,2191,2199,2199,2199,2199,2199,2199,2199,2199,2191,2191,2191,2191,2191,2191,2191,2191,2191,2191,2191,2191,2191,2191,2191,2191,2191,2191,2191,2199,2199,2199,2207,2207,2207,2215,2215,2223,2223,2223,2223,2223,2215,2215,2215,2207,2207,2207,2207,2207,2199,2199,2199,2199,2199,2199,2207,2207,2207,2207,2207,2207,2215,2215,2215,2215,2215,2223,2223,2223,2223,2223,2231,2239,2239,2239,2239,2247,2247,2247,2255,2255,2255,2255,2255,2263,2263,2263,2272,2272,2272,2272,2272,2272,2272,2272,2272,2272,2272,2272,2280,2280,2280,2280,2280,2280,2280,2280,2280,2280,2280,2280,2288,2288,2288,2288,2288,2280,2280,2272,2263,2263,2239,2239,2207,2176,2176,2145,2145,2123,2094,2094,2073,2060,2060,2039,2039,2026,2019,2019,2006,2006,2000,1993,1993,1980,1974,1974,1968,1968,1955,1949,1949,1949,1937,1937,1925,1925,1919,1907,1907,1895,1895,1884,1867,1867,1861,1861,1844,1833,1833,1817,1807,1807,1791,1791,1781,1770,1770,1760,1760,1750,1745,1745,1740,1740,1740,1736,1736,1736,1736,1740,1740,1745,1750,1750,1765,1786,1786,1812,1812,1878,1878,1878,1919,1968,1968,1987,1987,1968,1961,1961,1943,1943,1937,1931,1931,1925,1919,1919,1907,1907,1901,1895,1895,1889,1889,1884,1872,1872,1872,1872,1872,1872,1872,1867,1867,1878,1878,1878,1878,1878,1878,1884,1884,0,5373,5373,5373,5373,5373,5281,5192,5192,5106,4904,4904,4865,4865,4827,4790,4790,4753,4753,4681,4681,4681,4681,4681,4681,4681,4716,4716,4716,4753,4753,4753,4790,4790,4790,4827,4827,4865,4865,4904,4904,4865,4865,4865,4865,4865,4865,4904,4904,4904,4865,4865,4865,4865,4827,4827,4865,4865,4865,4904,4904,4904,4865,4865,4904,4865,4865,4904,4865,4865,4865,4865,4865,4790,4753,4753,4716,4716,4681,4646,4646,4611,4543,4543,4445,4445,4382,4382,4382,4382,4382,4382,4382,4382,4382,4382,4382,4382,4382,4351,4351,4351,4321,4261,4261,4232,4232,4119,4038,4038,3910,3910,3791,3722,3722,3613,3613,3531,3471,3471,3414,3414,3358,3322,3322
1901,1901,1913,1913,1919,1931,1931,1943,1949,1949,1955,1955,1968,1974,1974,1987,1993,1993,2006,2019,2019,2026,2026,2032,2039,2039,2039,2046,2046,2053,2046,2039,2039,2039,2039,2039,2039,2039,2032,2032,2032,2032,2039,2039,2039,2053,2053,2053,2053,2053,2053,2053,2053,2053,2053,2046,2046,2046,2046,2053,2046,2046,2053,2053,2060,2060,2066,2080,2080,2080,2094,2094,2102,2102,2109,2116,2116,2123,2123,2123,2123,2123,2123,2123,2123,2123,2123,2123,2131,2131,2131,2131,2131,2123,2123,2123,2131,2131,2131,2131,2131,2131,2131,2123,2123,2123,2123,2123,2123,2123,2123,2116,2116,2116,2109,2109,2109,2102,2102,2102,2102,2102,2094,2094,2094,2094,2094,2094,2094,2094,2094,2102,2102,2102,2102,2102,2109,2116,2116,2116,2116,2123,2131,2131,2131,2138,2138,2138,2138,2131,2131,2131,2131,2138,2131,2131,2123,2123,2123,2123,2116,2116,2109,2109,2109,2102,2102,2102,2102,2102,2102,2102,2102,2102,2102,2102,2102,2102,2102,2102,2102,2102,2102,2102,2109,2109,2109,2109,2109,2116,2123,2123,2123,2123,2123,2131,2131,2138,2145,2145,2153,2153,2153,2168,2176,2176,2183,2183,2191,2191,2191,2199,2199,2199,2199,2199,2199,2199,2199,2191,2191,2191,2191,2191,2183,2183,2176,2176,2176,2176,2176,2168,2168,2168,2168,2168,2168,2160,2160,2160,2168,2168,2160,2160,2168,2168,2168,2168,2160,2160,2160,2168,2168,2168,2183,2183,2176,2176,2176,2183,2183,2183,2183,2183,2191,2191,2191,2183,2183,2183,2191,2191,2199,2199,2199,2199,2199,2199,2199,2199,2191,2191,2191,2191,2191,2191,2191,2191,2191,2191,2183,2183,2183,2183,2183,2183,2183,2183,2183,2183,2191,2191,2191,2199,2199,2207,2207,2207,2215,2215,2215,2215,2215,2215,2215,2207,2207,2207,2207,2207,2199,2199,2199,2199,2199,2199,2207,2207,2207,2207,2207,2207,2215,2215,2215,2215,2215,2223,2223,2223,2223,2223,2231,2239,2239,2239,2239,2247,2247,2247,2255,2263,2263,2263,2272,2272,2272,2272,2272,2272,2272,2280,2280,2280,2280,2280,2280,2280,2280,2280,2280,2280,2288,2288,2288,2288,2280,2280,2280,2280,2288,2288,2288,2297,2297,2297,2297,2280,2280,2272,2263,2263,2239,2239,2207,2176,2176,2145,2123,2123,2094,2094,2073,2053,2053,2039,2039,2026,2019,2019,2006,2006,2000,1993,1993,1980,1974,1974,1968,1968,1955,1949,1949,1943,1937,1937,1925,1925,1913,1901,1901,1889,1889,1878,1867,1867,1861,1850,1850,1833,1833,1823,1812,1812,1796,1796,1786,1775,1775,1765,1765,1755,1750,1750,1745,1740,1740,1740,1740,1740,1740,1745,1745,1750,1750,1750,1770,1791,1791,1817,1817,1878,1878,1878,1925,1968,1968,1987,1987,1968,1961,1961,1943,1943,1937,1931,1931,1925,1913,1913,1901,1901,1895,1889,1889,1884,1884,1878,1872,1872,1867,1861,1861,1861,1861,1861,1861,1867,1867,1867,1867,1867,1872,1872,1872,0,5373,5373,5373,5373,5373,5281,5192,5192,5106,5064,5064,5023,5023,4943,4904,4904,4827,4753,4753,4716,4716,4716,4716,4716,4716,4716,4753,4753,4753,4753,4753,4753,4753,4790,4827,4827,4827,4827,4904,4904,4865,4865,4865,4865,4865,4865,4904,4904,4904,4865,4865,4865,4865,4827,4827,4865,4865,4865,4904,4904,4904,4904,4904,4904,4904,4904,4904,4865,4865,4865,4865,4865,4790,4753,4753,4716,4716,4681,4611,4611,4611,4510,4510,4445,4445,4382,4382,4382,4382,4382,4382,4382,4382,4382,4382,4382,4351,4351,4351,4321,4321,4261,4203,4203,4119,4119,4012,3910,3910,3791,3791,3722,3613,3613,3613,3613,3491,3433,3433,3376,3376,3340,3304,3304
1895,1901,1913,1913,1919,1931,1931,1943,1955,1955,1961,1961,1968,1974,1974,1987,1993,1993,2006,2019,2019,2026,2026,2032,2039,2039,2039,2046,2046,2053,2046,2039,2039,2039,2039,2039,2039,2039,2032,2032,2032,2032,2039,2039,2039,2053,2060,2060,2060,2053,2053,2053,2053,2053,2053,2046,2046,2046,2046,2053,2046,2046,2053,2053,2053,2053,2060,2066,2066,2080,2087,2087,2094,2094,2102,2109,2109,2109,2116,2116,2116,2123,2116,2116,2116,2116,2116,2116,2116,2116,2116,2116,2116,2116,2116,2116,2116,2116,2116,2123,2123,2116,2116,2116,2116,2116,2116,2116,2116,2116,2116,2116,2109,2109,2109,2109,2109,2102,2102,2102,2102,2102,2094,2094,2094,2094,2094,2094,2094,2094,2094,2102,2102,2102,2102,2102,2109,2116,2116,2116,2116,2123,2131,2131,2131,2138,2138,2138,2138,2131,2131,2131,2131,2131,2131,2131,2123,2123,2123,2123,2116,2116,2109,2109,2109,2102,2102,2102,2102,2102,2102,2102,2102,2102,2102,2102,2102,2102,2102,2102,2102,2102,2102,2102,2109,2109,2109,2109,2109,2116,2116,2116,2116,2123,2123,2131,2131,2138,2145,2145,2153,2153,2153,2168,2176,2176,2183,2183,2191,2199,2199,2199,2207,2207,2207,2207,2207,2207,2207,2199,2199,2199,2199,2199,2199,2199,2191,2191,2191,2183,2183,2183,2183,2183,2183,2176,2176,2176,2176,2176,2176,2176,2176,2176,2176,2176,2176,2176,2168,2168,2168,2168,2168,2168,2183,2183,2176,2176,2176,2183,2183,2183,2183,2183,2191,2191,2191,2183,2183,2183,2183,2183,2191,2191,2191,2191,2191,2191,2199,2191,2191,2191,2191,2183,2183,2183,2183,2176,2176,2176,2176,2176,2176,2176,2176,2168,2168,2176,2176,2176,2176,2176,2183,2191,2191,2191,2191,2199,2199,2199,2199,2207,2207,2215,2215,2207,2207,2207,2207,2207,2207,2207,2207,2207,2207,2207,2207,2215,2215,2215,2215,2215,2215,2215,2223,2223,2223,2223,2223,2231,2231,2231,2231,2239,2239,2239,2239,2247,2247,2247,2263,2263,2263,2263,2272,2272,2272,2272,2272,2272,2272,2280,2280,2280,2280,2280,2280,2280,2280,2280,2280,2280,2288,2288,2288,2288,2280,2280,2280,2280,2288,2288,2288,2297,2297,2297,2297,2288,2288,2280,2263,2263,2239,2223,2215,2176,2176,2153,2123,2123,2094,2094,2073,2053,2053,2039,2039,2026,2019,2019,2013,2013,2000,1993,1993,1987,1980,1980,1968,1968,1961,1955,1955,1943,1937,1937,1925,1925,1913,1901,1901,1889,1889,1878,1867,1867,1861,1850,1850,1839,1839,1828,1812,1812,1801,1801,1791,1781,1781,1765,1765,1755,1750,1750,1745,1740,1740,1740,1740,1740,1740,1745,1745,1750,1750,1750,1770,1791,1791,1817,1817,1878,1878,1878,1925,1968,1968,1987,1987,1968,1961,1961,1943,1943,1931,1925,1925,1913,1907,1907,1895,1895,1895,1889,1889,1878,1878,1872,1867,1867,1861,1855,1855,1855,1855,1855,1855,1855,1855,1855,1855,1855,1855,1855,1872,0,5566,5517,5517,5517,5468,5468,5373,5373,5236,5192,5192,5106,5106,5023,4943,4943,4865,4790,4790,4753,4753,4753,4716,4716,4716,4716,4753,4753,4753,4753,4753,4753,4753,4790,4827,4827,4827,4827,4865,4865,4865,4865,4865,4865,4865,4865,4865,4904,4865,4827,4827,4827,4827,4827,4827,4865,4865,4865,4865,4865,4904,4904,4904,4904,4904,4865,4865,4865,4865,4865,4865,4865,4790,4753,4753,4716,4716,4681,4611,4611,4577,4510,4510,4445,4445,4382,4382,4382,4382,4382,4382,4382,4382,4382,4351,4351,4351,4351,4321,4321,4321,4261,4203,4203,4119,4119,4012,3910,3910,3791,3791,3722,3613,3613,3613,0,3491,3433,3433,3376,3376,3340,3304,3304
1895,1907,1913,1913,1925,1931,1931,1949,1955,1955,1968,1968,1974,1974,1974,1987,1993,1993,2006,2013,2013,2026,2026,2032,2032,2032,2039,2046,2046,2053,2046,2039,2039,2039,2039,2039,2039,2039,2032,2032,2032,2032,2032,2039,2039,2046,2046,2046,2053,2053,2053,2053,2053,2046,2046,2046,2046,2046,2046,2046,2046,2046,2046,2046,2053,2053,2060,2060,2060,2066,2073,2073,2080,2080,2080,2094,2094,2094,2116,2116,2116,2123,2116,2116,2116,2116,2116,2116,2116,2116,2116,2116,2116,2116,2116,2116,2116,2116,2116,2123,2123,2116,2116,2116,2116,2116,2116,2116,2116,2116,2116,2116,2109,2109,2109,2109,2109,2102,2102,2102,2102,2094,2094,2094,2094,2094,2094,2094,2094,2094,2094,2094,2094,2094,2094,2094,2102,2109,2109,2116,2116,2116,2123,2123,2123,2131,2131,2138,2138,2131,2131,2131,2131,2131,2131,2131,2131,2123,2123,2123,2116,2116,2116,2116,2116,2116,2116,2116,2109,2109,2109,2109,2109,2109,2109,2109,2109,2109,2109,2109,2109,2109,2109,2109,2116,2116,2116,2116,2116,2116,2116,2116,2116,2123,2123,2131,2131,2138,2145,2145,2153,2160,2160,2168,2176,2176,2191,2191,2199,2199,2199,2207,2215,2207,2207,2207,2207,2207,2207,2199,2199,2199,2199,2199,2199,2199,2191,2191,2191,2183,2183,2183,2183,2183,2183,2176,2176,2176,2176,2176,2176,2176,2176,2176,2176,2176,2176,2176,2168,2168,2168,2176,2183,2183,2191,2191,2183,2183,2183,2183,2183,2183,2191,2191,2191,2191,2183,2176,2176,2176,2176,2176,2183,2191,2191,2191,2191,2191,2199,2191,2191,2191,2191,2183,2183,2183,2183,2176,2176,2176,2176,2176,2176,2176,2176,2168,2168,2176,2176,2176,2176,2176,2183,2191,2191,2191,2191,2199,2199,2199,2199,2207,2207,2215,2207,2207,2207,2207,2207,2207,2207,2207,2207,2199,2199,2199,2199,2199,2199,2207,2207,2207,2207,2207,2207,2207,2207,2215,2215,2223,2223,2223,2231,2239,2239,2239,2239,2247,2247,2247,2255,2263,2263,2263,2272,2272,2280,2280,2280,2280,2280,2280,2280,2280,2280,2280,2280,2288,2288,2288,2288,2288,2288,2288,2288,2288,2288,2288,2288,2288,2288,2288,2297,2297,2297,2297,2297,2288,2288,2280,2272,2272,2247,2223,2223,2183,2183,2153,2123,2123,2102,2102,2080,2060,2060,2039,2039,2026,2019,2019,2013,2013,2000,1993,1993,1987,1980,1980,1968,1968,1961,1955,1955,1943,1937,1937,1925,1925,1913,1901,1901,1884,1884,1878,1867,1867,1861,1850,1850,1839,1839,1828,1812,1812,1801,1801,1791,1781,1781,1775,1765,1765,1760,1760,1750,1745,1745,1745,1745,1745,1745,1750,1750,1750,1755,1755,1775,1796,1796,1823,0,1884,1884,1925,1925,1968,2000,1987,1987,1968,1961,1961,1943,1943,1931,1925,1925,1913,1907,1907,1895,1895,1895,1889,1889,1878,1878,1872,1867,1867,1861,1855,1855,1855,1855,1855,1855,1855,1855,1855,1855,1855,1855,1855,1861,0,5566,5517,5517,5517,5468,5468,5373,5373,5236,5192,5192,5106,5106,5023,4943,4943,4865,4790,4790,4753,4753,4753,4716,4716,4716,4716,4753,4753,4753,4753,4753,4753,4753,4790,4790,4790,4827,4827,4827,4865,4827,4827,4827,4827,4827,4827,4865,4865,4865,4827,4827,4827,4827,4827,4827,4865,4865,4865,4865,4865,4904,4865,4865,4904,4904,4865,4865,4865,4865,4865,4865,4865,4790,4753,4753,4716,4716,4681,4611,4611,4577,4510,4510,4445,4445,4382,4382,4382,4382,4382,4382,4382,4382,4382,4351,4351,4351,4351,4321,4261,4261,4175,4092,4092,4012,4012,3910,3814,3814,3791,3791,3722,3571,3571,3511,3511,3452,3395,3395,3358,3358,3322,3269,3269
1895,1907,1913,1913,1925,1931,1931,1949,1955,1955,1968,1968,1974,1980,1980,1987,2000,2000,2006,2013,2013,2026,2026,2026,2032,2032,2039,2039,2039,2046,2046,2046,2046,2039,2039,2039,2039,2039,2039,2032,2032,2032,2032,2039,2039,2046,2046,2046,2053,2053,2053,2053,2053,2046,2046,2046,2046,2046,2046,2046,2046,2046,2046,2046,2053,2053,2060,2060,2060,2066,2073,2073,2080,2080,2080,2094,2094,2094,2102,2102,2102,2102,2102,2102,2102,2102,2102,2102,2109,2102,2102,2102,2102,2102,2102,2102,2102,2109,2109,2109,2109,2116,2116,2116,2116,2116,2116,2116,2116,2116,2116,2109,2109,2109,2109,2109,2109,2102,2102,2102,2094,2094,2094,2094,2094,2094,2094,2094,2094,2094,2094,2094,2094,2094,2094,2094,2102,2109,2109,2109,2109,2116,2123,2123,2123,2131,2131,2138,2138,2138,2138,2131,2131,2131,2131,2131,2131,2131,2131,2123,2123,2123,2116,2116,2116,2116,2116,2116,2116,2116,2116,2116,2116,2116,2116,2109,2109,2109,2109,2109,2109,2109,2109,2109,2116,2116,2116,2116,2116,2116,2116,2116,2116,2123,2123,2131,2131,2138,2145,2145,2153,2160,2160,2168,2176,2176,2191,2191,2199,2199,2199,2207,2215,2215,2215,2215,2215,2215,2215,2215,2215,2215,2215,2207,2207,2207,2207,2207,2207,2199,2199,2191,2191,2191,2191,2191,2191,2191,2191,2191,2191,2191,2183,2183,2183,2183,2183,2183,2176,2176,2176,2183,2191,2191,2191,2199,2191,2191,2191,2191,2191,2191,2191,2199,2191,2191,2183,2176,2176,2176,2176,2176,2183,2191,2191,2191,2191,2183,2183,2183,2183,2183,2183,2183,2183,2176,2176,2168,2168,2168,2168,2168,2168,2168,2168,2168,2168,2168,2168,2168,2168,2168,2176,2183,2183,2191,2191,2191,2199,2199,2199,2207,2207,2207,2207,2207,2215,2207,2207,2207,2207,2207,2199,2199,2199,2199,2191,2191,2191,2191,2191,2199,2199,2199,2207,2207,2207,2215,2215,2215,2223,2223,2231,2239,2239,2239,2247,2247,2247,2247,2255,2263,2263,2263,2272,2272,2280,2280,2280,2280,2280,2288,2288,2288,2288,2288,2288,2288,2288,2288,2288,2288,2288,2288,2288,2288,2288,2288,2288,2288,2288,2288,2288,2297,2297,2297,2297,2288,2288,2280,2272,2272,2247,2223,2223,2183,2183,2153,2123,2123,2102,2102,2080,2060,2060,2039,2039,2026,2019,2019,2013,2006,2006,2000,2000,1993,1980,1980,1974,1974,1961,1955,1955,1943,1931,1931,1919,1919,1907,1895,1895,1884,1884,1872,1867,1867,1855,1850,1850,1839,1839,1828,1817,1817,1807,1807,1796,1786,1786,1775,1770,1770,1760,1760,1755,1750,1750,1750,1750,1750,1750,1750,1750,1755,1760,1760,1781,1801,1801,1828,0,1884,1884,1925,1925,1968,2000,1987,1987,1968,1955,1955,1943,1943,1925,1919,1919,1913,1901,1901,1895,1895,1884,1884,1884,1872,1872,1867,1861,1861,1855,1850,1850,1844,1844,1844,1844,1850,1850,1850,1850,1850,1850,1850,1850,5884,5774,5774,5774,5721,5566,5566,5517,5517,5373,5326,5326,5236,5192,5106,5023,5023,4943,4827,4827,4790,4790,4790,4753,4753,4716,4716,4753,4753,4753,4753,4753,4753,4753,4790,4790,4790,4827,4827,4827,4865,4827,4827,4827,4827,4827,4827,4865,4865,4865,4827,4827,4827,4827,4827,4827,4865,4865,4865,4865,4865,4904,4865,4865,4865,4865,4865,4865,4865,4865,4865,4827,4827,4790,4753,4753,4716,4716,4681,4611,4611,4577,4477,4477,4413,4413,4382,4382,4382,4382,4382,4382,4382,4382,4382,4351,4351,4321,4321,4291,4175,4175,4092,3986,3986,3910,3910,3814,3722,3722,3722,0,3571,3511,3511,3452,3452,3395,3358,3358,3340,3340,3286,3269,3269
1919,1919,1931,1931,1937,1949,1949,1961,1974,1974,1980,1987,1987,1993,1993,1993,2006,2006,2013,2019,2019,2026,2026,2026,2032,2032,2039,2039,2039,2046,2046,2046,2046,2039,2039,2039,2039,2039,2039,2032,2032,2032,2032,2039,2039,2046,2046,2046,2053,2053,2053,2053,2053,2046,2046,2046,2046,2046,2046,2046,2046,2046,2046,2046,2046,2046,2053,2060,2060,2060,2073,2073,2073,2073,2080,2080,2080,2087,2087,2087,2087,2087,2094,2094,2087,2087,2087,2087,2094,2094,2094,2094,2094,2094,2094,2094,2102,2102,2102,2102,2102,2102,2102,2102,2116,2116,2116,2116,2116,2116,2116,2109,2109,2109,2109,2109,2109,2102,2102,2102,2094,2094,2094,2094,2094,2094,2094,2094,2094,2094,2094,2094,2094,2094,2094,2094,2102,2109,2109,2109,2109,2116,2123,2123,2123,2131,2131,2131,2131,2131,2131,2131,2131,2131,2131,2131,2131,2131,2131,2123,2123,2123,2116,2116,2116,2116,2116,2116,2116,2116,2116,2116,2116,2116,2116,2116,2116,2116,2116,2116,2116,2116,2116,2116,2116,2116,2116,2116,2116,2123,2123,2123,2123,2131,2131,2131,2138,2138,2145,2145,2153,2168,2168,2176,2183,2183,2199,2199,2207,2215,2215,2215,2215,2215,2223,2223,2223,2223,2223,2223,2223,2223,2223,2223,2223,2223,2223,2215,2215,2207,2207,2207,2207,2207,2207,2207,2207,2207,2207,2191,2191,2191,2183,2183,2183,2183,2183,2183,2176,2176,2176,2183,2191,2191,2191,2199,2191,2191,2191,2191,2191,2191,2191,2191,2191,2191,2183,2176,2176,2176,2176,2176,2176,2176,2176,2176,2176,2176,2176,2176,2176,2176,2176,2176,2176,2168,2168,2168,2168,2168,2160,2160,2160,2160,2160,2160,2160,2160,2160,2160,2160,2160,2168,2183,2183,2191,2191,2191,2199,2199,2199,2207,2207,2207,2207,2207,2215,2207,2207,2207,2207,2207,2199,2199,2199,2199,2191,2191,2191,2191,2191,2199,2199,2199,2207,2207,2207,2215,2215,2215,2223,2223,2223,2231,2231,2239,2239,2239,2247,2247,2255,2263,2263,2263,2272,2272,2280,2280,2280,2280,2280,2288,2288,2288,2288,2288,2288,2288,2288,2288,2288,2288,2288,2288,2288,2288,2288,2288,2288,2288,2288,2288,2288,2297,2297,2288,2288,2280,2280,2272,2263,2263,2239,2215,2215,2183,2183,2153,2131,2131,2102,2102,2080,2066,2066,2039,2039,2032,2019,2019,2019,2006,2006,2000,2000,1993,1987,1987,1974,1974,1961,1955,1955,1943,1931,1931,1919,1919,1907,1895,1895,1884,1884,1872,1867,1867,1855,1850,1850,1839,1839,1828,1817,1817,1807,1807,1796,1786,1786,1775,1770,1770,1760,1760,1755,1750,1750,1750,1750,1750,1750,1750,1750,1755,1760,1760,1781,1801,1801,1828,0,1884,1884,1925,1925,1968,2000,2000,0,1961,1949,1949,1937,1937,1925,1919,1919,1907,1901,1901,1889,1889,1878,1878,1878,1867,1861,1861,1855,1855,1850,1850,1850,1844,1844,1844,1844,1850,1850,1850,1850,1850,1850,1850,1850,5884,5884,5884,0,5829,5721,5721,5617,5617,5468,5468,5468,5326,5192,5192,5064,5064,4983,4865,4865,4827,4827,4790,4753,4753,4716,4716,4753,4753,4753,4753,4753,4753,4753,4790,4790,4790,4790,4790,4827,4827,4790,4790,4790,4790,4790,4790,4827,4865,4865,4827,4827,4827,4827,4827,4827,4865,4865,4865,4865,4865,4904,4865,4865,4865,4865,4904,4904,4865,4865,4865,4827,4827,4753,4753,4753,4681,4681,4681,4611,4611,4543,4477,4477,4413,4413,4382,4382,4382,4382,4382,4382,4382,4382,4382,4351,4351,4321,4321,4291,4175,4175,4092,3986,3986,3910,3910,3814,3722,3722,3722,0,3571,3511,3511,3452,3452,3395,3358,3358,3340,3340,3286,3269,3269
1925,1925,1931,1931,1937,1949,1949,1961,1974,1974,1980,1987,1987,1993,1993,1993,2006,2006,2013,2019,2019,2026,2026,2026,2032,2032,2039,2039,2039,2046,2046,2046,2046,2039,2039,2039,2039,2039,2039,2032,2032,2032,2032,2032,2032,2046,2053,2053,2053,2053,2053,2053,2053,2053,2053,2046,2046,2046,2046,2046,2046,2046,2046,2046,2046,2046,2053,2060,2060,2060,2073,2073,2073,2073,2080,2080,2080,2087,2087,2087,2087,2087,2094,2094,2087,2087,2087,2087,2094,2094,2094,2094,2094,2094,2094,2094,2102,2102,2102,2102,2102,2102,2102,2102,2102,2109,2109,2109,2109,2109,2109,2109,2109,2109,2109,2109,2109,2102,2102,2102,2094,2094,2094,2094,2094,2094,2094,2094,2094,2094,2094,2094,2094,2094,2094,2094,2102,2109,2109,2109,2109,2116,2116,2116,2116,2123,2123,2131,2131,2131,2131,2131,2131,2131,2131,2131,2131,2131,2131,2123,2123,2123,2116,2116,2116,2116,2116,2116,2123,2123,2116,2116,2116,2123,2123,2123,2123,2123,2123,2123,2123,2123,2123,2123,2123,2123,2123,2123,2123,2123,2123,2123,2123,2131,2131,2138,2138,2138,2153,2153,2160,2168,2168,2176,2183,2183,2199,2199,2207,2215,2215,2215,2215,2215,2223,2223,2223,2223,2223,2223,2223,2223,2223,2223,2223,2223,2223,2215,2215,2207,2207,2207,2207,2207,2207,2207,2207,2207,2207,2199,2199,2199,2191,2191,2191,2191,2191,2191,2183,2183,2183,2183,2199,2199,2199,2199,2191,2191,2191,2191,2191,2191,2191,2191,2191,2191,2183,2176,2176,2176,2176,2176,2176,2176,2176,2176,2176,2176,2176,2176,2176,2176,2176,2176,2176,2168,2168,2168,2168,2168,2160,2160,2160,2160,2160,2160,2160,2160,2160,2160,2160,2160,2168,2176,2176,2183,2183,2191,2191,2191,2191,2199,2199,2207,2207,2207,2207,2207,2199,2199,2199,2199,2199,2191,2191,2183,2183,2183,2183,2191,2191,2191,2191,2191,2191,2191,2191,2199,2199,2207,2215,2215,2215,2231,2231,2231,2239,2239,2247,2247,2255,2255,2255,2263,2272,2272,2280,2280,2280,2280,2280,2288,2288,2288,2297,2297,2297,2305,2305,2305,2305,2297,2297,2297,2297,2297,2288,2288,2288,2288,2288,2288,2297,2297,2297,2288,2288,2280,2280,2272,2263,2263,2239,2215,2215,2183,2183,2153,2131,2131,2102,2102,2080,2060,2060,2039,2039,2032,2019,2019,2019,2006,2006,2000,2000,1993,1980,1980,1974,1974,1961,1949,1949,1937,1925,1925,1913,1913,1901,1889,1889,1884,1884,1872,1861,1861,1855,1844,1844,1839,1839,1828,1823,1823,1812,1812,1801,1796,1796,1786,1775,1775,1765,1765,1760,1760,1760,1755,1755,1755,1755,1755,1755,1760,1765,1765,1786,1807,1807,1833,0,1884,1884,1925,1925,1968,2000,2000,0,1961,1949,1949,1937,1937,1925,1919,1919,1907,1901,1901,1889,1889,1878,1878,1878,1867,1861,1861,1855,1855,1850,1844,1844,1839,1839,1839,1839,1839,1839,1839,1839,1839,1839,1839,1839,5884,5884,5884,5941,5829,5721,5721,5617,5617,5468,5468,5468,5326,5192,5192,5064,5064,4983,4865,4865,4827,4827,4790,4753,4753,4753,4753,4753,4753,4753,4753,4753,4753,4753,4790,4790,4790,4790,4790,4790,4790,4753,4753,4790,4790,4790,4790,4790,4827,4827,4827,4827,4827,4827,4827,4827,4865,4865,4865,4904,4904,4904,4904,4904,4904,4904,4904,4904,4865,4865,4865,4827,4827,4753,4753,4753,4681,4681,4681,4611,4611,4543,4477,4477,4413,4413,4382,4382,4382,4382,4382,4382,4382,4382,4351,4351,4351,4291,4261,4261,4119,4119,4012,3910,3910,3814,3814,3722,3634,3634,3551,3551,3511,3471,3471,3414,3414,3376,3340,3340,3322,3322,3286,3252,3252
1925,1925,1937,1937,1949,1961,1961,1974,1987,1987,1993,2000,2000,2006,2006,2006,2013,2013,2019,2019,2019,2026,2026,2026,2032,2032,2032,2039,2039,2046,2046,2046,2046,2039,2039,2039,2039,2039,2039,2032,2032,2032,2032,2032,2032,2046,2053,2053,2060,2060,2060,2060,2053,2053,2053,2053,2053,2046,2046,2046,2046,2046,2053,2046,2046,2046,2053,2060,2060,2060,2066,2066,2073,2073,2073,2080,2080,2080,2087,2087,2087,2087,2080,2080,2080,2080,2080,2080,2087,2087,2087,2087,2087,2094,2094,2094,2094,2094,2094,2102,2102,2102,2102,2102,2102,2109,2109,2109,2109,2109,2109,2109,2109,2109,2109,2109,2109,2109,2109,2102,2102,2102,2094,2094,2094,2094,2094,2094,2094,2094,2094,2094,2094,2094,2094,2094,2102,2109,2109,2109,2109,2116,2116,2116,2116,2123,2123,2131,2131,2131,2131,2131,2131,2131,2131,2131,2131,2131,2131,2123,2123,2123,2123,2123,2116,2116,2116,2116,2123,2123,2116,2116,2116,2123,2123,2123,2123,2123,2123,2123,2123,2123,2123,2123,2123,2123,2123,2123,2123,2123,2123,2123,2123,2131,2131,2138,2138,2138,2153,2153,2160,2168,2168,2183,2191,2191,2207,2215,2215,2215,2215,2223,2223,2223,2223,2231,2231,2231,2231,2231,2231,2231,2231,2231,2231,2231,2223,2223,2223,2223,2215,2215,2215,2215,2215,2215,2215,2207,2207,2207,2207,2207,2207,2207,2207,2199,2199,2199,2191,2191,2191,2191,2199,2199,2207,2207,2199,2199,2191,2191,2191,2191,2191,2191,2183,2183,2176,2168,2168,2168,2168,2168,2168,2176,2176,2176,2176,2176,2168,2168,2168,2168,2160,2160,2168,2160,2160,2160,2160,2160,2160,2160,2160,2153,2153,2153,2153,2153,2153,2153,2160,2160,2160,2168,2168,2176,2176,2176,2183,2183,2191,2199,2199,2199,2199,2199,2199,2199,2199,2199,2199,2199,2199,2191,2191,2183,2183,2183,2183,2191,2191,2191,2191,2191,2191,2191,2191,2199,2199,2207,2215,2215,2215,2231,2231,2231,2239,2239,2247,2247,2255,2255,2255,2263,2272,2272,2280,2280,2280,2280,2280,2288,2288,2288,2297,2297,2297,2305,2305,2297,2297,2297,2297,2297,2297,2297,2288,2288,2288,2288,2288,2288,2288,2297,2288,2288,2288,2280,2280,2263,2247,2247,2231,2207,2207,2176,2176,2145,2123,2123,2094,2094,2073,2060,2060,2039,2039,2026,2019,2019,2013,2006,2006,2000,2000,1993,1980,1980,1968,1968,1961,1949,1949,1937,1925,1925,1913,1913,1901,1889,1889,1884,1884,1872,1861,1861,1855,1844,1844,1839,1839,1828,1823,1823,1812,1812,1801,1796,1796,1786,1781,1781,1775,1775,1765,1760,1760,1760,1760,1760,1760,1760,1760,1760,1765,1765,1786,1807,1807,1833,0,1884,1884,1925,1925,1961,1987,1980,1980,1961,1943,1943,1937,1937,1919,1913,1913,1901,1895,1895,1884,1884,1878,1872,1872,1861,1855,1855,1850,1850,1844,1839,1839,1833,1833,1828,1828,1833,1828,1828,1828,1823,1823,1823,1823,5941,5941,5941,5941,5884,5829,5829,5721,5668,5566,5517,5517,5420,5281,5281,5149,5149,4983,4904,4904,4827,4827,4790,4790,4790,4753,4753,4753,4753,4753,4753,4753,4753,4753,4790,4790,4790,4790,4790,4790,4790,4753,4753,4790,4790,4790,4790,4790,4827,4827,4827,4827,4827,4827,4827,4827,4827,4827,4865,4865,4865,4865,4865,4865,4865,4865,4865,4865,4865,4827,4827,4753,4753,4716,4716,4716,4646,4646,4611,4577,4577,4510,4477,4477,4413,4413,4382,4382,4382,4382,4351,4351,4351,4351,4351,4321,4321,4261,4261,4175,4065,4065,3935,3910,3910,3722,3722,3634,3571,3571,3511,3511,3471,3471,3471,3414,3414,3376,3340,3340,3322,3322,3286,3252,3252
1937,1937,1949,1961,1961,1974,1974,1993,2006,2006,2006,2013,2013,2019,2019,2019,2019,2019,2026,2026,2026,2026,2026,2026,2032,2032,2032,2039,2039,2039,2039,2039,2039,2039,2032,2032,2032,2032,2032,2026,2026,2026,2026,2026,2026,2046,2053,2053,2060,2060,2053,2053,2053,2053,2053,2053,2053,2046,2046,2046,2046,2046,2053,2053,2053,2053,2060,2060,2060,2066,2066,2066,2073,2073,2073,2080,2080,2080,2080,2080,2080,2080,2080,2080,2080,2080,2080,2080,2080,2080,2080,2087,2087,2094,2094,2094,2094,2094,2094,2102,2102,2109,2109,2109,2109,2109,2109,2109,2109,2109,2109,2109,2109,2109,2109,2109,2109,2109,2109,2109,2109,2109,2109,2109,2102,2094,2094,2094,2094,2094,2094,2094,2094,2094,2094,2094,2102,2102,2102,2109,2109,2116,2116,2116,2116,2123,2123,2131,2131,2131,2131,2131,2131,2131,2131,2131,2131,2131,2131,2123,2116,2116,2116,2123,2116,2116,2116,2116,2123,2123,2123,2123,2123,2123,2131,2131,2131,2131,2131,2131,2131,2131,2131,2131,2131,2131,2131,2131,2131,2131,2131,2131,2131,2138,2138,2145,2153,2153,2160,2160,2168,2183,2183,2191,2199,2199,2215,2223,2223,2223,2223,2223,2223,2223,2223,2231,2231,2231,2231,2231,2231,2231,2231,2231,2231,2231,2223,2223,2223,2223,2215,2215,2215,2215,2215,2215,2215,2207,2207,2207,2207,2207,2207,2199,2199,2199,2191,2191,2191,2191,2191,2191,2199,2199,2199,2199,2191,2191,2191,2183,2183,2183,2183,2183,2183,2183,2168,2160,2160,2160,2160,2168,2160,2160,2160,2160,2168,2168,2160,2160,2160,2160,2160,2160,2160,2160,2153,2153,2153,2153,2153,2160,2160,2153,2153,2153,2153,2153,2153,2153,2160,2160,2160,2168,2168,2176,2176,2176,2183,2183,2191,2199,2199,2199,2199,2199,2199,2199,2199,2199,2199,2199,2199,2191,2191,2183,2183,2183,2183,2191,2183,2183,2191,2191,2191,2191,2191,2199,2199,2207,2215,2215,2215,2231,2231,2231,2239,2239,2239,2239,2247,2255,2255,2263,2272,2272,2280,2280,2280,2280,2280,2288,2288,2288,2297,2297,2297,2305,2305,2297,2297,2297,2297,2297,2297,2297,2288,2288,2288,2288,2288,2288,2288,2288,2288,2280,2280,2272,2272,2247,2247,2247,2231,2207,2207,2176,2176,2145,2123,2123,2094,2094,2073,2060,2060,2039,2039,2026,2019,2019,2013,2006,2006,2000,2000,1993,1980,1980,1968,1968,1961,1949,1949,1937,1925,1925,1913,1913,1901,1884,1884,1878,1878,1867,1861,1861,1850,1844,1844,1833,1833,1828,1823,1823,1812,1801,1801,1796,1796,1786,1781,1781,1775,1775,1765,1760,1760,1760,1760,1760,1760,1760,1760,1765,1765,1765,1791,1812,1812,1833,0,1889,1889,1919,1919,1949,1980,1980,1980,1955,1943,1943,1931,1931,1919,1907,1907,1901,1895,1895,1884,1884,1878,1872,1872,1861,1855,1855,1850,1850,1844,1839,1839,1833,1833,1828,1828,1833,1828,1828,1828,1823,1823,1823,1823,5999,5999,5999,6057,5941,5884,5884,5774,5668,5668,5566,5566,5420,5281,5281,5149,5149,4983,4904,4904,4827,4827,4790,4790,4790,4753,4753,4753,4753,4753,4753,4753,4753,4753,4753,4790,4790,4790,4790,4753,4753,4753,4753,4753,4753,4753,4790,4790,4790,4790,4790,4790,4790,4790,4827,4827,4827,4827,4865,4865,4865,4865,4865,4865,4865,4827,4827,4827,4790,4790,4790,4753,4753,4716,4646,4646,4646,4646,4611,4577,4577,4510,4477,4477,4413,4413,4382,4382,4382,4382,4351,4351,4351,4351,4351,4321,4321,4261,4261,4175,4065,4065,3935,3935,0,3722,3722,3634,3571,3571,3511,3511,3471,3414,3414,3395,3395,3358,3340,3340,3322,3286,3286,3252,3252
1937,1937,1949,1961,1961,1974,1974,1993,2006,2006,2006,2013,2013,2019,2019,2019,2019,2019,2026,2026,2026,2026,2026,2026,2026,2026,2032,2032,2032,2039,2039,2039,2039,2032,2026,2026,2026,2032,2032,2026,2026,2026,2026,2026,2026,2046,2053,2053,2060,2060,2053,2053,2053,2053,2053,2053,2053,2053,2053,2053,2053,2053,2053,2053,2053,2053,2060,2060,2060,2066,2073,2073,2080,2073,2073,2080,2080,2080,2080,2080,2080,2080,2080,2087,2080,2080,2080,2080,2080,2080,2080,2087,2087,2087,2087,2087,2094,2094,2094,2102,2102,2102,2102,2102,2109,2109,2109,2109,2109,2109,2109,2109,2109,2109,2109,2109,2109,2109,2109,2109,2109,2109,2109,2109,2102,2102,2102,2102,2102,2102,2094,2094,2094,2094,2094,2094,2102,2102,2102,2109,2109,2116,2116,2116,2116,2123,2123,2131,2131,2131,2131,2131,2131,2131,2131,2131,2131,2131,2131,2123,2116,2116,2116,2123,2116,2116,2116,2116,2123,2123,2123,2123,2131,2131,2131,2131,2138,2138,2138,2138,2145,2145,2145,2145,2145,2145,2145,2131,2131,2131,2131,2131,2131,2138,2138,2145,2153,2153,2160,2160,2168,2183,2183,2191,2199,2199,2215,2223,2223,2223,2223,2223,2223,2223,2223,2223,2223,2231,2231,2223,2223,2223,2223,2231,2231,2231,2231,2231,2231,2223,2223,2223,2223,2223,2223,2223,2223,2215,2207,2207,2207,2207,2199,2191,2191,2191,2183,2183,2183,2183,2183,2191,2191,2191,2199,2199,2191,2191,2191,2183,2183,2183,2183,2183,2183,2183,2168,2160,2160,2160,2160,2168,2160,2160,2160,2160,2168,2168,2160,2160,2160,2160,2160,2160,2160,2160,2153,2153,2153,2153,2145,2145,2145,2145,2145,2145,2145,2145,2145,2145,2145,2145,2153,2160,2160,2168,2168,2168,2176,2176,2183,2183,2183,2199,2199,2199,2199,2199,2199,2199,2199,2199,2191,2183,2183,2176,2176,2176,2176,2183,2176,2176,2183,2183,2191,2191,2191,2191,2207,2207,2207,2207,2215,2223,2223,2223,2223,2223,2223,2223,2231,2239,2239,2263,2272,2272,2280,2280,2280,2280,2280,2288,2297,2297,2297,2297,2297,2305,2305,2305,2305,2305,2305,2305,2297,2297,2297,2288,2288,2288,2288,2288,2288,2288,2288,2280,2280,2272,2272,2247,2231,2231,2207,2191,2191,2160,2160,2131,2109,2109,2080,2080,2066,2053,2053,2032,2032,2019,2013,2013,2013,2006,2006,1993,1993,1993,1980,1980,1968,1968,1955,1943,1943,1937,1919,1919,1907,1907,1895,1884,1884,1872,1872,1861,1855,1855,1844,1839,1839,1833,1833,1828,1817,1817,1812,1801,1801,1796,1796,1786,1781,1781,1775,1775,1770,1765,1765,1760,1760,1760,1760,1765,1765,1765,1770,1770,1791,1812,1812,1839,0,1889,1889,1919,1919,1949,1980,1980,0,1955,1943,1943,1931,1931,1919,1907,1907,1901,1889,1889,1878,1878,1872,1867,1867,1855,1850,1850,1844,1844,1839,1833,1833,1828,1828,1823,1823,1823,1823,1817,1817,1812,1812,1812,1812,5999,5999,5999,6057,5941,5884,5884,5721,5668,5668,5566,5566,5468,5281,5281,5192,5192,5023,4904,4904,4827,4827,4827,4790,4790,4753,4753,4753,4753,4753,4753,4753,4753,4753,4753,4790,4790,4790,4790,4753,4753,4753,4753,4753,4753,4753,4790,4790,4790,4790,4790,4790,4790,4790,4827,4827,4865,4865,4865,4865,4865,4865,4865,4865,4865,4827,4827,4827,4790,4790,4790,4753,4753,4716,4646,4646,4646,4646,4577,4543,4543,4510,4445,4445,4413,4413,4382,4382,4382,4351,4351,4351,4351,4351,4321,4291,4291,4175,4175,4065,3935,3935,3814,3814,3722,3634,3634,3571,3511,3511,3471,3471,3433,3395,3395,3376,3376,3358,3340,3340,3304,3286,3286,3252,3252
1943,1943,1955,1974,1974,1987,1987,2000,2013,2013,2019,2019,2019,2026,2026,2026,2026,2026,2026,2026,2026,2026,2026,2026,2026,2026,2032,2032,2032,2039,2039,2039,2039,2032,2026,2026,2026,2032,2032,2026,2026,2026,2026,2026,2026,2046,2053,2053,2060,2060,2053,2053,2053,2053,2053,2053,2053,2053,2053,2053,2053,2053,2053,2053,2053,2053,2060,2060,2060,2066,2073,2073,2073,2073,2073,2080,2080,2080,2080,2080,2080,2080,2080,2080,2080,2080,2080,2080,2080,2080,2080,2087,2087,2087,2087,2087,2094,2094,2094,2102,2102,2102,2102,2102,2109,2116,2116,2116,2116,2123,2123,2123,2116,2116,2116,2116,2116,2116,2116,2116,2116,2116,2109,2109,2109,2109,2109,2109,2102,2102,2102,2102,2102,2102,2102,2102,2102,2109,2109,2109,2109,2116,2116,2116,2116,2123,2123,2131,2131,2131,2131,2131,2131,2131,2131,2131,2131,2131,2131,2123,2116,2116,2116,2116,2116,2116,2116,2116,2123,2123,2123,2123,2131,2131,2131,2131,2138,2138,2138,2138,2145,2145,2145,2145,2145,2145,2145,2145,2145,2145,2145,2138,2138,2145,2145,2153,2160,2160,2168,2168,2176,2191,2191,2199,2207,2207,2215,2223,2223,2223,2223,2223,2223,2223,2223,2223,2223,2231,2231,2223,2223,2223,2223,2231,2231,2231,2231,2231,2231,2231,2231,2231,2231,2231,2223,2223,2223,2215,2207,2207,2207,2207,2199,2191,2191,2191,2183,2183,2183,2183,2183,2191,2191,2191,2199,2199,2191,2191,2191,2183,2183,2183,2183,2183,2176,2176,2168,2160,2160,2153,2153,2153,2153,2160,2160,2160,2160,2160,2160,2160,2153,2153,2153,2153,2153,2145,2145,2145,2145,2145,2145,2138,2138,2138,2138,2138,2138,2138,2138,2138,2145,2145,2145,2153,2153,2153,2153,2160,2168,2168,2176,2183,2183,2183,2183,2183,2199,2199,2199,2199,2199,2199,2191,2183,2183,2176,2176,2176,2176,2183,2176,2176,2183,2183,2191,2191,2191,2191,2207,2207,2207,2207,2215,2223,2223,2223,2223,2223,2223,2223,2231,2239,2231,2231,2239,2239,2247,2247,2255,2255,2255,2263,2272,2272,2272,2280,2280,2280,2280,2280,2280,2280,2272,2272,2272,2272,2263,2263,2263,2263,2263,2263,2263,2263,2263,2255,2255,2247,2247,2231,2223,2223,2199,2176,2176,2153,2153,2123,2102,2102,2080,2080,2060,2046,2046,2026,2026,2013,2006,2006,2006,2000,2000,1993,1993,1993,1980,1980,1968,1968,1955,1943,1943,1937,1919,1919,1907,1907,1895,1884,1884,1872,1872,1861,1855,1855,1844,1839,1839,1833,1833,1828,1817,1817,1812,1801,1801,1796,1796,1786,1781,1781,1775,1775,1765,1760,1760,1760,1760,1760,1760,1760,1760,1765,1765,1765,1791,1812,1812,1833,0,1884,1884,1913,1913,1943,1968,1961,1961,1943,1937,1937,1925,1925,1913,1901,1901,1895,1884,1884,1878,1878,1867,1861,1861,1855,1844,1844,1839,1839,1833,1828,1828,1823,1823,1817,1817,1817,1812,1807,1807,1801,1801,1801,1801,5999,5999,5999,0,5999,5884,5884,5721,5721,5721,5566,5566,5468,5326,5326,5192,5192,5023,4943,4943,4865,4865,4827,4827,4827,4790,4753,4753,4753,4790,4753,4753,4753,4753,4753,4790,4790,4790,4790,4753,4753,4753,4753,4753,4753,4753,4790,4790,4790,4790,4790,4790,4790,4790,4827,4827,4865,4865,4827,4827,4827,4827,4827,4827,4827,4790,4790,4790,4790,4753,4753,4716,4716,4681,4611,4611,4611,4611,4577,4510,4510,4477,4445,4445,4382,4382,4382,4382,4382,4351,4351,4351,4321,4321,4261,4203,4203,4092,4092,3986,3935,3935,3814,3814,3722,3634,3634,3571,3511,3511,3471,3471,3433,3395,3395,3376,3376,3358,3340,3340,3304,3286,3286,3252,3252
1943,1943,1961,1974,1974,1993,1993,2006,2019,2019,2026,2026,2026,2026,2026,2026,2026,2026,2026,2026,2026,2026,2026,2026,2026,2026,2032,2032,2032,2039,2039,2039,2039,2032,2026,2026,2026,2032,2032,2026,2026,2026,2026,2026,2026,2046,2053,2053,2060,2060,2060,2060,2060,2053,2053,2053,2053,2053,2053,2053,2053,2053,2053,2053,2060,2060,2060,2060,2060,2073,2073,2073,2073,2073,2073,2073,2073,2073,2080,2080,2080,2080,2080,2080,2080,2080,2080,2080,2080,2080,2080,2087,2087,2087,2094,2094,2094,2094,2094,2102,2102,2109,2109,2109,2116,2116,2116,2123,2123,2123,2123,2123,2123,2123,2116,2116,2116,2116,2116,2116,2116,2116,2109,2109,2109,2109,2109,2109,2102,2102,2102,2102,2102,2102,2102,2102,2102,2109,2109,2109,2109,2109,2116,2116,2116,2123,2123,2131,2131,2131,2131,2131,2131,2131,2131,2131,2131,2131,2131,2123,2116,2116,2116,2116,2116,2116,2116,2116,2123,2123,2123,2123,2131,2131,2131,2131,2138,2145,2145,2145,2153,2153,2153,2145,2145,2145,2145,2145,2145,2145,2145,2145,2145,2153,2153,2160,2168,2168,2176,2191,2191,2199,2199,2207,2215,2215,2223,2231,2231,2231,2231,2231,2231,2223,2223,2223,2223,2231,2231,2223,2223,2223,2223,2231,2231,2231,2231,2231,2231,2231,2231,2231,2231,2231,2223,2223,2223,2215,2207,2207,2207,2207,2199,2191,2191,2191,2183,2183,2183,2183,2183,2191,2191,2191,2199,2199,2199,2199,2191,2183,2183,2183,2183,2183,2176,2176,2168,2153,2153,2153,2153,2153,2153,2153,2153,2153,2160,2160,2160,2160,2153,2153,2153,2153,2153,2145,2145,2145,2145,2145,2145,2138,2138,2138,2138,2138,2138,2138,2138,2138,2145,2145,2145,2153,2153,2153,2153,2160,2168,2168,2176,2183,2183,2183,2183,2183,2191,2183,2183,2191,2191,2191,2183,2176,2176,2168,2168,2176,2176,2176,2176,2176,2176,2176,2183,2183,2183,2191,2191,2191,2199,2199,2199,2199,2199,2199,2207,2199,2199,2199,2207,2207,2207,2215,2223,2223,2223,2223,2231,2239,2239,2247,2247,2247,2247,2247,2255,2255,2255,2255,2255,2255,2255,2255,2247,2247,2239,2239,2263,2263,2263,2263,2263,2263,2263,2255,2255,2247,2247,2231,2223,2223,2199,2176,2176,2153,2153,2123,2102,2102,2080,2080,2060,2046,2046,2026,2026,2013,2006,2006,2006,2000,2000,1993,1993,1987,1974,1974,1961,1955,1955,1943,1943,1931,1919,1919,1907,1907,1895,1878,1878,1867,1867,1855,1850,1850,1844,1833,1833,1828,1828,1823,1817,1817,1807,1801,1801,1796,1796,1786,1775,1775,1770,1770,1765,1760,1760,1760,1755,1755,1755,1755,1755,1760,1765,1765,1791,1807,1807,1833,1861,1861,1884,1913,1913,1937,1955,1955,1961,1943,1937,1937,1925,1925,1913,1901,1901,1895,1884,1884,1878,1878,1867,1861,1861,1855,1844,1844,1839,1839,1833,1828,1828,1823,1823,1817,1817,1817,1812,1807,1807,1801,1801,1801,1801,1801,1801,5999,5999,5999,5884,5884,5721,5617,5617,5566,5566,5420,5326,5326,5192,5192,5023,4943,4943,4865,4827,4827,4790,4790,4790,4753,4753,4753,4753,4753,4753,4753,4753,4753,4790,4753,4753,4790,4753,4753,4753,4753,4753,4753,4753,4753,4753,4790,4790,4790,4790,4790,4790,4827,4827,4827,4827,4827,4827,4827,4790,4790,4790,4827,4790,4790,4790,4790,4753,4753,4716,4716,4681,4611,4611,4611,4611,4577,4510,4510,4477,4445,4445,4382,4382,4382,4382,4382,4351,4351,4351,4321,4321,4261,4203,4203,4092,4092,3986,3838,3838,3745,3745,3634,3634,3634,3511,3471,3471,3433,3433,3414,3376,3376,3376,3376,3358,3340,3340,3304,3286,3286,3252,3252
1943,1943,1955,1974,1974,1993,1993,2006,2013,2013,2019,2026,2026,2026,2026,2026,2026,2026,2026,2032,2026,2026,2026,2026,2026,2026,2032,2039,2039,2039,2039,2032,2032,2032,2032,2032,2032,2032,2032,2026,2026,2026,2032,2032,2032,2046,2060,2060,2060,2060,2060,2060,2060,2053,2053,2053,2060,2053,2053,2053,2053,2060,2060,2060,2060,2060,2060,2066,2066,2073,2073,2073,2073,2073,2073,2073,2073,2073,2073,2073,2073,2080,2073,2073,2073,2073,2073,2073,2080,2080,2080,2080,2080,2080,2087,2087,2087,2094,2094,2102,2102,2109,2109,2109,2116,2116,2116,2123,2123,2123,2123,2123,2123,2123,2123,2123,2123,2123,2123,2123,2116,2116,2116,2116,2116,2109,2109,2109,2109,2109,2109,2109,2102,2102,2102,2102,2102,2109,2109,2109,2109,2109,2116,2116,2116,2123,2123,2131,2131,2131,2131,2131,2131,2131,2131,2131,2131,2131,2131,2123,2123,2123,2116,2116,2116,2116,2116,2116,2123,2123,2123,2123,2131,2131,2131,2131,2145,2145,2145,2145,2153,2153,2153,2145,2145,2145,2145,2145,2145,2145,2145,2145,2145,2153,2153,2160,2168,2168,2176,2191,2191,2199,2199,2207,2215,2215,2223,2231,2231,2231,2231,2231,2231,2231,2231,2231,2231,2231,2231,2231,2231,2231,2231,2239,2239,2239,2239,2239,2239,2231,2231,2231,2231,2231,2231,2223,2223,2215,2207,2207,2207,2207,2199,2199,2199,2199,2183,2183,2183,2191,2191,2191,2199,2199,2199,2199,2199,2199,2191,2191,2191,2183,2183,2183,2176,2176,2168,2153,2153,2153,2153,2153,2153,2153,2153,2153,2160,2160,2153,2153,2153,2153,2153,2153,2153,2145,2138,2138,2138,2138,2138,2131,2131,2131,2131,2138,2131,2131,2131,2131,2131,2131,2138,2145,2145,2145,2145,2153,2153,2153,2160,2168,2168,2176,2176,2183,2183,2183,2183,2183,2183,2183,2183,2176,2176,2168,2168,2168,2168,2168,2168,2168,2168,2168,2176,2176,2176,2176,2183,2183,2183,2183,2199,2199,2199,2199,2207,2199,2199,2199,2207,2207,2207,2215,2223,2223,2223,2223,2231,2239,2239,2247,2247,2247,2247,2247,2255,2255,2255,2255,2255,2255,2255,2255,2247,2247,2239,2239,2239,2239,2239,2239,2239,2239,2239,2231,2231,2223,2223,2215,2207,2207,2191,2168,2168,2138,2138,2116,2094,2094,2073,2073,2060,2039,2039,2026,2026,2013,2006,2006,2006,2000,2000,1993,1993,1987,1974,1974,1961,1949,1949,1937,1937,1931,1913,1913,1901,1901,1889,1878,1878,1867,1855,1855,1844,1844,1839,1833,1833,1828,1828,1823,1817,1817,1807,1801,1801,1796,1796,1786,1775,1775,1770,1770,1765,1760,1760,1760,1755,1755,1755,1755,1755,1760,1765,1765,1791,1807,1807,1839,1861,1861,1884,1913,1913,1937,1955,1949,1949,1937,1931,1931,1919,1907,1907,1895,1895,1889,1878,1878,1872,1872,1861,1861,1861,1850,1844,1844,1839,1839,1833,1823,1823,1817,1817,1812,1812,1812,1807,1807,1807,1796,1796,1796,1791,1791,1791,1791,5999,5941,5829,5829,5721,5617,5617,5517,5517,5420,5281,5281,5192,5192,5023,4904,4904,4865,4827,4827,4790,4790,4790,4790,4790,4790,4753,4753,4753,4753,4753,4753,4790,4753,4753,4790,4753,4753,4753,4753,4753,4753,4753,4753,4753,4790,4790,4790,4790,4790,4827,4827,4827,4827,4827,4827,4827,4827,4790,4790,4753,4753,4753,4753,4753,4716,4716,4716,4646,4646,4646,4611,4611,4577,4577,4510,4510,4510,4477,4413,4413,4382,4382,4382,4351,4351,4351,4321,4321,4261,4261,4232,4092,4092,3986,3986,3886,3767,3767,3745,3745,3571,3531,3531,3471,3433,3433,3414,3414,3395,3376,3376,3358,3358,3340,3340,3340,3322,3286,3286,3269,3269
1943,1943,1955,1974,1974,1993,1993,2006,2013,2013,2019,2026,2026,2026,2026,2026,2026,2026,2026,2032,2026,2026,2032,2032,2032,2032,2032,2039,2039,2039,2039,2032,2032,2032,2032,2032,2032,2032,2032,2026,2026,2026,2032,2032,2032,2046,2053,2053,2060,2060,2060,2060,2060,2053,2053,2053,2060,2053,2053,2053,2053,2053,2060,2060,2060,2060,2060,2066,2066,2066,2073,2073,2073,2073,2073,2073,2073,2073,2073,2073,2073,2080,2073,2073,2073,2073,2073,2073,2080,2080,2080,2080,2080,2080,2087,2087,2087,2094,2094,2102,2102,2109,2109,2109,2116,2116,2116,2123,2131,2131,2131,2123,2123,2123,2123,2123,2123,2123,2123,2123,2116,2116,2116,2116,2116,2116,2116,2116,2109,2109,2109,2109,2102,2102,2102,2102,2109,2109,2109,2109,2109,2109,2116,2116,2116,2123,2123,2123,2131,2131,2131,2131,2131,2131,2131,2131,2131,2131,2131,2123,2123,2123,2116,2116,2116,2116,2116,2116,2123,2123,2123,2123,2131,2131,2131,2131,2145,2145,2145,2153,2153,2153,2153,2153,2153,2153,2153,2153,2153,2153,2153,2153,2160,2160,2160,2168,2176,2176,2183,2207,2207,2215,2215,2223,2231,2231,2239,2239,2239,2239,2239,2231,2231,2231,2231,2231,2231,2231,2231,2231,2231,2231,2231,2239,2239,2239,2239,2239,2239,2239,2239,2239,2239,2239,2231,2223,2223,2223,2207,2207,2207,2207,2199,2199,2199,2199,2183,2183,2183,2191,2191,2191,2199,2199,2199,2199,2199,2199,2191,2191,2191,2183,2183,2183,2176,2176,2168,2153,2153,2153,2153,2153,2153,2153,2153,2153,2153,2153,2153,2153,2153,2153,2145,2145,2145,2145,2138,2138,2138,2138,2131,2131,2131,2123,2116,2116,2116,2116,2116,2116,2123,2123,2123,2145,2145,2145,2145,2153,2153,2153,2160,2168,2168,2176,2176,2183,2183,2183,2183,2183,2183,2183,2183,2176,2176,2176,2168,2168,2168,2168,2168,2168,2168,2168,2176,2176,2176,2176,2183,2183,2183,2183,2183,2183,2183,2176,2176,2176,2199,2199,2207,2207,2207,2215,2223,2223,2223,2223,2231,2239,2239,2247,2247,2247,2247,2247,2255,2255,2255,2255,2255,2255,2255,2255,2247,2247,2239,2239,2239,2239,2239,2239,2239,2239,2239,2231,2231,2199,2199,2191,2191,2207,2176,2153,2153,2123,2123,2109,2087,2087,2060,2060,2060,2039,2039,2026,2026,2013,2006,2006,2006,2000,2000,1993,1993,1987,1974,1974,1961,1949,1949,1937,1937,1931,1913,1913,1901,1901,1889,1878,1878,1867,1855,1855,1844,1844,1839,1833,1833,1823,1823,1817,1807,1807,1801,1796,1796,1786,1786,1781,1770,1770,1765,1765,1760,1755,1755,1750,1750,1750,1750,1755,1755,1760,1765,1765,1786,1807,1807,1839,1861,1861,1884,1907,1907,1931,1949,1943,1943,1937,1925,1925,1913,1901,1901,1889,1889,1884,1878,1878,1867,1867,1861,1855,1855,1850,1839,1839,1833,1833,1828,1823,1823,1817,1817,1812,1812,1812,1807,1807,1807,1796,1796,1796,1791,1791,1791,1791,5999,5941,5829,5829,5721,5617,5617,5517,5517,5420,5281,5281,5192,5192,5023,4904,4904,4865,4865,4865,4827,4827,4790,4790,4790,4790,4753,4753,4753,4753,4753,4753,4790,4753,4753,4790,4753,4753,4753,4753,4753,4753,4753,4753,4753,4790,4790,4790,4790,4790,4827,4827,4827,4827,4827,4827,4827,4790,4790,4790,4753,4753,4753,4716,4716,4716,4681,4681,4611,4611,4611,4577,4577,4510,4510,4510,4477,4477,4445,4413,4413,4351,4351,4351,4351,4351,4351,4321,4321,4261,4261,4232,4092,4092,3986,3986,3886,3767,3767,3767,0,3571,3531,3531,3471,3433,3433,3414,3414,3395,3376,3376,3358,3358,3340,3340,3340,3340,3304,3304,3269,3269
1943,1943,1955,1974,1974,1993,1993,2006,2013,2013,2019,2026,2026,2026,2026,2026,2026,2026,2026,2032,2026,2026,2032,2032,2032,2032,2032,2039,2039,2039,2039,2032,2032,2032,2032,2032,2032,2032,2032,2032,2032,2032,2032,2039,2039,2046,2053,2053,2060,2060,2060,2060,2060,2060,2060,2060,2060,2053,2053,2060,2053,2053,2060,2060,2060,2060,2060,2066,2066,2066,2073,2073,2080,2080,2080,2080,2080,2080,2080,2080,2080,2080,2080,2080,2080,2080,2080,2080,2080,2080,2080,2087,2087,2087,2087,2087,2094,2102,2102,2102,2102,2109,2109,2109,2116,2116,2116,2123,2131,2131,2131,2123,2123,2123,2123,2123,2123,2123,2123,2123,2116,2116,2116,2116,2116,2116,2116,2116,2109,2109,2109,2109,2102,2102,2102,2102,2109,2109,2109,2109,2109,2109,2116,2116,2116,2123,2123,2123,2131,2131,2131,2131,2131,2131,2131,2131,2131,2131,2131,2123,2116,2116,2116,2116,2116,2116,2116,2116,2123,2123,2123,2131,2131,2131,2138,2138,2145,2153,2153,2153,2160,2160,2160,2160,2160,2160,2160,2160,2160,2160,2160,2160,2160,2176,2176,2183,2191,2191,2207,2215,2215,2231,2223,2223,2231,2231,2239,2239,2239,2239,2239,2231,2231,2231,2231,2231,2231,2231,2231,2231,2231,2231,2231,2231,2231,2239,2239,2239,2239,2231,2231,2231,2231,2239,2231,2223,2223,2215,2215,2215,2207,2207,2207,2199,2199,2191,2183,2183,2183,2183,2183,2191,2199,2199,2199,2199,2199,2199,2191,2191,2191,2191,2183,2183,2176,2176,2176,2160,2160,2153,2153,2153,2153,2153,2153,2153,2153,2153,2153,2153,2153,2153,2145,2145,2145,2145,2138,2138,2138,2138,2131,2131,2131,2123,2116,2116,2116,2116,2116,2116,2123,2123,2123,2131,2131,2145,2145,2153,2153,2153,2160,2168,2168,2176,2176,2183,2183,2183,2183,2183,2183,2183,2183,2176,2176,2176,2160,2160,2160,2168,2168,2168,2168,2168,2176,2176,2176,2176,2183,2183,2183,2183,2183,2183,2183,2176,2176,2176,0,0,0,0,0,0,0,0,0,0,0,0,0,0,0,0,0,0,0,0,0,0,0,0,0,0,0,0,0,0,0,0,0,0,0,0,0,0,0,2199,2199,2191,2191,0,2176,2153,2153,2123,2123,2109,2087,2087,2060,2060,2046,2032,2032,2013,2013,2006,2000,2000,2000,2000,2000,1987,1987,1980,1968,1968,1955,1943,1943,1937,1937,1925,1913,1913,1901,1901,1884,1872,1872,1861,1850,1850,1844,1844,1833,1823,1823,1817,1817,1812,1801,1801,1796,1791,1791,1781,1781,1770,1765,1765,1760,1760,1755,1750,1750,1745,1745,1745,1745,1745,1745,1750,1765,1765,1786,1812,1812,1839,1861,1861,1884,1907,1907,1931,1949,1943,1943,1937,1925,1925,1913,1901,1901,1889,1889,1884,1878,1878,1867,1867,1861,1855,1855,1850,1839,1839,1833,1833,1828,1823,1823,1817,1812,1812,1807,1807,1807,1801,1801,1791,1791,1791,1786,1786,1786,1781,1781,1781,5774,5774,5668,5566,5566,5468,5468,5373,5281,5281,5192,5192,5023,4904,4904,4865,4865,4865,4827,4827,4790,4790,4790,4790,4790,4790,4753,4753,4753,4790,4790,4790,4790,4790,4753,4753,4753,4753,4790,4790,4790,4790,4790,4790,4790,4827,4827,4827,4827,4827,4827,4827,4827,4827,4827,4790,4790,4790,4753,4753,4753,4716,4716,4716,4681,4681,4611,4611,4611,4577,4577,4510,4510,4510,4477,4477,4445,4413,4413,4351,4351,4351,4351,4351,4321,4291,4291,4175,4175,4092,3986,3986,3886,3886,3886,3767,3767,3613,3613,3531,3471,3471,3452,3414,3414,3395,3395,3376,3358,3358,3340,3340,3340,3340,3340,3340,3304,3304,3269,3269
1943,1943,1955,1968,1968,1987,2000,2000,2006,2006,2013,2019,2019,2019,2026,2026,2026,2026,2026,2032,2026,2026,2032,2026,2026,2026,2032,2039,2039,2039,2039,2032,2032,2032,2032,2032,2032,2032,2032,2032,2039,2039,2039,2039,2039,2053,2066,2066,2066,2066,2060,2060,2060,2060,2060,2060,2060,2060,2060,2060,2060,2060,2060,2060,2060,2060,2060,2066,2066,2066,2073,2073,2080,2080,2080,2080,2080,2080,2080,2080,2080,2080,2080,2080,2080,2080,2080,2080,2080,2080,2080,2087,2087,2087,2087,2087,2094,2102,2102,2102,2102,2109,2116,2116,2116,2116,2116,2131,2131,2131,2131,2131,2123,2123,2123,2123,2123,2123,2131,2123,2123,2123,2116,2116,2116,2116,2116,2116,2116,2116,2116,2109,2109,2109,2109,2109,2109,2116,2116,2116,2116,2116,2116,2116,2116,2123,2123,2131,2131,2131,2131,2131,2131,2131,2131,2131,2131,2131,2131,2123,2116,2116,2116,2116,2116,2116,2116,2116,2123,2123,2123,2131,2131,2131,2138,2138,2145,2153,2153,2153,2160,2160,2160,2160,2160,2160,2160,2160,2160,2160,2160,2160,2160,2176,2176,2183,2191,2191,2207,2215,2215,2231,2231,2239,2239,2239,2247,2247,2247,2247,2239,2231,2231,2231,2231,2231,2231,2231,2231,2223,2223,2223,2223,2231,2231,2239,2239,2239,2239,2231,2231,2231,2231,2239,2231,2223,2223,2215,2215,2215,2207,2207,2207,2199,2199,2191,2183,2183,2183,2183,2183,2191,2199,2199,2199,2199,2199,2199,2191,2191,2191,2191,2183,2183,2176,2176,2168,2153,2153,2153,2153,2153,2145,2145,2138,2138,2138,2138,2145,2145,2145,2145,2145,2138,2138,2131,2123,2123,2123,2123,2123,2123,2123,2116,2116,2116,2116,2116,2116,2116,2123,2123,2123,2131,2131,0,0,0,0,0,0,0,0,0,0,0,0,2176,2168,2168,2168,2160,2160,2160,2160,2153,2153,2153,2153,0,0,0,0,0,0,0,0,0,0,0,0,0,0,0,0,0,0,0,0,0,0,0,0,0,0,0,0,0,0,0,0,0,0,0,0,0,0,0,0,0,0,0,0,0,0,0,0,0,0,0,0,0,0,0,2176,2176,2176,2176,2176,2168,2160,2160,2145,2131,2131,2116,2116,2094,2073,2073,2053,2053,2039,2019,2019,2013,2013,2000,1993,1993,1993,1993,1993,1987,1987,1974,1968,1968,1955,1943,1943,1931,1931,1925,1907,1907,1895,1895,1884,1872,1872,1861,1850,1850,1844,1844,1833,1823,1823,1817,1817,1812,1801,1801,1796,1791,1791,1781,1781,1770,1765,1765,1760,1760,1755,1750,1750,1745,1745,1745,1745,1745,1745,1750,1765,1765,1781,1801,1801,1833,1855,1855,1884,1901,1901,1925,1937,1937,1937,1931,1919,1919,1907,1901,1901,1889,1889,1878,1872,1872,1861,1861,1855,1850,1850,1844,1839,1839,1828,1828,1823,1817,1817,1817,1812,1812,1807,1807,1801,1796,1796,1786,1786,1786,1781,1781,1781,1781,1781,1781,5721,5721,5566,5468,5468,5373,5373,5326,5236,5236,5192,5192,5023,4904,4904,4904,4865,4865,4827,4827,4790,4790,4790,4790,4790,4790,4790,4790,4790,4790,4790,4790,4790,4827,4827,4827,4790,4790,4827,4827,4827,4827,4827,4865,4827,4827,4827,4827,4827,4827,4827,4827,4827,4790,4790,4790,4753,4753,4716,4716,4681,4681,4681,4646,4611,4611,4611,4611,4577,4510,4510,4510,4477,4477,4445,4445,4413,4351,4351,4351,4351,4351,4321,4321,4261,4175,4175,4092,4092,4012,3886,3886,3886,3886,3886,3634,3634,3571,3571,3491,3471,3471,3433,3414,3414,3376,3376,3358,3358,3358,3340,3340,3340,3340,3358,3340,3304,3304,3286,3286
