0,0,0,0,0,0,0,0,0,0,0,0,0,0,0,0,0,0,0,0,0,0,0,0,0,0,0,0,0,0,0,0,0,0,0,0,0,0,0,0,0,0,0,0,0,0,0,0,0,0,0,0,0,0,0,0,0,0,0,0,0,0,0,0,0,0,0,0,0,0,0,0,0,0,0,0,0,0,0,0,0,0,0,0,0,0,2349,2340,2340,2340,2340,2349,2349,2349,2349,2358,2358,2358,2367,2376,2376,2376,2376,2386,2395,2395,2404,2414,2414,2423,2442,2442,2452,2452,2452,2462,2462,2481,2481,2481,2491,2481,2481,2481,2471,2471,2471,2471,2471,2471,2471,2471,2471,2491,2522,2522,2532,2543,2543,2564,2564,2574,2585,2585,2585,2596,2596,2596,2585,2585,2596,2596,2596,2607,2607,2618,2618,2629,2640,2640,2652,2663,2663,2675,2686,2686,2698,2698,2698,2722,2710,2710,2710,2710,2710,2710,2698,2698,2686,2686,2686,2675,2675,2675,2675,2675,2663,2663,2663,2663,2686,2686,2686,2698,2698,2698,2698,2698,2698,2698,2686,2686,2686,2675,2675,2675,2675,2663,2652,2652,2640,2629,2629,2629,2629,2618,2618,2618,2607,2607,2607,2596,2596,2596,2596,2596,2596,2596,2585,2585,2596,2585,2585,2585,2585,2596,2596,2596,2596,2585,2585,2596,2596,2607,2607,2607,2607,2607,2618,2618,2618,2629,2629,2629,2640,2640,2640,2652,2652,2652,2652,2652,2652,2652,2652,2663,2663,2675,2675,2675,2675,2675,2686,2698,2698,2698,2698,2698,2710,2710,2710,2710,2710,2710,2710,2698,2686,2686,2686,2698,2686,2675,2675,2663,2663,2663,2652,2652,2652,2652,2652,2640,2640,2640,2640,2640,2640,2652,2652,2652,2663,2663,2663,2686,2686,2698,2710,2710,2734,2758,2758,2783,2783,2821,2834,2834,2847,2847,2847,2847,2847,2834,2834,2821,2796,2796,2771,2771,2746,2734,2734,2722,2698,2698,2698,2698,2686,2675,2675,2675,2663,2663,2663,2675,2675,2675,2675,2675,2686,2686,2686,2698,2698,2698,2698,2698,2698,2698,2686,2686,2686,2686,2686,2686,2686,2686,2675,2675,2675,2675,2675,2675,2686,2686,2675,2675,2675,2675,2675,2663,2663,2663,2652,2652,2652,2652,2652,2652,2652,2652,2652,2663,2663,2663,2663,2663,2663,2663,2652,2652,2652,2640,2640,2629,2618,2618,2607,2607,2596,2585,2585,2564,2564,2553,2532,2532,2522,2512,2512,2491,2491,2481,2452,2452,2433,2433,2414,2386,2386,2367,2340,2340,2314,2314,2280,2255,2255,2231,2231,2207,2191,2191,2176,2176,2160,2138,2138,2131,2116,2116,2102,2102,2087,2073,2073,2060,2060,2046,2032,2032,2013,1993,1993,1974,1974,1949,1931,1931,1919,1919,1901,1884,1884,1861,1861,1844,1828,1828,1817,1817,1801,1786,1786,1770,1760,1760,1745,1745,1731,1721,1721,1707,1707,1697,1688,1688,1674,1674,1670,1661,1661,1652,1643,1643,1635,1635,1626,1622,1622,1617,1617,1613,1609,1609,1609,1609,1609,1609,1609,1609,1622,1643,1643,1674,1716,1716,1755,1786,1786,1812,1828,1828,1850,1855,1855,1850,1850,1844,1844,1839,1833,1833,1823,1817,1817,1807,1807,1796,1786,1786,1775,1775,1770,1765,1765,1760,1755,1755,1745,1745,1740,1740,0,0,0,0,0,0,1526,1526,1526,1533,1533,1541,1545,1545,1552,1572,1572,1580,1588,1588,1605,1617,1617,1626,1626,0,0,0,0,0,0,0,0,0,0,0,0,0,0,0,0,0,0,0,4646,4646,4716,4646,4646,4611,4577,4577,4543,4543,4510,4510,4543,4477,4445,4445,4382,4382,4382,4413,4477,4477,4510,4577
0,0,0,0,0,0,0,0,0,0,0,0,0,0,0,0,0,0,0,0,0,0,0,0,0,0,0,0,0,0,0,0,0,0,0,0,0,0,0,0,0,0,0,0,0,0,0,0,0,0,0,0,0,0,0,0,0,0,0,0,0,0,0,0,0,0,0,0,0,0,0,0,0,0,0,0,0,0,0,0,0,0,0,0,0,0,0,2340,2340,2340,2340,2340,2340,2340,2340,2349,2358,2358,2358,2367,2367,2376,2376,2386,2395,2395,2404,2414,2414,2423,2433,2433,2452,2452,2452,2462,2462,2481,2481,2481,2481,2481,2481,2481,2462,2462,2462,2462,2462,2462,2462,2471,2471,2481,2512,2512,2532,2543,2543,2564,2564,2574,2585,2585,2596,2596,2596,2596,2596,2596,2607,2607,2607,2618,2618,2629,2640,2640,2652,2652,2652,2663,2663,2675,2686,2686,2698,2698,2698,2722,2710,2710,2710,2710,2710,2710,2698,2698,2686,2686,2686,2675,2675,2675,2675,2675,2663,2663,2663,2652,2652,2652,2652,2663,2663,2663,2663,2663,2663,2663,2663,2663,2652,2652,2652,2640,2640,2640,2618,2618,2607,2607,2607,2607,2607,2596,2596,2596,2585,2585,2585,2585,2585,2585,2585,2585,2585,2585,2585,2585,2585,2585,2585,2585,2585,2585,2585,2585,2585,2585,2585,2585,2585,2585,2596,2596,2596,2596,2607,2607,2607,2607,2629,2629,2640,2640,2640,2652,2652,2652,2652,2652,2652,2652,2652,2663,2663,2675,2675,2675,2675,2675,2686,2698,2698,2698,2698,2698,2710,2710,2710,2710,2710,2710,2710,2698,2686,2686,2686,2686,2675,2675,2675,2663,2663,2652,2652,2652,2640,2629,2629,2629,2640,2629,2629,2640,2640,2640,2640,2640,2652,2663,2663,2663,2663,2686,2698,2698,2710,2734,2734,2758,2758,2783,2796,2796,2808,2821,2821,2808,2808,2808,2808,2796,2771,2771,2758,2758,2734,2722,2722,2722,2698,2698,2686,2686,2675,2675,2675,2675,2663,2663,2663,2675,2675,2675,2675,2675,2686,2686,2686,2698,2698,2698,2698,2698,2698,2698,2686,2686,2686,2686,2686,2686,2686,2686,2675,2675,2675,2675,2675,2675,2686,2686,2675,2675,2675,2663,2663,2652,2652,2652,2652,2652,2640,2640,2640,2640,2640,2640,2640,2652,2652,2652,2652,2652,2652,2652,2652,2652,2640,2629,2629,2629,2618,2618,2596,2596,2585,2585,2585,2564,2564,2553,2543,2543,2522,2512,2512,2501,2501,2491,2462,2462,2433,2423,2414,2395,2395,2367,2340,2340,2314,2314,2280,2255,2255,2231,2231,2207,2191,2191,2176,2176,2160,2138,2138,2131,2116,2116,2102,2102,2087,2073,2073,2060,2060,2046,2032,2032,2013,1993,1993,1974,1974,1949,1931,1931,1919,1919,1901,1884,1884,1861,1861,1844,1828,1828,1812,1812,1801,1786,1786,1770,1760,1760,1745,1745,1731,1721,1721,1707,1707,1697,1688,1688,1674,1674,1670,1661,1661,1652,1643,1643,1635,1635,1626,1622,1622,1617,1617,1613,1609,1609,1609,1609,1609,1609,1609,1609,1622,1643,1643,1674,1716,1716,1755,1786,1786,1812,1828,1828,1844,1850,1850,1850,1850,1844,1844,1839,1833,1833,1823,1817,1817,1807,1807,1796,1786,1786,1775,1775,1770,1765,1765,1760,1755,1755,1745,1745,1740,1740,0,0,0,0,0,0,1537,1537,1537,1545,1552,1545,1545,1545,1552,1572,1572,1580,1588,1588,1605,1617,1617,1626,1626,1635,1635,1635,0,0,0,0,0,0,0,0,0,0,0,0,0,0,0,0,4611,4611,4681,4646,4646,4611,4543,4543,4543,4510,4510,4510,4543,4477,4445,4445,4382,4382,4382,4413,4477,4477,4510,4543
0,0,0,0,0,0,0,0,0,0,0,0,0,0,0,0,0,0,0,0,0,0,0,0,0,0,0,0,0,0,0,0,0,0,0,0,0,0,0,0,0,0,0,0,0,0,0,0,0,0,0,0,0,0,0,0,0,0,0,0,0,0,0,0,0,0,0,0,0,0,0,0,0,0,0,0,0,0,0,0,0,0,0,0,0,0,0,2340,2340,2340,2340,2340,2340,2340,2340,2349,2358,2358,2358,2367,2367,2376,2376,2386,2395,2395,2404,2414,2414,2423,2433,2433,2452,2452,2452,2471,2471,2481,2481,2481,2481,2481,2481,2481,2462,2462,2462,2462,2462,2462,2462,2471,2471,2481,2512,2512,2532,2543,2543,2564,2564,2574,2585,2585,2596,2607,2607,2607,2607,2607,2607,2607,2607,2618,2618,2629,2640,2640,2652,2652,2652,2663,2663,2675,2686,2686,2698,2698,2698,2722,2710,2710,2710,2710,2710,2698,2686,2686,2675,2675,2675,2663,2663,2652,2652,2652,2640,2629,2629,2629,2640,2629,2629,2629,2629,2629,2629,2629,2629,2629,2629,2629,2629,2618,2618,2618,2618,2607,2607,2607,2596,2596,2596,2596,2607,2596,2596,2596,2585,2585,2585,2585,2585,2585,2585,2585,2585,2585,2585,2585,2585,2585,2585,2585,2585,2585,2585,2585,2585,2585,2585,2585,2585,2585,2596,2596,2596,2596,2607,2607,2607,2607,2618,2618,2618,2618,2618,2640,2640,2640,2640,2640,2640,2640,2640,2652,2652,2652,2663,2663,2663,2663,2663,2675,2675,2686,2686,2686,2698,2698,2686,2686,2686,2686,2686,2675,2675,2675,2675,2675,2663,2663,2663,2652,2652,2640,2640,2640,2640,2629,2629,2629,2629,2629,2629,2629,2629,2629,2640,2640,2640,2652,2652,2663,2663,2686,2698,2698,2710,2734,2734,2758,2758,2783,2796,2796,2808,2821,2821,2808,2808,2808,2808,2796,2771,2771,2758,2758,2734,2722,2722,2722,2698,2698,2686,2686,2675,2675,2675,2675,2663,2663,2663,2675,2675,2675,2675,2675,2675,2686,2686,2686,2686,2686,2686,2686,2686,2686,2675,2675,2675,2675,2675,2675,2663,2663,2663,2663,2663,2663,2675,2675,2675,2675,2663,2663,2652,2640,2640,2640,2640,2640,2640,2640,2629,2629,2629,2629,2629,2629,2629,2640,2640,2640,2640,2629,2629,2640,2629,2629,2629,2618,2618,2618,2618,2618,2596,2596,2585,2585,2585,2574,2564,2564,2543,2543,2532,2522,2522,2512,2512,2491,2471,2471,2442,2423,2423,2395,2395,2376,2340,2340,2314,2314,2280,2255,2255,2231,2231,2207,2183,2183,2168,2168,2153,2138,2138,2123,2109,2109,2102,2102,2087,2073,2073,2060,2060,2046,2026,2026,2013,1993,1993,1968,1968,1949,1931,1931,1919,1919,1901,1884,1884,1861,1861,1844,1828,1828,1812,1812,1801,1786,1786,1770,1760,1760,1745,1745,1731,1721,1721,1707,1707,1697,1688,1688,1674,1674,1670,1661,1661,1652,1643,1643,1635,1635,1626,1622,1622,1617,1617,1613,1609,1609,1609,1609,1613,1609,1609,1622,1622,1643,1643,1716,1716,1716,1760,1786,1812,1812,1828,1828,1844,1850,1850,1850,1850,1844,1844,1839,1833,1833,1823,1817,1817,1807,1807,1796,1786,1786,1775,1775,1770,1760,1760,1755,1750,1750,1740,1740,1736,1736,0,0,0,0,0,0,1537,1537,1537,1545,1552,1552,1560,1560,1564,1580,1580,1592,1601,1601,1613,1622,1622,1626,1626,1635,1635,1635,0,0,0,0,0,0,0,0,0,0,0,0,0,0,0,0,4611,4611,4681,4646,4646,4611,4543,4543,4543,4510,4510,4510,4543,4477,4445,4445,4382,4382,4413,4413,4477,4477,4510,4543
0,0,0,0,0,0,0,0,0,0,0,0,0,0,0,0,0,0,0,0,0,0,0,0,0,0,0,0,0,0,0,0,0,0,0,0,0,0,0,0,0,0,0,0,0,0,0,0,0,0,0,0,0,0,0,0,0,0,0,0,0,0,0,0,0,0,0,0,0,0,0,0,0,0,0,0,0,0,0,0,0,0,0,0,0,0,0,2340,2340,2340,2340,2340,2340,2340,2340,2358,2367,2367,2367,2386,2386,2386,2395,2395,2395,2395,2414,2423,2423,2423,2442,2442,2452,2452,2452,2471,2471,2481,2481,2481,2481,2471,2471,2471,2462,2462,2462,2452,2452,2452,2452,2462,2462,2481,2501,2501,2522,2543,2543,2553,2553,2574,2585,2585,2596,2607,2607,2607,2607,2607,2607,2607,2618,2629,2629,2640,2640,2640,2652,2652,2663,2663,2663,2675,2698,2698,2698,2698,2710,2710,2710,2710,2710,2686,2686,2686,2686,2686,2675,2675,2675,2663,2663,2652,2652,2652,2640,2629,2629,2629,2640,2629,2629,2629,2629,2629,2629,2629,2629,2629,2629,2629,2629,2618,2618,2618,2618,2607,2607,2607,2596,2596,2596,2585,2585,2585,2574,2574,2574,2574,2574,2574,2574,2574,2574,2574,2574,2574,2574,2574,2585,2585,2585,2585,2574,2574,2585,2585,2585,2585,2585,2585,2585,2585,2585,2585,2585,2585,2596,2596,2596,2596,2607,2607,2607,2607,2607,2618,2618,2618,2618,2618,2618,2618,2629,2629,2629,2640,2652,2652,2652,2652,2652,2663,2663,2663,2686,2686,2698,2698,2686,2686,2686,2686,2686,2675,2675,2675,2675,2675,2663,2663,2663,2652,2652,2640,2640,2640,2640,2629,2629,2629,2629,2629,2629,2629,2629,2629,2640,2640,2640,2652,2652,2663,2663,2663,2663,2663,2686,2710,2710,2722,2722,2746,2758,2758,2771,2783,2783,2783,2783,2771,2771,2758,2746,2746,2734,2734,2722,2710,2710,2698,2698,2698,2686,2686,2675,2675,2675,2675,2675,2675,2663,2663,2663,2663,2663,2663,2675,2675,2675,2675,2675,2675,2675,2675,2663,2663,2663,2663,2663,2652,2652,2652,2652,2652,2652,2663,2663,2663,2675,2675,2675,2675,2663,2663,2652,2640,2640,2640,2640,2640,2640,2640,2629,2629,2629,2629,2629,2629,2629,2640,2640,2640,2640,2629,2629,2640,2629,2629,2629,2618,2618,2618,2607,2607,2596,2596,2585,2574,2574,2564,2553,2553,2543,2543,2532,2512,2512,2512,2512,2491,2471,2471,2442,2423,2423,2395,2395,2376,2340,2340,2314,2314,2280,2255,2255,2231,2231,2207,2183,2183,2160,2160,2145,2138,2138,2123,2109,2109,2094,2094,2087,2073,2073,2060,2060,2039,2026,2026,2006,1987,1987,1968,1968,1949,1931,1931,1919,1919,1901,1884,1884,1861,1861,1844,1828,1828,1812,1812,1801,1786,1786,1770,1760,1760,1745,1745,1731,1721,1721,1707,1707,1697,1688,1688,1679,1679,1670,1661,1661,1652,1643,1643,1635,1635,1626,1622,1622,1617,1613,1613,1609,1609,1609,1609,1613,1609,1609,1622,1622,1643,1643,1716,1716,1716,1750,1786,1807,1807,1828,1828,1844,1850,1850,1850,1850,1844,1844,1839,1833,1833,1823,1817,1817,1807,1807,1796,1786,1786,1775,1775,1765,1760,1760,1755,1750,1750,1736,1736,1731,1731,0,0,0,0,0,0,1545,1545,1545,1552,1560,1560,1568,1568,1576,1592,1592,1601,1609,1609,1622,1626,1626,1630,1635,1635,1639,1639,0,0,0,0,0,0,0,0,0,0,0,0,0,0,0,0,4611,4611,4681,4611,4611,4577,4543,4543,4543,4510,4510,4510,4510,4477,4445,4445,4382,4382,4413,4413,4445,4445,4510,4543
0,0,0,0,0,0,0,0,0,0,0,0,0,0,0,0,0,0,0,0,0,0,0,0,0,0,0,0,0,0,0,0,0,0,0,0,0,0,0,0,0,0,0,0,0,0,0,0,0,0,0,0,0,0,0,0,0,0,0,0,0,0,0,0,0,0,0,0,0,0,0,0,0,0,0,0,0,0,0,0,0,0,0,0,0,0,2340,2340,2340,2340,2340,2340,2340,2340,2340,2358,2367,2367,2367,2386,2386,2386,2395,2395,2395,2395,2414,2423,2423,2423,2442,2442,2452,2452,2462,2471,2471,2471,2471,2471,2471,2471,2462,2462,2452,2452,2452,2442,2442,2442,2442,2442,2442,2462,2491,2491,2512,2532,2532,2543,2543,2574,2585,2585,2596,2607,2607,2618,2618,2618,2618,2618,2629,2629,2629,2640,2652,2652,2663,2663,2663,2675,2675,2675,2698,2698,2698,2698,2710,2710,2710,2710,2710,2686,2686,2686,2675,2675,2663,2652,2652,2640,2640,2629,2629,2629,2618,2607,2607,2607,2607,2607,2607,2607,2607,2607,2607,2607,2607,2607,2607,2607,2607,2607,2607,2607,2607,2607,2596,2596,2585,2585,2585,2574,2574,2574,2564,2564,2564,2564,2564,2564,2564,2564,2564,2564,2564,2564,2564,2564,2574,2564,2564,2564,2564,2574,2574,2574,2574,2574,2585,2585,2585,2585,2585,2585,2585,2585,2596,2596,2596,2596,2607,2607,2607,2607,2607,2618,2618,2618,2618,2618,2618,2618,2629,2629,2629,2640,2652,2652,2652,2652,2652,2663,2663,2663,2675,2675,2675,2675,2675,2675,2675,2675,2675,2675,2663,2663,2663,2663,2652,2652,2652,2640,2640,2640,2629,2629,2629,2618,2618,2618,2618,2618,2618,2618,2618,2618,2618,2618,2629,2640,2640,2640,2640,2652,2652,2652,2663,2686,2686,2686,2686,2710,2722,2722,2722,2734,2734,2734,2734,2734,2746,2734,2722,2722,2722,2722,2722,2710,2710,2698,2698,2698,2686,2686,2675,2675,2675,2675,2675,2675,2663,2663,2663,2663,2663,2663,2675,2675,2675,2675,2675,2675,2675,2675,2663,2663,2663,2663,2663,2652,2652,2652,2652,2652,2652,2652,2652,2652,2652,2652,2652,2663,2652,2652,2640,2629,2629,2629,2618,2618,2618,2629,2618,2607,2607,2607,2607,2607,2607,2607,2607,2618,2618,2618,2607,2607,2607,2618,2607,2607,2607,2596,2585,2585,2585,2585,2574,2564,2564,2564,2553,2553,2543,2543,2522,2512,2512,2512,2512,2491,2481,2481,2452,2433,2433,2404,2404,2376,2349,2349,2314,2314,2280,2255,2255,2231,2231,2207,2183,2183,2160,2160,2145,2138,2138,2123,2109,2109,2094,2094,2087,2073,2073,2060,2060,2039,2026,2026,2006,1987,1987,1968,1968,1949,1931,1931,1913,1913,1901,1878,1878,1861,1861,1844,1828,1828,1812,1812,1801,1786,1786,1770,1760,1760,1745,1745,1731,1721,1721,1707,1707,1697,1688,1688,1679,1670,1670,1661,1661,1652,1643,1643,1635,1635,1630,1622,1622,1617,1613,1613,1613,1613,1609,1609,1613,1609,1609,1622,1622,1643,1643,1712,1712,1750,1750,1786,1807,1807,1828,1828,1844,1850,1850,1850,1850,1844,1844,1839,1833,1833,1828,1817,1817,1807,1807,1796,1786,1786,1775,1775,1765,1760,1760,1755,1750,1750,1736,1736,1731,1731,0,0,0,0,0,0,1545,1545,1545,1552,1560,1560,1568,1568,1576,1592,1592,1601,1609,1609,1622,1626,1626,1630,1635,1635,1639,1639,0,0,0,0,0,0,0,0,0,0,0,0,0,0,0,0,4577,4577,0,4611,4611,4577,4543,4543,4543,4510,4510,4510,4510,4477,4445,4445,4413,4413,4413,4413,4445,4445,4510,4543
0,0,0,0,0,0,0,0,0,0,0,0,0,0,0,0,0,0,0,0,0,0,0,0,0,0,0,0,0,0,0,0,0,0,0,0,0,0,0,0,0,0,0,0,0,0,0,0,0,0,0,0,0,0,0,0,0,0,0,0,0,0,0,0,0,0,0,0,0,0,0,0,0,0,0,0,0,0,0,0,0,0,0,0,0,0,2332,2332,2340,2340,2340,2340,2340,2358,2358,2358,2376,2376,2376,2395,2395,2395,2404,2404,2414,2414,2423,2433,2433,2442,2452,2452,2452,2452,2462,2471,2471,2471,2471,2471,2471,2471,2462,2462,2452,2452,2452,2442,2442,2442,2442,2442,2442,2462,2491,2491,2512,2532,2532,2543,2543,2564,2585,2585,2596,2607,2607,2618,2618,2618,2618,2618,2629,2629,2629,2640,2652,2652,2663,2663,2663,2675,2675,2675,2698,2698,2698,2698,2698,2698,2698,2686,2686,2675,2675,2663,2652,2652,2640,2629,2629,2618,2618,2607,2607,2607,2596,2596,2596,2585,2585,2585,2585,2596,2585,2585,2585,2585,2585,2585,2585,2596,2596,2607,2607,2607,2607,2607,2596,2596,2585,2585,2585,2574,2574,2574,2564,2564,2564,2564,2564,2564,2564,2564,2564,2564,2564,2564,2564,2564,2574,2564,2564,2564,2564,2574,2574,2574,2574,2574,2574,2574,2574,2574,2585,2574,2574,2574,2585,2585,2585,2585,2585,2585,2585,2585,2596,2596,2596,2596,2607,2607,2607,2607,2607,2618,2618,2629,2629,2629,2640,2640,2640,2652,2652,2652,2663,2663,2675,2675,2675,2675,2675,2675,2675,2675,2663,2663,2652,2652,2652,2652,2652,2640,2629,2629,2629,2629,2618,2618,2618,2618,2618,2618,2618,2618,2618,2618,2618,2618,2629,2640,2640,2640,2640,2652,2652,2652,2663,2686,2686,2686,2686,2710,2722,2722,2722,2734,2734,2734,2734,2734,2746,2734,2722,2722,2722,2722,2710,2698,2698,2698,2686,2686,2686,2686,2675,2675,2675,2675,2663,2663,2663,2663,2652,2652,2652,2652,2663,2663,2663,2663,2663,2663,2663,2663,2652,2652,2652,2652,2640,2640,2640,2640,2629,2629,2629,2629,2629,2629,2629,2629,2629,2629,2629,2629,2618,2607,2607,2607,2607,2607,2596,2596,2596,2596,2596,2585,2585,2596,2596,2607,2607,2618,2618,2618,2607,2607,2607,2618,2607,2607,2607,2596,2585,2585,2585,2585,2574,2564,2564,2564,2553,2553,2543,2543,2522,2512,2512,2512,2512,2501,2481,2481,2452,2433,2433,2404,2404,2376,2349,2349,2314,2314,2280,2247,2247,2223,2223,2199,2176,2176,2160,2160,2145,2131,2131,2116,2109,2109,2094,2094,2080,2073,2073,2053,2053,2039,2026,2026,2006,1987,1987,1968,1968,1949,1931,1931,1913,1913,1901,1878,1878,1855,1855,1844,1828,1828,1812,1796,1796,1786,1786,1770,1760,1760,1745,1745,1731,1721,1721,1707,1707,1697,1688,1688,1679,1670,1670,1661,1661,1652,1643,1643,1635,1635,1630,1626,1626,1617,1613,1613,1613,1613,1613,1613,1613,1609,1609,1626,1626,1648,0,1712,1712,1750,1750,1781,1807,1807,1823,1823,1844,1850,1850,1850,1850,1844,1844,1839,1833,1833,1823,1812,1812,1807,1807,1796,1781,1781,1770,1765,1765,1755,1755,1750,1745,1745,1731,1731,1726,1726,0,0,0,1601,1601,0,1556,1556,1556,1564,1568,1568,1580,1588,1588,1601,1601,1609,1617,1617,1630,1635,1635,1635,1639,1639,1639,1639,0,0,0,0,0,0,0,0,0,0,0,0,0,0,0,0,4577,4577,0,4611,4611,4577,4543,4543,4543,4510,4510,4510,4543,4510,4445,4445,4413,4413,4445,4445,4477,4477,4510,4543
0,0,0,0,0,0,0,0,0,0,0,0,0,0,0,0,0,0,0,0,0,0,0,0,0,0,0,0,0,0,0,0,0,0,0,0,0,0,0,0,0,0,0,0,0,0,0,0,0,0,0,0,0,0,0,0,0,0,0,0,0,0,0,0,0,0,0,0,0,0,0,0,0,0,0,0,0,0,0,0,0,0,0,0,0,0,2332,2332,2340,2340,2340,2349,2349,2358,2376,2376,2376,2376,2386,2395,2395,2395,2404,2404,2414,2414,2423,2433,2433,2442,2452,2452,2452,2452,2462,2471,2471,2471,2471,2462,2462,2462,2452,2452,2442,2442,2442,2433,2433,2433,2433,2433,2433,2452,2481,2481,2501,2512,2512,2532,2532,2553,2564,2564,2585,2607,2607,2607,2618,2618,2618,2618,2629,2640,2640,2652,2652,2652,2663,2663,2663,2663,2663,2675,2675,2675,2698,2698,2698,2698,2698,2686,2686,2675,2675,2663,2652,2652,2640,2629,2629,2618,2618,2607,2607,2607,2596,2596,2596,2585,2585,2585,2585,2596,2585,2585,2585,2585,2585,2585,2585,2596,2596,2596,2596,2596,2596,2585,2585,2585,2585,2574,2574,2564,2564,2564,2553,2553,2553,2553,2553,2553,2553,2553,2553,2553,2553,2553,2564,2553,2553,2553,2564,2564,2564,2564,2564,2564,2564,2564,2564,2574,2564,2564,2574,2574,2574,2574,2564,2564,2564,2574,2574,2574,2574,2574,2574,2585,2585,2585,2585,2585,2596,2596,2596,2618,2618,2629,2629,2629,2640,2640,2640,2652,2652,2652,2663,2663,2675,2675,2675,2675,2675,2675,2675,2675,2663,2663,2652,2652,2652,2652,2652,2640,2629,2629,2629,2629,2618,2618,2618,2607,2607,2607,2607,2607,2607,2607,2618,2618,2618,2618,2618,2629,2629,2629,2640,2640,2640,2652,2652,2663,2663,2663,2675,2675,2686,2686,2686,2686,2686,2698,2710,2698,2698,2698,2698,2698,2686,2686,2686,2686,2686,2686,2675,2675,2675,2663,2663,2663,2663,2663,2652,2652,2652,2652,2652,2652,2652,2652,2652,2652,2652,2652,2663,2663,2652,2652,2652,2652,2640,2640,2640,2640,2629,2629,2629,2629,2629,2629,2629,2629,2629,2629,2629,2629,2618,2607,2607,2607,2607,2607,2596,2596,2596,2596,2596,2585,2585,2596,2585,2585,2585,2585,2585,2585,2585,2585,2574,2574,2574,2574,2574,2574,2564,2564,2564,2564,2564,2564,2564,2553,2543,2543,2532,2532,2522,2512,2512,2512,2501,2501,2481,2481,2452,2433,2433,2404,2404,2386,2349,2349,2314,2314,2288,2247,2247,2223,2223,2199,2176,2176,2153,2138,2138,2123,2123,2116,2102,2102,2094,2094,2080,2073,2073,2053,2053,2039,2026,2026,2006,1987,1987,1968,1968,1949,1931,1931,1913,1913,1901,1878,1878,1855,1855,1844,1828,1828,1812,1796,1796,1786,1786,1770,1760,1760,1745,1745,1731,1721,1721,1707,1707,1697,1688,1688,1679,1670,1670,1661,1661,1652,1643,1643,1635,1635,1630,1626,1626,1617,1613,1613,1613,1613,1613,1613,1613,1609,1609,1626,1626,1648,1670,1670,1707,1750,1750,1775,1801,1801,1817,1817,1839,1850,1850,1850,1850,1844,1839,1839,1833,1833,1823,1812,1812,1807,1807,1796,1781,1781,1770,1765,1765,1755,1755,1750,1745,1745,1731,1731,1726,1726,0,0,0,1601,1601,0,1564,1564,1564,1576,1580,1580,1588,1597,1597,1609,1609,1617,1626,1626,1635,1639,1639,1639,1639,1639,1639,1639,0,0,0,0,0,0,0,0,0,0,0,0,0,0,0,0,4577,4577,4681,4611,4611,4577,4543,4543,4543,4510,4510,4510,4543,4510,4445,4445,4413,4413,4445,4445,4477,4477,4510,4543
0,0,0,0,0,0,0,0,0,0,0,0,0,0,0,0,0,0,0,0,0,0,0,0,0,0,0,0,0,0,0,0,0,0,0,0,0,0,0,0,0,0,0,0,0,0,0,0,0,0,0,0,0,0,0,0,0,0,0,0,0,0,0,0,0,0,0,0,0,0,0,0,0,0,0,0,2349,2349,0,0,0,0,0,0,2332,2332,2332,2332,2340,2340,2340,2349,2349,2358,2376,2376,2376,2376,2386,2395,2395,2414,2414,2414,2423,2423,2433,2442,2442,2442,2452,2452,2462,2462,2462,2471,2471,2462,2462,2462,2452,2452,2452,2452,2433,2433,2433,2433,2433,2433,2433,2433,2433,2452,2481,2481,2501,2512,2512,2532,2532,2553,2564,2564,2585,2607,2607,2607,2618,2618,2618,2618,2629,2640,2640,2652,2652,2652,2663,2663,2663,2663,2663,2675,2675,2675,2686,2686,2686,2686,2686,2663,2663,2663,2663,2640,2629,2629,2618,2607,2607,2607,2607,2596,2585,2585,2585,2585,2585,2574,2574,2574,2574,2574,2574,2574,2585,2585,2585,2585,2585,2585,2585,2585,2596,2596,2596,2585,2585,2585,2585,2574,2574,2564,2564,2553,2553,2553,2553,2553,2553,2543,2543,2543,2543,2543,2543,2553,2564,2553,2553,2553,2564,2564,2564,2564,2564,2564,2564,2564,2564,2574,2564,2564,2574,2574,2574,2574,2564,2564,2564,2574,2574,2574,2574,2574,2574,2585,2585,2585,2585,2585,2596,2596,2596,2607,2607,2607,2618,2618,2629,2629,2629,2640,2640,2652,2652,2652,2663,2663,2663,2663,2663,2663,2663,2663,2663,2663,2652,2652,2652,2640,2640,2629,2629,2629,2618,2618,2607,2607,2607,2607,2596,2596,2596,2596,2596,2596,2596,2596,2607,2607,2607,2607,2607,2607,2618,2618,2618,2629,2629,2629,2629,2640,2640,2640,2652,2686,2686,2686,2686,2698,2710,2698,2698,2698,2698,2698,2686,2686,2686,2686,2686,2686,2675,2675,2675,2663,2663,2663,2663,2663,2652,2652,2652,2652,2652,2652,2652,2652,2652,2652,2652,2652,2652,2652,2640,2640,2629,2629,2629,2629,2629,2618,2618,2618,2607,2607,2607,2607,2607,2607,2607,2607,2607,2607,2596,2596,2596,2585,2585,2585,2585,2585,2585,2574,2574,2564,2564,2574,2564,2564,2564,2564,2564,2553,2553,2564,2564,2564,2564,2564,2564,2564,2553,2553,2553,2553,2553,2553,2564,2553,2543,2543,2532,2532,2522,2512,2512,2512,2501,2501,2481,2481,2452,2433,2433,2404,2404,2386,2358,2358,2323,2323,2288,2247,2247,2223,2223,2199,2176,2176,2153,2138,2138,2123,2123,2116,2102,2102,2094,2094,2080,2066,2066,2053,2039,2039,2019,2019,2006,1987,1987,1961,1961,1943,1931,1931,1913,1913,1895,1878,1878,1855,1855,1844,1828,1828,1812,1796,1796,1786,1786,1770,1760,1760,1745,1745,1736,1721,1721,1707,1707,1697,1688,1688,1679,1670,1670,1661,1661,1652,1643,1643,1639,1639,1630,1626,1626,1622,1617,1617,1613,1613,1613,1613,1613,1613,1613,1626,1626,1648,1670,1670,1707,1750,1750,1775,1801,1801,1817,1817,1839,1850,1850,1850,1850,1844,1839,1839,1833,1833,1823,1817,1817,1807,1807,1796,1781,1781,1770,1760,1760,1750,1750,1745,1736,1736,1726,1726,1721,1721,0,0,0,1597,1597,0,1564,1564,1564,1576,1580,1580,1588,1597,1597,1609,1609,1617,1626,1626,1635,1639,1639,1643,1643,1643,1643,1643,0,0,0,0,0,0,0,0,0,0,0,0,0,0,0,0,4543,4543,4681,4611,4611,4577,4577,4577,4543,4510,4510,4510,4577,4543,4477,4477,4445,4445,4477,4477,4477,4477,4543,4543
0,0,0,0,0,0,0,0,0,0,0,0,0,0,0,0,0,0,0,0,0,0,0,0,0,0,0,0,0,0,0,0,0,0,0,0,0,0,0,0,0,0,0,0,0,0,0,0,0,0,0,0,0,0,0,0,0,0,0,0,0,0,0,0,0,0,0,0,0,0,0,0,0,2349,2349,2349,2349,2349,0,0,0,0,2332,2332,2323,2323,2323,2323,2340,2340,2349,2358,2358,2367,2376,2376,2386,2386,2395,2414,2414,2423,2423,2423,2433,2433,2442,2442,2442,2452,2462,2462,2462,2462,2462,2471,2471,2462,2462,2462,2452,2452,2452,2452,2433,2433,2433,2433,2433,2423,2423,2423,2423,2442,2462,2462,2481,2501,2501,2522,2522,2532,2543,2543,2564,2585,2585,2596,2607,2607,2607,2607,2618,2629,2629,2640,2640,2640,2663,2663,2652,2652,2652,2663,2663,2663,2675,2675,2675,2675,2663,2652,2652,2640,2640,2618,2618,2618,2607,2596,2596,2596,2596,2585,2574,2574,2574,2574,2574,2574,2574,2574,2574,2574,2574,2574,2585,2585,2585,2585,2585,2585,2585,2585,2596,2596,2596,2585,2585,2585,2585,2574,2574,2564,2564,2553,2553,2553,2553,2553,2553,2543,2543,2543,2543,2543,2543,2543,2553,2553,2553,2553,2553,2553,2553,2564,2564,2564,2564,2564,2564,2564,2564,2564,2574,2574,2574,2564,2564,2564,2564,2564,2564,2564,2564,2564,2564,2564,2564,2564,2574,2574,2574,2574,2585,2585,2585,2596,2607,2607,2618,2629,2629,2629,2629,2640,2652,2652,2652,2663,2663,2663,2663,2663,2663,2663,2663,2663,2663,2663,2652,2640,2640,2629,2629,2629,2618,2618,2607,2607,2607,2607,2596,2596,2596,2596,2596,2596,2596,2596,2607,2607,2607,2607,2607,2607,2618,2618,2618,2629,2629,2629,2629,2640,2640,2640,2652,2663,2663,2663,2663,2675,2675,2675,2675,2675,2675,2675,2675,2675,2675,2675,2675,2675,2675,2675,2663,2663,2663,2652,2652,2652,2652,2652,2640,2640,2640,2640,2652,2652,2652,2652,2652,2640,2640,2640,2629,2629,2629,2629,2629,2618,2618,2607,2607,2607,2596,2596,2596,2596,2596,2596,2596,2596,2596,2596,2585,2574,2574,2574,2585,2585,2585,2585,2585,2574,2574,2564,2564,2574,2564,2564,2564,2564,2564,2553,2553,2564,2564,2564,2564,2564,2564,2564,2553,2553,2553,2553,2553,2553,2564,2553,2543,2543,2532,2532,2522,2512,2512,2501,2491,2491,2471,2471,2452,2433,2433,2404,2404,2376,2349,2349,2323,2323,2288,2247,2247,2223,2223,2199,2168,2168,2153,2131,2131,2123,2123,2109,2102,2102,2087,2087,2080,2066,2066,2053,2039,2039,2019,2019,2000,1980,1980,1961,1961,1943,1931,1931,1913,1913,1895,1878,1878,1855,1855,1844,1828,1828,1812,1796,1796,1786,1786,1770,1760,1760,1745,1745,1736,1721,1721,1707,1707,1697,1688,1688,1679,1670,1670,1665,1665,1656,1643,1643,1639,1639,1630,1626,1626,1622,1617,1617,1613,1613,1613,1613,1613,1613,1613,1626,1626,1643,1665,1665,1702,1740,1740,1775,1801,1801,1817,1817,1839,1850,1850,1850,1850,1844,1839,1839,1833,1833,1823,1817,1817,1807,1807,1796,1781,1781,1765,1755,1755,1745,1745,1740,1736,1736,1721,1721,1716,1716,0,0,0,1592,1592,0,1568,1568,1568,1576,1584,1584,1592,1597,1597,1617,1622,1622,1630,1630,1639,1648,1648,1648,1652,1652,1652,1652,0,0,0,0,0,0,0,0,0,0,0,0,0,0,0,0,4543,4543,4681,4611,4611,4577,4577,4577,4543,4510,4510,4510,4577,4543,4477,4477,4445,4445,4477,4477,4477,4477,4543,4543
0,0,0,0,0,0,0,0,0,0,0,0,0,0,0,0,0,0,0,0,0,0,0,0,0,0,0,0,0,0,0,0,0,0,0,0,0,0,0,0,0,0,0,0,0,0,0,0,0,0,0,0,0,0,0,0,0,0,0,0,0,0,0,0,0,0,0,0,0,0,0,0,0,2349,2349,2349,2349,2349,0,0,0,0,2332,2332,2323,2323,2323,2323,2340,2340,2349,2349,2349,2367,2376,2376,2386,2386,2395,2414,2414,2423,2423,2423,2433,2433,2442,2442,2442,2452,2462,2462,2462,2462,2462,2471,2471,2462,2462,2452,2452,2452,2442,2442,2433,2433,2433,2423,2423,2414,2414,2423,2423,2433,2452,2452,2471,2481,2481,2501,2501,2512,2532,2532,2553,2564,2564,2574,2574,2574,2585,2585,2596,2629,2629,2640,2640,2640,2663,2663,2652,2652,2652,2663,2663,2663,2675,2675,2675,2675,2663,2652,2652,2640,2640,2618,2618,2618,2607,2596,2596,2596,2596,2585,2574,2574,2574,2574,2574,2574,2574,2574,2574,2574,2574,2574,2574,2574,2574,2574,2585,2585,2585,2585,2585,2585,2585,2585,2585,2585,2585,2574,2574,2564,2564,2553,2553,2553,2543,2543,2543,2543,2543,2532,2532,2532,2532,2532,2532,2532,2543,2543,2543,2543,2543,2553,2553,2553,2553,2553,2553,2564,2564,2564,2564,2564,2564,2564,2553,2553,2553,2553,2564,2564,2564,2564,2564,2564,2564,2564,2574,2574,2574,2574,2585,2585,2585,2596,2607,2607,2618,2629,2629,2629,2629,2640,2652,2652,2652,2663,2663,2663,2663,2663,2663,2663,2663,2663,2652,2652,2652,2640,2640,2629,2618,2618,2618,2618,2607,2596,2596,2596,2585,2585,2585,2585,2585,2585,2585,2585,2585,2585,2585,2596,2596,2596,2596,2596,2596,2596,2596,2607,2607,2618,2618,2618,2618,2618,2618,2629,2629,2640,2640,2640,2640,2663,2663,2663,2663,2663,2675,2675,2675,2675,2675,2675,2663,2663,2663,2652,2652,2652,2652,2652,2640,2640,2640,2640,2652,2652,2652,2652,2652,2640,2640,2640,2629,2629,2629,2629,2629,2618,2618,2607,2607,2607,2596,2596,2596,2596,2596,2596,2596,2596,2596,2596,2585,2574,2574,2574,2574,2574,2574,2574,2574,2564,2564,2553,2553,2553,2553,2553,2553,2543,2543,2543,2543,2543,2532,2532,2532,2543,2553,2553,2543,2543,2543,2543,2543,2543,2553,2543,2543,2543,2532,2532,2512,2501,2501,2501,2481,2481,2471,2471,2452,2423,2423,2404,2404,2376,2349,2349,2323,2323,2288,2247,2247,2223,2223,2199,2168,2168,2153,2131,2131,2123,2123,2109,2102,2102,2087,2087,2080,2066,2066,2053,2039,2039,2019,2019,2000,1980,1980,1961,1961,1943,1931,1931,1913,1913,1895,1878,1878,1855,1855,1844,1828,1828,1812,1796,1796,1786,1786,1770,1760,1760,1745,1745,1731,1721,1721,1707,1707,1697,1688,1688,1679,1670,1670,1665,1665,1656,1643,1643,1639,1639,1630,1626,1626,1617,1613,1613,1613,1613,1613,1613,1613,1613,1613,1622,1622,1639,1665,1665,1697,1731,1731,1770,1796,1796,1812,1833,1833,1844,1844,1850,1850,1844,1839,1839,1833,1833,1823,1817,1817,1807,1807,1796,1781,1781,1765,1755,1755,1745,1745,1740,1736,1736,1721,1721,1716,1716,0,0,0,1592,1592,0,1568,1568,1568,1576,1584,1584,1592,1597,1597,1613,1622,1622,1630,1630,1639,1648,1648,1648,1652,1652,1652,1652,0,0,0,0,0,0,0,0,0,0,0,0,0,0,0,0,4543,4543,4646,4611,4611,4577,4577,4577,4543,4543,4543,4543,4611,4577,4510,4510,4477,4477,4477,4477,4543,4543,4577,4611
0,0,0,0,0,0,0,0,0,0,0,0,0,0,0,0,0,0,0,0,0,0,0,0,0,0,0,0,0,0,0,0,0,0,0,0,0,0,0,0,0,0,0,0,0,0,0,0,0,0,0,0,0,0,0,0,0,0,0,0,0,0,0,0,0,0,0,0,0,0,0,2349,2349,2349,2340,2340,2340,2340,0,0,0,0,2323,2323,2314,2314,2314,2314,2332,2332,2340,2349,2349,2358,2376,2376,2376,2376,2386,2404,2404,2423,2423,2423,2433,2433,2433,2433,2433,2442,2452,2452,2452,2462,2462,2471,2471,2462,2462,2452,2452,2452,2442,2442,2433,2433,2433,2423,2423,2414,2414,2423,2423,2433,2452,2452,2471,2481,2481,2501,2501,2512,2532,2532,2553,2564,2564,2574,2574,2574,2585,2585,2596,2607,2607,2618,2629,2629,2652,2640,2640,2640,2640,2640,2652,2652,2652,2652,2652,2652,2652,2640,2640,2629,2629,2618,2607,2607,2596,2596,2596,2585,2585,2585,2574,2574,2574,2574,2574,2564,2564,2564,2564,2564,2564,2564,2574,2574,2574,2574,2585,2585,2585,2585,2585,2585,2585,2585,2585,2585,2585,2574,2574,2564,2564,2564,2553,2553,2543,2543,2543,2543,2543,2532,2532,2532,2532,2532,2532,2532,2543,2543,2543,2543,2543,2553,2553,2553,2553,2553,2553,2564,2564,2564,2564,2564,2564,2564,2553,2553,2553,2553,2553,2553,2553,2543,2543,2553,2553,2553,2553,2553,2564,2564,2574,2574,2574,2585,2596,2596,2607,2618,2618,2629,2629,2640,2640,2640,2652,2663,2663,2663,2663,2663,2663,2663,2663,2663,2652,2652,2652,2640,2640,2629,2618,2618,2607,2607,2596,2596,2596,2585,2585,2585,2585,2585,2585,2574,2574,2574,2574,2574,2574,2585,2585,2596,2596,2596,2596,2596,2596,2607,2607,2618,2618,2618,2618,2618,2618,2629,2629,2640,2640,2640,2640,2663,2663,2663,2663,2663,2675,2675,2675,2675,2675,2675,2663,2663,2663,2652,2652,2652,2652,2652,2640,2640,2640,2640,2640,2640,2640,2640,2640,2640,2640,2629,2629,2629,2618,2618,2618,2607,2607,2607,2596,2596,2596,2596,2596,2585,2585,2585,2585,2585,2585,2585,2585,2574,2574,2574,2574,2574,2564,2564,2564,2553,2553,2553,2543,2543,2543,2543,2532,2532,2532,2532,2532,2532,2522,2522,2522,2532,2532,2532,2543,2543,2543,2543,2543,2543,2553,2543,2543,2543,2532,2532,2512,2501,2501,2501,2481,2481,2471,2471,2452,2423,2423,2404,2404,2376,2349,2349,2323,2323,2288,2255,2255,2223,2223,2199,2168,2168,2145,2131,2131,2116,2116,2102,2094,2094,2087,2087,2073,2066,2066,2046,2032,2032,2019,2019,2000,1980,1980,1961,1961,1943,1931,1931,1913,1913,1895,1878,1878,1855,1844,1844,1828,1828,1812,1796,1796,1786,1786,1770,1760,1760,1745,1745,1731,1721,1721,1707,1697,1697,1688,1688,1679,1670,1670,1661,1661,1656,1643,1643,1639,1639,1630,1626,1626,1617,1613,1613,1613,1613,1613,1613,1613,1613,1613,1622,1622,1639,0,1697,1697,1731,1731,1770,1796,1796,1812,1833,1833,1844,1844,1850,1850,1844,1839,1839,1833,1833,1823,1817,1817,1801,1801,1791,1781,1781,1765,1750,1750,1745,1745,1740,1736,1736,1716,1716,1712,1712,0,0,0,1592,1592,0,1564,1564,1564,1576,1580,1580,1592,1597,1597,1613,1626,1626,1630,1630,1639,1652,1652,1656,1656,1656,1656,0,0,0,0,0,0,0,0,0,0,0,0,0,0,0,0,0,4543,4543,4646,4611,4611,4611,4611,4611,4577,4577,4577,4577,4611,4611,4577,4577,4543,4543,4543,4543,4577,4611,4611,4611
0,0,0,0,0,0,0,0,0,0,0,0,0,0,0,0,0,0,0,0,0,0,0,0,0,0,0,0,0,0,0,0,0,0,0,0,0,0,0,0,0,0,0,0,0,0,0,0,0,0,0,0,0,0,0,0,0,0,0,0,0,0,0,0,0,0,0,0,0,2349,2349,2340,2340,2340,2340,2340,2332,2332,0,0,0,0,2323,2323,2314,2314,2314,2314,2332,2332,2340,2349,2349,2358,2376,2376,2376,2376,2386,2404,2404,2423,2423,2423,2433,2433,2433,2433,2433,2442,2452,2452,2452,2462,2462,2462,2462,2452,2452,2452,2452,2452,2442,2442,2433,2423,2423,2423,2414,2414,2414,2414,2414,2423,2442,2442,2462,2471,2471,2481,2481,2491,2512,2512,2532,2543,2543,2553,2553,2553,2553,2553,2574,2585,2585,2596,2596,2596,2618,2618,2629,2629,2629,2640,2640,2640,2640,2652,2640,2640,2640,2629,2629,2629,2629,2607,2596,2596,2596,2596,2596,2585,2585,2585,2574,2574,2574,2574,2574,2564,2564,2564,2564,2564,2564,2564,2574,2574,2574,2574,2585,2585,2585,2585,2585,2585,2596,2596,2596,2596,2585,2574,2574,2564,2564,2564,2553,2553,2543,2543,2543,2543,2543,2532,2522,2522,2522,2522,2522,2522,2532,2532,2532,2532,2532,2543,2543,2543,2543,2543,2553,2553,2553,2553,2553,2553,2564,2553,2553,2553,2553,2543,2543,2543,2543,2543,2543,2543,2543,2543,2543,2543,2553,2553,2564,2564,2564,2574,2596,2596,2596,2607,2607,2629,2629,2629,2640,2640,2652,2663,2663,2663,2663,2663,2663,2663,2663,2663,2652,2652,2652,2640,2640,2629,2618,2618,2607,2607,2596,2596,2596,2585,2585,2585,2585,2585,2585,2574,2574,2574,2574,2574,2574,2585,2574,2574,2574,2574,2574,2574,2574,2585,2585,2585,2585,2585,2585,2596,2596,2596,2596,2607,2607,2607,2618,2640,2640,2652,2663,2663,2663,2663,2675,2675,2675,2675,2663,2663,2663,2652,2652,2652,2652,2652,2640,2640,2640,2640,2640,2640,2640,2640,2640,2640,2640,2629,2618,2618,2618,2618,2618,2607,2607,2596,2596,2596,2596,2596,2596,2585,2585,2585,2585,2585,2585,2585,2585,2574,2574,2574,2574,2574,2564,2564,2564,2553,2553,2553,2543,2543,2543,2543,2532,2532,2532,2532,2532,2532,2522,2522,2522,2532,2532,2532,2532,2532,2532,2532,2532,2543,2543,2543,2532,2532,2522,2522,2512,2501,2501,2491,2481,2481,2462,2462,2442,2423,2423,2404,2404,2376,2349,2349,2323,2323,2288,2255,2255,2223,2223,2191,2168,2168,2145,2131,2131,2109,2109,2102,2094,2094,2080,2080,2073,2060,2060,2046,2032,2032,2019,2019,2000,1980,1980,1961,1961,1943,1931,1931,1913,1913,1895,1878,1878,1855,1844,1844,1828,1828,1812,1796,1796,1786,1786,1770,1760,1760,1745,1745,1731,1721,1721,1707,1697,1697,1688,1688,1679,1670,1670,1661,1661,1656,1643,1643,1639,1639,1626,1626,1626,1617,1613,1613,1609,1609,1609,1609,1609,1609,1609,1622,1622,1635,0,1688,1688,1726,1726,1760,1786,1786,1807,1828,1828,1844,1844,1844,1850,1844,1839,1839,1833,1833,1823,1812,1812,1801,1801,1791,1781,1781,1760,1750,1750,1745,1745,1736,1731,1731,1716,1716,1712,1712,0,0,0,0,0,0,1564,1564,1564,1576,1580,1580,1592,1597,1597,1613,1626,1626,1630,1630,1639,1656,1656,1661,1670,1670,1670,0,0,0,0,0,0,0,0,0,0,0,0,0,0,0,0,0,4543,4543,4646,4611,4611,4611,4611,4611,4577,4577,4577,4577,4611,4611,4577,4577,4543,4543,4543,4543,4577,4611,4611,4611
0,0,0,0,0,0,0,0,0,0,0,0,0,0,0,0,0,0,0,0,0,0,0,0,0,0,0,0,0,0,0,0,0,0,0,0,0,0,0,0,0,0,0,0,0,0,0,0,0,0,0,0,0,0,0,0,0,0,0,0,0,0,0,0,0,0,0,0,0,2349,2349,2340,2340,2340,2340,2340,2332,2332,0,0,0,2314,2314,2314,2314,2314,2314,2314,2323,2323,2340,2349,2349,2358,2367,2367,2376,2376,2386,2395,2395,2414,2423,2423,2423,2423,2423,2423,2423,2433,2442,2442,2442,2452,2452,2462,2442,2442,2442,2442,2442,2442,2433,2433,2414,2414,2414,2404,2404,2404,2404,2404,2404,2414,2433,2433,2442,2452,2452,2471,2471,2491,2512,2512,2532,2543,2543,2553,2553,2553,2553,2553,2574,2585,2585,2596,2596,2596,2618,2618,2629,2629,2629,2640,2640,2640,2640,2652,2640,2640,2640,2629,2629,2629,2629,2607,2596,2596,2585,2585,2585,2574,2574,2574,2564,2564,2564,2564,2564,2564,2564,2564,2564,2564,2564,2564,2564,2564,2564,2564,2574,2585,2585,2585,2585,2585,2596,2596,2596,2596,2585,2574,2574,2574,2574,2564,2553,2553,2543,2543,2543,2532,2532,2532,2522,2522,2522,2522,2522,2522,2532,2532,2532,2532,2532,2532,2532,2532,2543,2543,2553,2553,2553,2553,2553,2553,2564,2553,2553,2553,2553,2543,2543,2543,2543,2543,2543,2543,2543,2543,2543,2543,2553,2553,2564,2564,2564,2574,2596,2596,2596,2607,2607,2629,2629,2629,2640,2640,2652,2652,2652,2663,2663,2663,2663,2663,2652,2652,2652,2652,2640,2629,2629,2618,2618,2618,2607,2607,2596,2585,2585,2574,2574,2574,2574,2574,2564,2564,2564,2564,2564,2564,2564,2564,2564,2564,2574,2574,2574,2574,2564,2564,2564,2574,2585,2585,2585,2585,2585,2596,2596,2596,2607,2607,2618,2629,2629,2652,2663,2663,2663,2663,2675,2686,2675,2675,2675,2675,2675,2652,2652,2652,2652,2652,2640,2640,2640,2640,2640,2640,2640,2640,2640,2640,2640,2629,2618,2618,2618,2618,2618,2607,2607,2596,2596,2596,2585,2585,2585,2585,2585,2585,2585,2585,2574,2574,2574,2574,2574,2574,2564,2564,2564,2564,2553,2543,2543,2543,2543,2543,2532,2532,2532,2522,2522,2522,2522,2522,2512,2512,2512,2522,2522,2522,2522,2522,2522,2522,2522,2532,2532,2532,2532,2532,2522,2522,2501,2491,2491,2481,2471,2471,2452,2452,2433,2414,2414,2395,2395,2376,2349,2349,2323,2323,2288,2255,2255,2223,2223,2191,2168,2168,2145,2131,2131,2109,2109,2102,2094,2094,2080,2080,2073,2060,2060,2046,2032,2032,2019,2019,2000,1980,1980,1961,1961,1943,1931,1931,1913,1913,1895,1878,1878,1855,1839,1839,1823,1823,1812,1796,1796,1786,1786,1770,1760,1760,1745,1745,1731,1721,1721,1707,1697,1697,1688,1688,1679,1670,1670,1661,1661,1652,1643,1643,1635,1626,1626,1622,1622,1613,1609,1609,1605,1605,1605,1605,1605,1605,1605,1613,1613,1626,1648,1648,1670,1712,1712,1760,1786,1786,1807,1828,1828,1844,1844,1844,1850,1844,1839,1839,1833,1833,1828,1812,1812,1807,1807,1791,1781,1781,1760,1750,1750,1745,1745,1736,1731,1731,1716,1716,1712,1712,0,0,0,0,0,0,1564,1564,1564,1572,1580,1580,1588,1597,1597,1613,1622,1622,1626,1626,1635,1652,1652,1661,1670,1670,1670,0,0,0,0,0,0,0,0,0,0,0,0,0,0,0,0,0,4543,4543,0,4646,4611,4611,4611,4611,4611,4611,4611,4611,4646,4646,4646,4646,4577,4577,4611,4611,4611,4646,4646,4646
0,0,0,0,0,0,0,0,0,0,0,0,0,0,0,0,0,0,0,0,0,0,0,0,0,0,0,0,0,0,0,0,0,0,0,0,0,0,0,0,0,0,0,0,0,0,0,0,0,0,0,0,0,0,0,0,0,0,0,0,0,0,0,0,0,0,0,0,0,2340,2340,2332,2332,2332,2332,2332,2323,2323,0,2305,2305,2305,2305,2305,2305,2305,2305,2305,2314,2314,2332,2340,2340,2349,2358,2358,2367,2367,2367,2386,2386,2395,2404,2404,2423,2423,2423,2423,2423,2433,2442,2442,2442,2452,2452,2462,2442,2442,2442,2442,2442,2442,2433,2433,2414,2414,2414,2404,2404,2404,2404,2404,2404,2414,2433,2433,2442,2452,2452,2471,2471,2481,2491,2491,2512,2522,2522,2532,2543,2543,2543,2543,2553,2564,2564,2585,2585,2585,2607,2607,2618,2618,2618,2629,2629,2629,2629,2629,2629,2629,2629,2618,2618,2607,2607,2607,2596,2596,2585,2574,2574,2564,2564,2564,2564,2564,2553,2553,2553,2553,2553,2553,2564,2564,2564,2564,2564,2564,2564,2564,2574,2574,2574,2585,2585,2585,2596,2596,2596,2596,2585,2585,2585,2574,2574,2564,2564,2564,2543,2543,2543,2532,2532,2532,2532,2532,2532,2532,2532,2532,2532,2532,2532,2532,2532,2532,2532,2532,2543,2543,2553,2553,2553,2553,2553,2553,2553,2553,2553,2553,2553,2543,2543,2543,2543,2532,2532,2532,2532,2543,2543,2543,2553,2553,2553,2564,2564,2574,2585,2585,2596,2607,2607,2629,2629,2629,2640,2640,2640,2652,2652,2652,2652,2652,2663,2652,2640,2640,2640,2640,2640,2629,2629,2618,2607,2607,2596,2596,2585,2574,2574,2574,2574,2574,2574,2574,2564,2564,2564,2564,2564,2564,2564,2564,2564,2564,2574,2574,2574,2574,2564,2564,2564,2574,2585,2585,2585,2585,2585,2596,2596,2596,2607,2607,2618,2629,2629,2652,2663,2663,2663,2663,2675,2686,2675,2675,2675,2675,2675,2652,2652,2652,2652,2652,2640,2640,2640,2640,2640,2640,2640,2640,2640,2640,2640,2629,2618,2618,2618,2618,2607,2596,2596,2596,2585,2585,2585,2585,2574,2574,2574,2574,2574,2574,2574,2574,2574,2574,2574,2564,2564,2564,2553,2553,2553,2543,2543,2532,2532,2532,2522,2522,2522,2522,2522,2522,2522,2522,2512,2512,2512,2522,2522,2522,2522,2522,2522,2522,2522,2532,2532,2532,2532,2532,2522,2522,2501,2491,2491,2481,2471,2471,2452,2452,2433,2414,2414,2395,2395,2376,2349,2349,2323,2323,2288,2255,2255,2223,2191,2191,2168,2168,2145,2123,2123,2109,2109,2094,2087,2087,2080,2080,2066,2060,2060,2046,2032,2032,2013,2013,2000,1980,1980,1961,1961,1943,1931,1931,1913,1913,1895,1878,1878,1855,1839,1839,1823,1823,1812,1796,1796,1781,1781,1770,1760,1760,1745,1745,1731,1721,1721,1707,1697,1697,1688,1688,1679,1670,1670,1661,1661,1652,1643,1643,1635,1626,1626,1622,1622,1613,1609,1609,1605,1605,1605,1605,1605,1605,1605,1613,1613,1626,1648,1648,1670,1712,1712,1745,1775,1775,1807,1828,1828,1839,1839,1844,1844,1844,1839,1839,1833,1833,1828,1812,1812,1807,1791,1791,1781,1781,1760,1750,1750,1740,1740,1731,1726,1726,1716,1716,1712,1712,0,0,0,0,0,0,0,0,1572,1572,1580,1580,1588,1597,1597,1613,1622,1622,1626,1626,1635,1652,1652,1670,1674,1674,0,0,0,0,0,0,0,0,0,0,0,0,0,0,0,0,0,0,0,0,0,4646,4646,4646,4646,4646,4646,4646,4646,4646,4716,4716,4681,4681,4646,4646,4646,4646,4646,4681,4646,4646
0,0,0,0,0,0,0,0,0,0,0,0,0,0,0,0,0,0,0,0,0,0,0,0,0,0,0,0,0,0,0,0,0,0,0,0,0,0,0,0,0,0,0,0,0,0,0,0,0,0,0,0,0,0,0,0,0,0,0,0,0,0,0,0,0,0,0,0,0,2340,2340,2332,2332,2332,2332,2332,2323,2323,0,2305,2305,2305,2305,2305,2305,2305,2305,2305,2314,2314,2332,2340,2340,2349,2358,2358,2367,2367,2367,2386,2386,2395,2404,2404,2404,2414,2414,2414,2414,2423,2423,2423,2433,2433,2433,2442,2433,2423,2423,2423,2414,2414,2414,2414,2404,2404,2404,2395,2386,2386,2386,2395,2395,2404,2423,2423,2433,2442,2442,2452,2452,2462,2481,2481,2491,2501,2501,2512,2512,2512,2522,2522,2532,2553,2553,2564,2574,2574,2585,2585,2596,2607,2607,2607,2618,2618,2629,2629,2629,2629,2629,2618,2618,2607,2607,2607,2596,2596,2585,2574,2574,2564,2564,2564,2564,2564,2553,2553,2553,2553,2553,2553,2564,2564,2564,2564,2574,2574,2574,2574,2574,2574,2574,2585,2585,2585,2596,2596,2585,2585,2585,2585,2585,2564,2564,2564,2553,2553,2543,2543,2543,2532,2532,2532,2522,2522,2522,2522,2522,2522,2522,2522,2522,2532,2532,2532,2532,2532,2543,2543,2543,2553,2553,2553,2553,2553,2553,2553,2553,2553,2543,2543,2543,2532,2532,2532,2532,2532,2532,2532,2532,2532,2543,2543,2543,2564,2564,2574,2585,2585,2607,2607,2607,2629,2629,2629,2640,2640,2640,2652,2652,2652,2652,2652,2663,2652,2640,2640,2640,2640,2640,2629,2629,2618,2607,2607,2596,2596,2585,2574,2574,2574,2564,2564,2564,2564,2564,2564,2564,2564,2564,2564,2564,2564,2564,2564,2564,2564,2564,2564,2564,2564,2564,2564,2574,2574,2574,2574,2574,2585,2585,2585,2596,2596,2596,2629,2629,2629,2652,2652,2652,2652,2663,2675,2675,2675,2675,2675,2675,2663,2663,2663,2652,2652,2652,2640,2640,2640,2640,2640,2640,2629,2629,2629,2629,2629,2618,2618,2618,2618,2607,2596,2596,2596,2585,2585,2585,2585,2574,2574,2574,2574,2574,2574,2574,2574,2574,2574,2574,2564,2564,2564,2553,2553,2553,2543,2543,2532,2532,2532,2522,2522,2522,2512,2512,2512,2512,2512,2512,2512,2512,2512,2522,2522,2512,2512,2512,2512,2512,2522,2532,2532,2522,2522,2522,2522,2501,2491,2491,2481,2471,2471,2452,2452,2423,2404,2404,2386,2386,2367,2349,2349,2314,2288,2288,2255,2255,2223,2191,2191,2168,2168,2145,2123,2123,2109,2109,2094,2080,2080,2073,2066,2066,2060,2060,2046,2032,2032,2013,2013,2000,1980,1980,1961,1961,1943,1931,1931,1913,1913,1895,1878,1878,1855,1839,1839,1823,1823,1812,1796,1796,1781,1781,1770,1760,1760,1745,1745,1731,1721,1721,1707,1697,1697,1688,1688,1679,1670,1670,1661,1661,1652,1643,1643,1630,1626,1626,1613,1613,1609,1605,1605,1601,1601,1601,1597,1597,1597,1601,1609,1609,1622,1639,1639,1665,1702,1702,1740,1770,1770,1801,1823,1823,1833,1833,1844,1844,1844,1839,1839,1833,1833,1828,1817,1817,1807,1791,1791,1781,1781,1760,1750,1750,1740,1740,1731,1726,1726,1716,1716,1712,1712,0,0,0,0,0,0,0,0,1572,1572,1580,1580,1588,1597,1597,1613,1622,1622,1626,1626,1635,1652,1652,1674,1679,1679,1697,1697,1697,0,0,0,0,0,0,0,0,0,0,0,0,0,0,0,0,0,0,4646,4646,4646,4646,4646,4646,4646,4646,4646,4716,4716,4681,4681,4646,4646,4646,4646,4646,4681,4681,4681
0,0,0,0,0,0,0,0,0,0,0,0,0,0,0,0,0,0,0,0,0,0,0,0,0,0,0,0,0,0,0,0,0,0,0,0,0,0,0,0,0,0,0,0,0,0,0,0,0,0,0,0,0,0,0,0,0,0,0,0,0,0,0,0,0,0,0,0,2340,2332,2332,2332,2332,2323,2314,2314,2314,2323,0,2297,2297,2297,2297,2297,2297,2297,2297,2297,2305,2305,2323,2332,2332,2340,2349,2349,2358,2358,2358,2376,2376,2386,2395,2395,2395,2395,2395,2404,2404,2404,2414,2414,2414,2414,2414,2423,2423,2404,2404,2404,2404,2404,2395,2395,2386,2386,2386,2386,2386,2386,2386,2395,2395,2404,2423,2423,2433,2442,2442,2452,2452,2462,2481,2481,2491,2501,2501,2512,2512,2512,2522,2522,2532,2553,2553,2564,2574,2574,2585,2585,2596,2607,2607,2607,2618,2618,2618,2618,2618,2618,2607,2607,2607,2596,2596,2596,2585,2585,2574,2574,2574,2564,2564,2564,2564,2564,2553,2553,2553,2553,2553,2553,2564,2564,2564,2564,2564,2564,2574,2574,2574,2574,2574,2585,2585,2585,2585,2585,2585,2585,2585,2585,2585,2564,2564,2564,2553,2553,2543,2532,2532,2532,2532,2532,2522,2522,2512,2512,2522,2522,2522,2522,2522,2532,2532,2532,2532,2532,2543,2543,2543,2553,2553,2553,2553,2553,2553,2553,2553,2553,2543,2543,2543,2532,2532,2532,2532,2532,2532,2532,2532,2532,2543,2543,2543,2553,2553,2574,2585,2585,2596,2607,2607,2618,2618,2629,2629,2629,2640,2652,2652,2652,2652,2652,2652,2652,2640,2640,2640,2640,2629,2618,2618,2607,2596,2596,2585,2585,2574,2564,2564,2553,2543,2543,2543,2543,2543,2543,2543,2543,2543,2543,2543,2543,2543,2543,2543,2543,2553,2553,2553,2553,2553,2553,2553,2553,2553,2574,2574,2585,2585,2585,2596,2596,2596,2629,2629,2629,2652,2652,2652,2652,2663,2675,2675,2675,2675,2675,2675,2663,2663,2663,2652,2652,2652,2640,2640,2640,2640,2640,2640,2629,2629,2629,2629,2629,2618,2618,2618,2607,2607,2596,2596,2596,2585,2585,2585,2585,2574,2574,2574,2574,2574,2574,2564,2564,2564,2564,2564,2553,2543,2543,2543,2543,2543,2532,2532,2522,2522,2522,2512,2512,2512,2512,2512,2501,2501,2501,2501,2501,2501,2512,2512,2512,2512,2512,2512,2512,2512,2512,2522,2522,2522,2522,2501,2501,2501,2491,2491,2481,2471,2471,2452,2452,2423,2404,2404,2386,2386,2367,2349,2349,2314,2288,2288,2255,2255,2223,2191,2191,2168,2168,2145,2123,2123,2109,2109,2094,2080,2080,2073,2066,2066,2053,2053,2046,2032,2032,2013,2013,2000,1980,1980,1961,1961,1943,1931,1931,1913,1895,1895,1878,1878,1855,1839,1839,1823,1823,1812,1796,1796,1781,1781,1770,1760,1760,1745,1745,1731,1721,1721,1707,1697,1697,1688,1688,1679,1670,1670,1661,1661,1648,1639,1639,1630,1622,1622,1613,1613,1605,1601,1601,1597,1597,1601,1597,1597,1597,1601,1609,1609,1622,1639,1639,1665,1702,1702,1740,1770,1770,1801,1823,1823,1833,1833,1844,1844,1844,1839,1839,1833,1833,1828,1817,1817,1807,1791,1791,1781,1781,1760,1750,1750,1740,1740,1731,1726,1726,1716,1716,1712,1712,0,0,0,0,0,0,1560,1560,1560,1568,1576,1576,1584,1592,1592,1605,1617,1617,1622,1622,1626,1652,1652,1670,1679,1679,1693,1693,1693,0,0,0,0,0,0,0,0,0,0,0,0,0,0,0,0,0,0,4646,4646,4646,4646,4646,4646,4681,4681,4681,4753,4753,4716,4716,4681,4681,4681,4681,4681,4716,4681,4681
0,0,0,0,0,0,0,0,0,0,0,0,0,0,0,0,0,0,0,0,0,0,0,0,0,0,0,0,0,0,0,0,0,0,0,0,0,0,0,0,0,0,0,0,0,0,0,0,0,0,0,0,0,0,0,0,0,0,0,0,0,0,0,0,0,0,0,0,2314,2314,2323,2305,2305,2305,2314,2314,2314,2288,2288,2288,2288,2288,2288,2288,2288,2288,2288,2288,2297,2297,2314,2332,2332,2340,2349,2349,2358,2358,2358,2376,2376,2386,2395,2395,2395,2395,2395,2404,2404,2404,2414,2414,2414,2414,2414,2423,2423,2404,2404,2404,2404,2404,2395,2395,2386,2386,2386,2386,2376,2376,2376,2376,2376,2395,2404,2404,2414,2423,2423,2433,2433,2452,2462,2462,2471,2481,2481,2481,2491,2491,2501,2501,2501,2522,2522,2532,2543,2543,2564,2564,2585,2585,2585,2596,2596,2596,2596,2596,2596,2596,2596,2585,2585,2585,2585,2574,2574,2574,2564,2564,2564,2553,2553,2553,2553,2553,2553,2553,2553,2553,2553,2553,2564,2564,2564,2564,2564,2564,2574,2574,2574,2574,2574,2585,2585,2585,2585,2585,2585,2585,2585,2585,2585,2564,2564,2564,2553,2553,2543,2532,2532,2532,2532,2532,2522,2522,2512,2512,2522,2522,2522,2522,2522,2522,2522,2522,2532,2532,2532,2532,2532,2543,2543,2543,2543,2543,2543,2543,2543,2543,2532,2532,2532,2532,2532,2532,2532,2532,2532,2532,2532,2532,2543,2543,2543,2553,2553,2564,2574,2574,2596,2607,2607,2607,2607,2629,2629,2629,2640,2652,2652,2652,2652,2652,2652,2652,2640,2640,2629,2629,2629,2618,2618,2607,2596,2596,2585,2585,2574,2564,2564,2553,2543,2543,2543,2543,2543,2543,2543,2543,2543,2543,2543,2543,2543,2543,2543,2543,2553,2553,2553,2553,2553,2553,2553,2553,2553,2564,2564,2574,2574,2574,2585,2585,2596,2618,2618,2629,2652,2652,2652,2652,2663,2663,2663,2675,2675,2675,2675,2663,2663,2663,2652,2640,2640,2640,2640,2640,2640,2640,2640,2629,2629,2629,2629,2618,2618,2618,2607,2607,2607,2596,2596,2585,2585,2585,2574,2574,2574,2564,2564,2564,2564,2564,2553,2553,2553,2553,2553,2553,2543,2543,2543,2543,2543,2532,2532,2522,2522,2522,2512,2512,2512,2512,2512,2501,2501,2501,2501,2501,2501,2512,2512,2512,2512,2512,2512,2512,2512,2512,2522,2522,2522,2522,2501,2501,2491,2481,2481,2471,2452,2452,2442,2442,2423,2404,2404,2376,2376,2358,2340,2340,2314,2288,2288,2255,2255,2223,2191,2191,2168,2168,2145,2123,2123,2109,2109,2087,2080,2080,2073,2066,2066,2053,2053,2039,2032,2032,2013,2013,2000,1980,1980,1961,1961,1943,1931,1931,1913,1895,1895,1878,1878,1855,1839,1839,1823,1823,1812,1796,1796,1786,1786,1770,1760,1760,1745,1745,1731,1721,1721,1707,1697,1697,1688,1688,1679,1670,1670,1661,1661,1648,1639,1639,1630,1622,1622,1613,1613,1605,1601,1601,1597,1597,1597,1597,1597,1597,1597,1605,1605,1613,1630,1630,1652,1693,1693,1731,1760,1760,1791,1817,1817,1828,1828,1839,1844,1844,1839,1839,1833,1833,1828,1817,1817,1807,1791,1791,1781,1781,1760,1750,1750,1740,1740,1736,1726,1726,1716,1716,1716,1716,0,0,0,0,0,0,1556,1556,1556,1564,1576,1576,1580,1588,1588,1605,1617,1617,1622,1622,1626,1652,1652,1670,0,0,1693,1693,1693,0,0,0,0,0,0,0,0,0,0,0,0,0,0,0,0,0,0,4681,4681,4681,4681,4681,4681,4681,4681,4681,4753,4753,4716,4716,4681,4681,4681,4681,4681,4716,4681,4681
0,0,0,0,0,0,0,0,0,0,0,0,0,0,0,0,0,0,0,0,0,0,0,0,0,0,0,0,0,0,0,0,0,0,0,0,0,0,0,0,0,0,0,0,0,0,0,0,0,0,0,0,0,0,0,0,0,0,0,0,0,0,0,0,0,0,0,0,2314,2314,2323,2305,2305,2305,0,0,0,2288,2288,2288,2288,2288,2288,2288,2288,2288,2288,2288,2297,2297,2314,2314,2314,2323,2332,2332,2340,2340,2340,2349,2349,2367,2367,2367,2376,2376,2376,2386,2386,2395,2395,2395,2395,2395,2395,2404,2395,2395,2395,2386,2386,2386,2376,2376,2367,2367,2367,2367,2358,2358,2358,2358,2358,2376,2386,2386,2395,2404,2404,2414,2414,2423,2433,2433,2442,2452,2452,2452,2452,2452,2462,2462,2471,2522,2522,2532,2543,2543,2564,2564,2585,2585,2585,2596,2596,2596,2596,2596,2596,2596,2596,2585,2585,2585,2585,2574,2574,2574,2564,2564,2564,2553,2553,2553,2553,2553,2553,2553,2553,2553,2553,2553,2553,2564,2564,2564,2564,2564,2564,2574,2574,2574,2574,2585,2585,2585,2585,2585,2585,2585,2585,2585,2585,2564,2564,2564,2553,2553,2543,2532,2532,2532,2532,2532,2522,2522,2512,2512,2512,2512,2512,2512,2512,2522,2512,2512,2522,2522,2522,2522,2522,2532,2532,2532,2532,2532,2532,2532,2532,2532,2532,2532,2532,2532,2532,2532,2532,2532,2532,2532,2532,2532,2543,2543,2543,2553,2553,2564,2574,2574,2596,2607,2607,2607,2607,2629,2640,2640,2640,2652,2652,2652,2652,2652,2652,2652,2640,2640,2629,2629,2629,2618,2618,2596,2585,2585,2574,2574,2564,2553,2553,2543,2543,2543,2532,2532,2522,2522,2522,2522,2522,2532,2532,2532,2532,2532,2532,2532,2532,2532,2532,2543,2543,2543,2553,2553,2553,2564,2564,2574,2574,2574,2585,2585,2596,2618,2618,2629,2652,2652,2652,2652,2663,2663,2663,2675,2675,2675,2675,2663,2663,2663,2652,2640,2640,2640,2640,2640,2640,2640,2640,2629,2629,2629,2629,2618,2618,2618,2607,2607,2607,2596,2596,2585,2585,2585,2574,2574,2574,2564,2564,2564,2564,2564,2553,2553,2553,2553,2553,2553,2543,2543,2543,2543,2532,2532,2532,2522,2512,2512,2501,2501,2501,2501,2501,2491,2491,2491,2491,2491,2491,2501,2501,2501,2501,2501,2501,2501,2501,2501,2512,2512,2512,2512,2491,2491,2481,2471,2471,2462,2442,2442,2423,2423,2404,2386,2386,2367,2367,2349,2332,2332,2314,2288,2288,2255,2255,2223,2191,2191,2168,2168,2145,2123,2123,2109,2109,2087,2080,2080,2073,2066,2066,2053,2053,2039,2032,2032,2013,2013,2000,1980,1980,1961,1961,1943,1931,1931,1913,1895,1895,1878,1878,1855,1839,1839,1823,1823,1812,1796,1796,1786,1786,1770,1760,1760,1745,1731,1731,1721,1721,1707,1697,1697,1688,1688,1679,1665,1665,1656,1656,1648,1635,1635,1626,1617,1617,1609,1609,1601,1597,1597,1592,1592,1592,1592,1592,1592,1592,1597,1597,1609,1622,1622,1643,1684,1684,1721,1755,1755,1791,1812,1812,1828,1828,1833,1839,1839,1839,1839,1833,1833,1828,1817,1817,1807,1796,1796,1781,1781,1765,1750,1750,1740,1740,1736,1731,1731,1726,1721,1721,1721,0,0,0,0,0,0,1556,1556,1556,1564,1576,1576,1580,1588,1588,1601,1613,1613,1617,1617,1622,1648,1648,1670,0,0,1693,1693,1693,1707,0,0,0,0,0,0,0,0,0,0,0,0,0,0,0,0,0,4681,4681,4681,4681,4681,4681,4681,4716,4716,4753,4753,4753,4753,4716,4716,4716,4716,4716,4716,4716,4716
0,0,0,0,0,0,0,0,0,0,0,0,0,0,0,0,0,0,0,0,0,0,0,0,0,0,0,0,0,0,0,0,0,0,0,0,0,0,0,0,0,0,0,0,0,0,0,0,0,0,0,0,0,0,0,0,0,0,0,0,0,0,0,0,0,0,0,0,2288,2288,2288,2288,2288,2288,0,0,2272,2272,2272,2272,2272,2272,2272,2280,2280,2280,2280,2280,2288,2288,2297,2305,2305,2314,2314,2314,2323,2323,2332,2332,2332,2340,2349,2349,2358,2367,2367,2367,2367,2376,2376,2376,2376,2376,2376,2386,2386,2395,2395,2386,2386,2386,2376,2376,2367,2367,2367,2367,2358,2358,2358,2358,2358,2376,2386,2386,2395,2404,2404,2414,2414,2423,2433,2433,2442,2452,2452,2452,2452,2452,2462,2462,2471,2491,2491,2512,2512,2512,2532,2532,2553,2564,2564,2574,2574,2574,2574,2574,2574,2574,2574,2574,2574,2574,2574,2564,2564,2564,2553,2553,2553,2553,2553,2553,2553,2553,2553,2553,2553,2553,2553,2553,2553,2553,2553,2564,2564,2564,2564,2574,2574,2585,2585,2585,2585,2585,2585,2585,2585,2585,2574,2564,2564,2553,2553,2564,2553,2553,2543,2543,2543,2532,2532,2532,2522,2522,2512,2512,2512,2512,2512,2512,2512,2522,2512,2512,2522,2522,2522,2522,2522,2532,2532,2532,2532,2532,2532,2532,2532,2532,2532,2522,2522,2522,2522,2522,2522,2522,2522,2522,2522,2522,2532,2543,2543,2543,2543,2564,2574,2574,2585,2596,2596,2607,2607,2629,2629,2629,2640,2640,2640,2652,2652,2652,2652,2640,2629,2629,2629,2618,2618,2607,2607,2596,2585,2585,2574,2574,2553,2543,2543,2543,2532,2532,2522,2522,2522,2522,2522,2522,2522,2522,2522,2522,2522,2532,2532,2532,2532,2532,2532,2543,2543,2543,2553,2553,2553,2564,2564,2574,2574,2585,2585,2585,2607,2618,2618,2629,2652,2652,2663,2663,2675,2686,2686,2675,2675,2675,2675,2663,2663,2663,2652,2640,2640,2640,2640,2640,2640,2640,2640,2629,2629,2629,2629,2618,2618,2618,2607,2607,2607,2596,2596,2585,2574,2574,2574,2574,2574,2564,2564,2564,2553,2553,2553,2553,2553,2543,2543,2543,2543,2543,2543,2532,2532,2522,2522,2522,2512,2512,2501,2501,2501,2491,2491,2491,2491,2491,2491,2491,2491,2491,2501,2491,2491,2501,2501,2501,2501,2501,2512,2512,2512,2512,2491,2491,2481,2471,2471,2462,2442,2442,2423,2423,2404,2386,2386,2367,2367,2349,2332,2332,2314,2288,2288,2255,2255,2231,2191,2191,2168,2168,2145,2123,2123,2102,2102,2087,2073,2073,2066,2060,2060,2053,2053,2039,2032,2032,2013,2013,2000,1980,1980,1961,1949,1943,1931,1931,1913,1895,1895,1878,1878,1855,1839,1839,1823,1823,1812,1796,1796,1786,1786,1770,1760,1760,1745,1731,1731,1721,1721,1707,1697,1697,1688,1688,1679,1665,1665,1656,1656,1648,1635,1635,1626,1617,1617,1609,1609,1601,1597,1597,1592,1592,1592,1592,1592,1592,1592,1597,1597,1609,1622,1622,1643,1684,1684,1721,1755,1755,1791,1812,1812,1828,1828,1833,1839,1839,1839,1839,1833,1833,1828,1817,1817,1807,1796,1796,1781,1781,1765,1750,1750,1740,1740,1736,1731,1731,1726,1721,1721,1721,0,0,0,0,0,0,1552,1552,1552,1564,1572,1572,1576,1584,1584,1597,1609,1609,1613,1613,1617,1643,1643,1665,0,0,1693,1693,1693,1707,0,0,0,0,0,0,0,0,0,0,0,0,0,0,0,0,0,4681,4681,4681,4681,4716,4716,4716,4716,4716,4753,4790,4753,4753,4753,4716,4716,4716,4716,4753,4716,4716
0,0,0,0,0,0,0,0,0,0,0,0,0,0,0,0,0,0,0,0,0,0,0,0,0,0,0,0,0,0,0,0,0,0,0,0,0,0,0,0,0,0,0,0,0,0,0,0,0,0,0,0,0,0,0,0,0,0,0,0,0,0,0,0,0,0,0,0,2288,2263,2263,2255,2255,2255,0,0,2255,2255,2272,2272,2272,2272,2272,2280,2280,2280,2280,2280,2288,2288,2297,2305,2305,2314,2314,2314,2323,2323,2332,2332,2332,2340,2349,2349,2358,2367,2367,2367,2367,2376,2376,2376,2376,2376,2376,2386,2376,2376,2376,2367,2367,2367,2358,2358,2349,2349,2349,2349,2340,2340,2340,2340,2340,2349,2358,2358,2367,2376,2376,2386,2386,2386,2404,2404,2404,2414,2404,2404,2404,2423,2423,2423,2433,2442,2442,2442,2452,2452,2471,2471,2491,2501,2501,2512,2532,2532,2532,2532,2543,2543,2543,2543,2543,2543,2543,2543,2543,2543,2543,2553,2553,2553,2553,2553,2553,2553,2553,2553,2553,2553,2553,2553,2553,2553,2553,2564,2564,2564,2564,2574,2574,2585,2585,2585,2585,2585,2585,2585,2585,2585,2574,2564,2564,2553,2553,2553,2543,2543,2543,2532,2532,2522,2522,2522,2512,2512,2501,2501,2512,2512,2512,2512,2512,2512,2512,2512,2512,2512,2512,2512,2512,2522,2522,2522,2522,2522,2522,2522,2522,2522,2522,2522,2522,2522,2522,2522,2512,2512,2512,2522,2522,2522,2532,2543,2543,2543,2543,2553,2564,2564,2574,2596,2596,2607,2618,2618,2629,2629,2640,2640,2640,2652,2652,2652,2652,2640,2629,2629,2629,2618,2618,2607,2607,2596,2585,2585,2574,2574,2553,2543,2543,2543,2532,2532,2522,2522,2522,2522,2522,2522,2522,2522,2522,2522,2522,2522,2532,2532,2532,2532,2532,2543,2543,2543,2553,2553,2553,2564,2564,2574,2574,2585,2585,2585,2607,2618,2618,2629,2652,2652,2663,2663,2675,2686,2686,2675,2675,2675,2675,2663,2663,2663,2652,2652,2652,2640,2640,2640,2640,2640,2640,2629,2629,2629,2629,2618,2618,2618,2607,2607,2607,2596,2596,2585,2574,2574,2574,2574,2574,2564,2564,2564,2553,2553,2553,2553,2553,2543,2543,2543,2543,2543,2543,2532,2532,2522,2522,2522,2512,2512,2501,2501,2501,2491,2491,2491,2491,2491,2491,2491,2491,2491,2501,2491,2491,2491,2491,2491,2491,2491,2491,2491,2491,2491,2471,2471,2462,2442,2442,2433,2423,2423,2404,2404,2386,2367,2367,2358,2358,2340,2332,2332,2305,2280,2280,2255,2255,2231,2199,2199,2168,2168,2145,2123,2123,2102,2102,2087,2073,2073,2066,2060,2060,2053,2053,2039,2032,2032,2013,2013,2000,1980,1980,1968,1949,1949,1931,1931,1919,1901,1901,1878,1878,1855,1839,1839,1828,1828,1812,1796,1796,1786,1786,1770,1760,1760,1745,1736,1736,1721,1721,1712,1697,1697,1688,1688,1679,1665,1665,1656,1656,1648,1635,1635,1622,1613,1613,1605,1605,1597,1588,1588,1588,1588,1584,1584,1588,1588,1588,1592,1592,1609,1622,1622,1639,1679,1679,1721,1755,1755,1791,1812,1812,1823,1828,1833,1839,1839,1839,1839,1833,1828,1828,1817,1817,1807,1796,1796,1781,1781,1765,1755,1755,1745,1745,1736,1731,1731,1726,1726,1726,1726,0,0,0,0,0,0,1552,1552,1552,1568,1572,1572,1576,1584,1584,1597,1609,1609,1613,1613,1617,1643,1643,1665,0,0,1693,1693,1693,1712,0,0,0,0,0,0,0,0,0,0,0,0,0,0,0,0,0,4681,4681,4681,4681,4716,4716,4716,4716,4716,4753,4790,4753,4753,4753,4716,4716,4716,4716,4753,4716,4681
0,0,0,0,0,0,0,0,0,0,0,0,0,0,0,0,0,0,0,0,0,0,0,0,0,0,0,0,0,0,0,0,0,0,0,0,0,0,0,0,0,0,0,0,0,0,0,0,0,0,0,0,0,0,0,0,0,0,0,0,0,0,0,0,0,0,0,0,0,2263,2263,2255,2255,2255,0,0,2255,2255,2255,2255,2255,2255,2263,2272,2272,2263,2263,2263,2280,2280,2280,2288,2288,2288,2297,2297,2297,2297,2305,2314,2314,2323,2332,2332,2340,2349,2349,2358,2358,2358,2367,2367,2367,2367,2367,2367,2358,2358,2358,2349,2340,2340,2332,2332,2332,2323,2323,2314,2314,2314,2305,2305,2305,2323,2323,2323,2332,2340,2340,2349,2349,2386,2404,2404,2404,2414,2404,2404,2404,2423,2423,2423,2433,2442,2442,2442,2452,2452,2471,2471,2491,2501,2501,2512,2532,2532,2532,2532,2543,2543,2543,2543,2543,2543,2543,2543,2543,2543,2543,2543,2543,2543,2543,2543,2543,2543,2543,2543,2543,2543,2543,2543,2543,2553,2553,2553,2553,2553,2553,2564,2564,2564,2564,2564,2564,2564,2553,2553,2553,2553,2543,2543,2543,2532,2532,2532,2522,2522,2522,2522,2522,2522,2512,2512,2512,2512,2501,2501,2501,2501,2501,2491,2491,2491,2491,2491,2491,2481,2481,2491,2491,2522,2522,2522,2522,2522,2522,2522,2522,2522,2522,2522,2522,2522,2522,2522,2512,2512,2512,2522,2522,2522,2532,2543,2543,2543,2543,2553,2564,2564,2574,2596,2596,2607,2618,2618,2629,2629,2640,2640,2640,2640,2640,2640,2640,2640,2629,2629,2618,2618,2618,2607,2607,2585,2574,2574,2564,2564,2553,2532,2532,2532,2522,2522,2522,2522,2522,2512,2512,2512,2512,2512,2512,2512,2512,2512,2522,2522,2522,2532,2532,2532,2532,2543,2543,2543,2553,2564,2564,2574,2585,2585,2585,2585,2607,2629,2629,2640,2652,2652,2663,2663,2675,2686,2686,2675,2675,2675,2675,2675,2663,2663,2652,2652,2652,2640,2640,2640,2640,2640,2640,2629,2629,2629,2629,2618,2618,2618,2607,2607,2607,2596,2596,2585,2574,2574,2574,2564,2564,2564,2564,2564,2553,2553,2553,2543,2543,2543,2543,2543,2543,2543,2532,2532,2532,2522,2522,2512,2501,2501,2501,2501,2501,2491,2491,2491,2491,2491,2491,2491,2491,2491,2491,2491,2491,2491,2481,2481,2491,2491,2491,2481,2481,2481,2471,2471,2452,2433,2433,2423,2414,2414,2404,2404,2376,2358,2358,2349,2349,2340,2332,2332,2305,2280,2280,2255,2255,2231,2199,2199,2168,2168,2145,2123,2123,2109,2109,2087,2073,2073,2066,2060,2060,2053,2053,2039,2032,2032,2019,2019,2000,1987,1987,1968,1949,1949,1931,1931,1919,1901,1901,1878,1878,1855,1839,1839,1828,1828,1812,1796,1796,1786,1786,1770,1760,1760,1745,1736,1736,1721,1721,1712,1697,1697,1688,1688,1679,1665,1665,1652,1652,1643,1635,1635,1622,1609,1609,1601,1601,1592,1584,1584,1584,1584,1584,1580,1580,1580,1588,1592,1592,1601,1617,1617,1635,1679,1679,1721,1755,1755,1791,1812,1812,1823,1833,1833,1844,1844,1839,1839,1839,1828,1828,1823,1823,1812,1801,1801,1791,1791,1770,1755,1755,1745,1745,1740,1736,1736,1731,1731,0,0,0,0,0,0,0,0,1552,1552,1552,1564,1572,1572,1576,1584,1584,1597,1609,1609,1613,1613,1617,1643,1643,1665,1674,1674,1693,1693,1693,1712,0,0,0,0,0,0,0,0,0,0,0,0,0,4681,4681,4681,0,4716,4716,4716,4716,4716,4716,4716,4753,4753,4753,4753,4753,4753,4753,4716,4716,4716,4716,4753,4681,4681
0,0,0,0,0,0,0,0,0,0,0,0,0,0,0,0,0,0,0,0,0,0,0,0,0,0,0,0,0,0,0,0,0,0,0,0,0,0,0,0,0,0,0,0,0,0,0,0,0,0,0,0,0,0,0,0,0,0,0,0,0,0,0,0,0,0,0,0,0,2263,2263,2255,2255,2255,2239,2239,2239,2239,2239,2239,2247,2247,2255,2255,2255,2255,2255,2255,2263,2263,2272,2272,2272,2272,2280,2280,2280,2280,2288,2297,2297,2305,2305,2305,2340,2349,2349,2358,2358,2358,2367,2367,2367,2367,2367,2367,2358,2358,2358,2349,2340,2340,2332,2332,2332,2323,2323,2314,2314,2314,2305,2305,2305,2323,2323,2323,2332,2340,2340,2349,2349,2349,2358,2358,2367,2367,2367,2367,2367,2376,2386,2386,2386,2404,2404,2414,2414,2414,2442,2442,2452,2462,2462,2471,2491,2491,2491,2491,2491,2501,2501,2501,2512,2512,2512,2512,2512,2512,2512,2512,2512,2512,2512,2512,2512,2522,2522,2522,2522,2522,2522,2522,2522,2522,2522,2532,2532,2522,2522,2522,2522,2522,2522,2522,2564,2564,2553,2553,2553,2553,2543,2543,2543,2532,2532,2532,2522,2522,2522,2522,2522,2522,2512,2512,2512,2512,2501,2501,2501,2501,2501,2491,2491,2491,2491,2491,2491,2481,2481,2491,2491,2491,2491,2501,2501,2501,2501,2501,2501,2501,2491,2491,2501,2501,2501,2501,2501,2501,2501,2512,2512,2512,2522,2522,2522,2532,2532,2553,2553,2553,2564,2585,2585,2596,2607,2607,2618,2618,2629,2629,2629,2629,2629,2629,2629,2629,2618,2618,2607,2607,2607,2596,2596,2574,2564,2564,2553,2553,2543,2532,2532,2522,2522,2522,2522,2522,2522,2512,2512,2512,2512,2512,2512,2512,2512,2512,2522,2522,2522,2532,2532,2532,2532,2543,2543,2543,2553,2564,2564,2574,2585,2585,2596,2596,2607,2629,2629,2640,2652,2652,2663,2663,2675,2675,2675,2675,2675,2675,2675,2675,2663,2663,2652,2652,2652,2640,2640,2640,2640,2640,2640,2629,2629,2629,2629,2607,2607,2607,2596,2596,2596,2585,2585,2585,2574,2574,2564,2553,2553,2553,2553,2553,2543,2543,2543,2532,2532,2532,2532,2522,2522,2522,2522,2522,2522,2512,2512,2501,2501,2501,2501,2501,2501,2491,2491,2491,2491,2501,2491,2491,2491,2491,2491,2491,2491,2491,2481,2481,2491,2491,2491,2481,2481,2481,2471,2471,2452,2433,2433,2423,2414,2414,2404,2404,2376,2358,2358,2349,2349,2332,2323,2323,2305,2280,2280,2255,2255,2231,2199,2199,2168,2168,2145,2123,2123,2109,2109,2087,2073,2073,2066,2060,2060,2053,2053,2039,2032,2032,2019,2019,2000,1987,1987,1968,1949,1949,1931,1931,1919,1901,1901,1878,1878,1861,1844,1844,1828,1828,1812,1801,1801,1786,1775,1770,1765,1765,1750,1736,1736,1726,1726,1712,1697,1697,1688,1688,1679,1665,1665,1652,1652,1643,1635,1635,1622,1609,1609,1601,1601,1592,1584,1584,1584,1584,1584,1580,1580,1580,1588,1592,1592,1601,1617,1617,1635,1679,1679,1716,1755,1755,1791,1812,1812,1823,1833,1833,1844,1844,1839,1839,1839,1828,1828,1823,1823,1812,1801,1801,1791,1791,1770,1755,1755,1745,1745,1740,1736,1736,1731,1731,0,0,0,0,0,0,0,0,1560,1560,1564,1564,1572,1572,1580,1584,1584,1597,1609,1609,1613,1617,1617,1643,1643,1661,1670,1670,1693,1693,1693,1712,0,0,0,0,0,0,0,0,0,0,0,0,0,4681,4681,4681,0,4716,4716,4716,4716,4716,4753,4753,4753,4753,4753,4753,4753,4753,4753,4716,4716,4716,4716,4753,4681,4646
0,0,0,0,0,0,0,0,0,0,0,0,0,0,0,0,0,0,0,0,0,0,0,0,0,0,0,0,0,0,0,0,0,0,0,0,0,0,0,0,0,0,0,0,0,0,0,0,0,0,0,0,0,0,0,0,0,0,0,0,0,0,0,0,0,0,0,0,0,0,0,0,0,0,2239,2239,2239,2239,2239,2239,2247,2247,2255,2255,2255,2255,2255,2255,2263,2263,2272,2272,2272,2272,2280,2280,2280,2280,2288,2297,2297,2305,2305,2305,2323,2332,2332,2340,2340,2340,2349,2349,2349,2349,2349,2349,2340,2332,2332,2323,2314,2314,2305,2305,2305,2297,2297,2297,2297,2297,2288,2288,2288,2297,2305,2305,2314,2314,2314,2314,2314,2323,2332,2332,2332,2340,2340,2340,2340,2349,2358,2358,2367,2376,2376,2386,2386,2395,2414,2414,2423,2433,2433,2442,2462,2462,2491,2491,2491,2501,2501,2501,2512,2512,2512,2512,2512,2512,2512,2512,2512,2512,2512,2512,2512,2522,2522,2522,2522,2522,2522,2522,2522,2522,2522,2532,2532,2522,2522,2522,2522,2522,2522,2522,2532,2522,2512,2512,2512,2512,2501,2501,2501,2501,2501,2481,2481,2481,2481,2491,2491,2481,2481,2491,2481,2481,2471,2462,2462,2452,2452,2452,2452,2452,2442,2442,2442,2442,2442,2442,2442,2452,2452,2452,2452,2452,2452,2452,2452,2462,2462,2462,2462,2462,2462,2462,2462,2462,2462,2471,2481,2481,2481,2491,2491,2532,2532,2553,2553,2553,2564,2585,2585,2596,2607,2607,2618,2618,2629,2629,2629,2629,2629,2629,2629,2629,2618,2618,2607,2607,2607,2596,2596,2574,2564,2564,2553,2553,2543,2532,2532,2522,2512,2512,2501,2501,2501,2501,2501,2501,2512,2512,2512,2512,2512,2512,2512,2512,2512,2522,2522,2522,2522,2532,2543,2543,2543,2553,2553,2564,2574,2574,2585,2585,2607,2618,2618,2640,2652,2652,2663,2663,2675,2675,2675,2675,2675,2675,2675,2675,2663,2663,2652,2652,2652,2640,2640,2640,2640,2640,2640,2629,2629,2629,2629,2607,2607,2607,2596,2596,2596,2585,2585,2585,2574,2574,2564,2553,2553,2553,2553,2553,2543,2543,2543,2532,2532,2532,2532,2522,2522,2522,2522,2522,2522,2512,2512,2501,2501,2501,2501,2491,2491,2491,2491,2491,2491,2491,2481,2481,2491,2481,2481,2481,2471,2471,2471,2471,2471,2471,2471,2471,2462,2462,2462,2462,2442,2423,2423,2414,2404,2404,2395,2395,2376,2358,2358,2340,2340,2323,2314,2314,2297,2280,2280,2255,2255,2231,2207,2207,2176,2176,2153,2131,2131,2109,2109,2087,2080,2080,2066,2060,2060,2053,2053,2039,2032,2032,2019,2019,2006,1987,1987,1968,1949,1949,1937,1937,1919,1901,1901,1878,1878,1861,1844,1844,1833,1833,1817,1801,1801,1791,1775,1775,1765,1765,1750,1736,1736,1726,1726,1712,1697,1697,1688,1688,1679,1665,1665,1652,1643,1643,1630,1630,1617,1609,1609,1597,1597,1588,1580,1580,1580,1580,1580,1576,1576,1576,1580,1588,1588,1597,1613,1613,1630,1674,1674,1716,1750,1750,1791,1812,1812,1823,1839,1839,1844,1844,1844,1844,1839,1833,1833,1828,1828,1817,1807,1807,1791,1791,1781,1760,1760,1750,1745,1745,1740,1740,1736,1736,0,0,0,0,0,0,0,0,1560,1560,1568,1568,1580,1580,1584,1588,1588,1601,1613,1613,1613,1622,1622,1648,1648,1661,1670,1670,1693,1693,1693,1712,0,0,0,0,0,0,0,0,0,0,0,0,0,4681,4681,4681,4716,4716,4716,4716,4716,4716,4716,4716,4716,4716,4753,4753,4753,4716,4716,4716,4716,4716,4716,4716,4681,4646
0,0,0,0,0,0,0,0,0,0,0,0,0,0,0,0,0,0,0,0,0,0,0,0,0,0,0,0,0,0,0,0,0,0,0,0,0,0,0,0,0,0,0,0,0,0,0,0,0,0,0,0,0,0,0,0,0,0,0,0,0,0,0,0,0,0,0,0,0,0,0,2223,2223,2223,2223,2223,2223,2223,2231,2231,2239,2239,2247,2247,2247,2247,2247,2247,2255,2255,2255,2263,2263,2263,2263,2263,2272,2272,2272,2288,2288,2288,2305,2305,2314,2323,2323,2340,2340,2340,2349,2349,2340,2340,2332,2332,2323,2314,2314,2305,2297,2297,2288,2288,2280,2272,2272,2272,2297,2297,2288,2288,2288,2297,2305,2305,2314,2314,2314,2314,2314,2323,2332,2332,2332,2340,2340,2340,2340,2349,2358,2358,2367,2376,2376,2386,2386,2395,2414,2414,2423,2433,2433,2442,2462,2462,2462,2462,2462,2471,2471,2471,2471,2471,2471,2471,2481,2481,2481,2481,2491,2491,2491,2501,2501,2501,2501,2501,2501,2501,2501,2501,2501,2501,2501,2501,2501,2501,2501,2501,2501,2501,2501,2501,2501,2501,2491,2491,2481,2481,2471,2471,2471,2462,2462,2462,2452,2452,2452,2462,2462,2462,2462,2462,2462,2462,2452,2452,2462,2452,2452,2452,2452,2452,2442,2442,2442,2442,2442,2442,2442,2452,2452,2452,2452,2452,2452,2452,2452,2462,2462,2462,2462,2462,2462,2462,2462,2462,2462,2471,2481,2481,2481,2491,2491,2501,2501,2512,2522,2522,2532,2553,2553,2564,2574,2574,2596,2596,2607,2607,2607,2618,2618,2607,2607,2607,2607,2607,2596,2596,2596,2585,2585,2564,2553,2553,2532,2532,2522,2512,2512,2501,2491,2491,2491,2491,2481,2481,2481,2481,2481,2481,2481,2481,2471,2471,2471,2471,2481,2481,2471,2471,2471,2481,2481,2481,2491,2553,2553,2564,2574,2574,2585,2585,2607,2618,2618,2640,2652,2652,2675,2675,2675,2675,2675,2686,2698,2686,2675,2675,2675,2675,2663,2663,2663,2652,2652,2652,2652,2652,2640,2629,2629,2629,2629,2607,2607,2607,2596,2585,2585,2585,2585,2574,2574,2574,2564,2553,2553,2553,2553,2543,2532,2532,2532,2522,2522,2512,2512,2512,2501,2501,2501,2501,2501,2491,2491,2491,2491,2491,2491,2481,2481,2481,2481,2481,2481,2481,2481,2481,2491,2481,2481,2471,2462,2462,2462,2462,2462,2462,2462,2452,2442,2442,2433,2433,2423,2423,2423,2414,2404,2404,2395,2395,2376,2358,2358,2340,2340,2323,2314,2314,2297,2280,2280,2255,2255,2239,2207,2207,2183,2183,2153,2131,2131,2109,2109,2094,2080,2080,2066,2060,2060,2053,2053,2039,2032,2032,2019,2006,2006,1987,1987,1968,1949,1949,1937,1937,1919,1901,1901,1878,1878,1861,1844,1844,1833,1833,1817,1801,1801,1791,1775,1775,1765,1765,1750,1740,1740,1726,1726,1712,1702,1702,1693,1693,1679,1665,1665,1652,1639,1639,1630,1630,1617,1605,1605,1592,1592,1584,1580,1580,1576,1576,1580,1576,1576,1576,1580,1588,1588,1597,1613,1613,1630,1674,1674,1716,1750,1750,1791,1812,1812,1828,1839,1839,1844,1844,1844,1844,1839,1833,1833,1828,1828,1817,1812,1812,1796,1796,1781,1760,1760,1750,1745,1745,1740,1740,1736,1736,0,0,0,0,0,0,0,0,1560,1560,1568,1568,1580,1580,1584,1588,1588,1601,1613,1613,1613,1622,1622,1643,1643,1661,1670,1670,1679,1688,1688,0,0,0,0,0,0,0,0,0,0,0,0,0,0,4716,4716,4716,4716,4716,4716,4753,4753,4716,4716,4716,4716,4716,4716,4753,4753,4716,4716,4716,4716,4716,4716,4716,4681,4646
0,0,0,0,0,0,0,0,0,0,0,0,0,0,0,0,0,0,0,0,0,0,0,0,0,0,0,0,0,0,0,0,0,0,0,0,0,0,0,0,0,0,0,0,0,0,0,0,0,0,0,0,0,0,0,0,0,0,0,0,0,0,0,0,0,0,0,0,0,0,0,2215,2215,2207,2207,2215,2215,2215,2223,2223,2231,2231,2231,2239,2239,2239,2239,2239,2239,2239,2255,2263,2263,2263,2263,2263,2272,2272,2272,2288,2288,2288,2305,2305,2314,2323,2323,2340,2340,2340,2349,2349,2340,2340,2332,2332,2323,2314,2314,2305,2297,2297,2288,2288,2280,2272,2272,2263,2263,2263,2263,2263,2263,2272,2280,2280,2280,2288,2288,2288,2288,2297,2305,2305,2305,2314,2314,2314,2314,2323,2340,2340,2340,2358,2358,2376,2376,2376,2395,2395,2395,2414,2414,2414,2433,2433,2433,2433,2433,2442,2442,2452,2452,2452,2452,2452,2452,2452,2452,2452,2471,2471,2471,2471,2481,2481,2481,2481,2481,2481,2481,2501,2501,2501,2501,2501,2501,2501,2501,2501,2501,2501,2501,2501,2501,2501,2491,2491,2481,2481,2471,2471,2471,2462,2462,2462,2452,2452,2452,2462,2462,2462,2462,2462,2462,2462,2452,2442,2442,2442,2442,2433,2423,2423,2423,2423,2423,2414,2414,2414,2414,2414,2414,2423,2423,2423,2423,2423,2423,2433,2433,2433,2433,2433,2433,2433,2433,2433,2433,2442,2442,2442,2452,2462,2462,2501,2501,2512,2522,2522,2532,2553,2553,2564,2574,2574,2596,2596,2607,2607,2607,2618,2618,2607,2607,2607,2607,2607,2596,2596,2596,2585,2585,2564,2553,2553,2532,2532,2522,2512,2512,2501,2491,2491,2491,2491,2481,2481,2481,2481,2481,2481,2481,2481,2471,2471,2471,2471,2481,2481,2471,2471,2471,2481,2481,2481,2491,2491,2491,2501,2501,2512,2512,2512,2543,2618,2618,2640,2652,2652,2675,2675,2675,2675,2675,2686,2698,2686,2675,2675,2675,2675,2663,2663,2663,2652,2652,2652,2652,2652,2640,2629,2629,2629,2629,2618,2607,2607,2596,2585,2585,2585,2585,2574,2574,2574,2564,2553,2553,2553,2553,2543,2532,2532,2532,2522,2522,2512,2512,2512,2501,2501,2501,2501,2501,2491,2491,2491,2491,2491,2491,2481,2481,2481,2481,2481,2481,2481,2481,2491,2491,2481,2481,2471,2462,2462,2462,2462,2462,2462,2462,2452,2442,2442,2433,2433,2423,2404,2404,2395,2386,2386,2376,2376,2358,2340,2340,2332,2323,2323,2314,2314,2297,2280,2280,2255,2255,2239,2207,2207,2183,2183,2153,2131,2131,2109,2094,2094,2080,2080,2066,2060,2060,2053,2053,2039,2032,2032,2019,2006,2006,1987,1987,1974,1955,1955,1937,1937,1919,1901,1901,1878,1878,1861,1844,1844,1833,1833,1823,1807,1807,1791,1781,1781,1770,1770,1755,1740,1740,1726,1726,1716,1702,1702,1693,1693,1679,1665,1665,1652,1639,1639,1630,1630,1617,1605,1605,1592,1592,1584,1580,1580,1576,1576,1576,1576,1576,1576,1580,1588,1588,1592,1609,1609,1630,1670,1670,1712,1750,1750,1791,1812,1812,1828,1839,1839,1844,1844,1844,1844,1839,1833,1833,1828,1828,1817,1812,1812,1796,1796,1786,1770,1770,1760,1750,1750,1745,1745,1740,1740,0,0,0,0,0,0,0,0,0,1584,1584,1584,1588,1588,1592,1601,1601,1609,1617,1617,1617,1626,1626,1643,1643,1661,1670,1670,1679,1688,1688,0,0,0,0,0,0,0,0,0,0,0,0,0,0,4753,4753,4753,4753,4753,4753,4753,4753,4753,4753,4716,4716,4716,4716,4716,4716,4716,4716,4681,4681,4681,4681,4681,4681,4611
0,0,0,0,0,0,0,0,0,0,0,0,0,0,0,0,0,0,0,0,0,0,0,0,0,0,0,0,0,0,0,0,0,0,0,0,0,0,0,0,0,0,0,0,0,0,0,0,0,0,0,0,0,0,0,0,0,0,0,0,0,0,0,0,0,0,0,0,0,0,0,2215,2215,2207,2207,2215,2215,2215,2223,2223,2231,2231,2231,2239,2239,2239,2239,2239,2239,2239,2255,2255,2255,2255,2255,2255,2255,2255,2263,2272,2272,2280,2297,2297,2297,2314,2314,2323,2323,2332,2332,2332,2332,2332,2323,2323,2305,2297,2297,2288,2288,2272,2272,2272,2263,2247,2247,2247,2247,2247,2247,2247,2247,2255,2255,2255,2255,2255,2255,2263,2263,2263,2272,2272,2280,2288,2288,2297,2297,2297,2314,2314,2314,2358,2358,2376,2376,2376,2395,2395,2395,2414,2414,2414,2433,2433,2433,2433,2433,2442,2442,2452,2452,2452,2452,2452,2452,2452,2452,2452,2471,2471,2471,2471,2481,2481,2481,2481,2481,2481,2481,2481,2481,2481,2481,2491,2491,2491,2481,2481,2481,2481,2471,2471,2471,2471,2471,2462,2452,2452,2433,2433,2433,2433,2433,2423,2423,2423,2423,2423,2423,2423,2423,2423,2433,2433,2423,2423,2423,2414,2414,2404,2395,2395,2395,2395,2395,2386,2386,2386,2386,2386,2386,2395,2395,2395,2395,2386,2386,2395,2395,2395,2395,2395,2433,2433,2433,2433,2433,2442,2442,2442,2452,2462,2462,0,0,0,0,0,0,0,0,0,0,0,0,0,0,0,0,0,0,0,0,0,0,0,2596,2596,2596,2585,2585,2564,2553,2553,2532,2532,2522,2512,2512,2501,2491,2491,2491,2491,2481,2481,2481,2481,2481,2481,2481,2481,2471,2471,2471,2471,2433,2433,2433,2471,2471,2481,2481,2481,2491,2491,2491,2501,2501,2512,2512,2512,2543,0,0,0,0,0,0,0,0,0,0,0,0,0,0,0,0,0,0,0,0,0,0,0,0,0,0,0,0,0,0,0,0,0,0,0,0,0,0,0,0,0,0,0,0,0,0,0,0,0,0,0,0,2512,2512,2512,2501,2501,2501,2501,2501,2491,2491,2491,2491,2491,2491,2481,2481,2481,2481,2481,2481,2481,2481,2491,2491,2452,2452,2442,2442,2442,2433,2433,2433,2433,2433,2433,2423,2423,2414,2414,2404,2395,2395,2386,2376,2376,2358,2358,2349,2332,2332,2323,2314,2314,2305,2305,2288,2280,2280,2255,2255,2239,2215,2215,2183,2183,2160,2138,2138,2116,2094,2094,2080,2080,2066,2060,2060,2053,2053,2039,2032,2032,2019,2006,2006,1993,1993,1974,1955,1955,1937,1937,1919,1901,1901,1878,1878,1861,1850,1850,1833,1833,1823,1807,1807,1791,1781,1781,1770,1770,1755,1740,1740,1726,1726,1716,1702,1702,1693,1693,1679,1665,1665,1652,1639,1639,1630,1630,1613,1605,1605,1592,1592,1584,1580,1580,1576,1572,1572,1572,1576,1576,1580,1584,1584,1592,1609,1609,1630,1670,1670,1712,1750,1750,1796,1812,1812,1833,1839,1839,1850,1850,1850,1850,1844,1839,1839,1833,1833,1823,1812,1812,1801,1801,1791,1775,1775,1765,1755,1755,1750,1750,1740,1740,0,0,0,0,0,0,0,0,0,1597,1597,1597,1601,1605,1601,1601,1601,1609,1617,1617,1617,1626,1626,1643,1643,1661,1665,1665,1674,1684,1684,0,0,0,0,0,0,0,0,0,0,0,0,0,0,4753,4753,4753,4753,4753,4753,4753,4753,4716,4716,4716,4716,4716,4716,4716,4681,4681,4681,4646,4646,4646,4681,4681,4646,4577
0,0,0,0,0,0,0,0,0,0,0,0,0,0,0,0,0,0,0,0,0,0,0,0,0,0,0,0,0,0,0,0,0,0,0,0,0,0,0,0,0,0,0,0,0,0,0,0,0,0,0,0,0,0,0,0,0,0,0,0,0,0,0,0,0,0,0,0,0,2207,2207,2199,2199,2199,2199,2207,2207,2207,2207,2207,2223,2223,2223,2231,2223,2223,2231,2231,2239,2239,2247,2247,2247,2247,2247,2247,2247,2247,2255,2263,2263,2272,2288,2288,2288,2305,2305,2314,2314,2323,2323,2323,2305,2305,2305,2305,2305,2297,2297,2288,2288,2272,2272,2272,2263,2247,2247,2247,2247,2247,2247,2247,2247,2255,2255,2255,2255,2255,2255,2263,2263,2263,2272,2272,2280,2288,2288,2297,2297,2297,2314,2314,2314,2332,2332,2349,2349,2358,2367,2367,2376,2386,2386,2386,2404,2404,2404,2404,2404,2414,2414,2423,2423,2423,2423,2423,2423,2423,2423,2423,2423,2423,2433,2433,2433,2442,2442,2442,2452,2452,2452,2452,2452,2452,2452,2462,2462,2462,2462,2462,2462,2462,2452,2452,2452,2442,2442,2442,2423,2423,2414,2414,2414,2414,2414,2414,2423,2423,2423,2423,2423,2423,2423,2423,2433,2433,2423,2423,2423,2414,2414,2404,2395,2395,2395,2395,2395,2386,2386,2386,2386,2386,2386,2395,2395,2395,2395,2386,2386,2395,2395,2395,2395,2395,2395,2395,2404,2404,2404,2404,2414,2414,2414,2433,2433,2452,2452,2462,2481,2481,2501,2512,2512,2532,2553,2553,2564,2564,2574,2585,2574,2574,2585,2585,2585,2585,2574,2574,2564,2564,2564,2543,2543,2512,2501,2501,2491,2491,2462,2452,2452,2442,2433,2433,2423,2423,2423,2414,2414,2414,2414,2414,2404,2404,2395,2395,0,0,2433,2433,2433,0,0,0,0,0,0,0,0,0,0,0,0,0,0,0,0,0,0,0,0,0,0,0,0,0,0,0,0,0,0,0,0,0,0,0,0,0,0,0,0,0,0,0,0,0,0,0,0,0,0,0,0,0,0,0,0,0,0,0,0,0,0,0,0,0,0,0,0,0,0,0,0,0,0,0,0,0,0,0,0,0,0,0,0,0,0,0,0,0,0,2452,2452,2442,2442,2442,2433,2433,2433,2433,2433,2433,2423,2423,2414,2414,2404,2395,2395,2386,2376,2376,2358,2358,2349,2332,2332,2323,2314,2314,2305,2305,2288,2280,2280,2263,2263,2239,2215,2215,2183,2183,2160,2138,2138,2116,2094,2094,2080,2080,2066,2060,2060,2053,2053,2039,2032,2032,2019,2006,2006,1993,1993,1974,1955,1955,1937,1937,1919,1901,1901,1878,1878,1861,1850,1850,1833,1828,1823,1812,1812,1796,1781,1781,1770,1770,1755,1740,1740,1731,1731,1716,1702,1702,1693,1679,1679,1665,1665,1652,1639,1639,1630,1630,1613,1605,1605,1592,1592,1584,1580,1580,1576,1572,1572,1572,1576,1576,1580,1584,1584,1592,1609,1609,1630,1670,1670,1712,1755,1755,1796,1817,1817,1833,1844,1844,1855,1855,1850,1850,1844,1839,1839,1833,1833,1823,1812,1812,1801,1791,1791,1775,1775,1765,1755,1755,1750,1750,1740,1740,0,0,0,0,0,0,0,0,0,1597,1597,1597,1601,1605,1605,1605,1605,1613,1617,1617,1626,1630,1630,1648,1656,1656,1665,1665,1670,1674,1674,0,0,0,0,0,0,0,0,0,0,0,0,0,0,0,0,4753,4753,4753,4753,4753,4753,4716,4716,4716,4716,4716,4716,4716,4681,4681,4681,4646,4646,4646,4681,4681,4646,4577
0,0,0,0,0,0,0,0,0,0,0,0,0,0,0,0,0,0,0,0,0,0,0,0,0,0,0,0,0,0,0,0,0,0,0,0,0,0,0,0,0,0,0,0,0,0,0,0,0,0,0,0,0,0,0,0,0,0,0,0,0,0,0,0,0,0,0,0,0,2207,2207,2191,2191,2191,2191,2191,2191,2199,2207,2207,2223,2223,2223,2231,2223,2223,2231,2231,2239,2239,2247,2247,2247,2247,2247,2247,2247,2247,2255,2263,2263,2272,2288,2288,2288,2305,2305,2314,2314,2323,2323,2323,2305,2305,2305,2305,2288,2272,2272,2263,2263,2255,2247,2247,2239,2231,2231,2231,2231,2231,2231,2231,2231,2231,2231,2231,2231,2231,2231,2231,2231,2239,2247,2247,2247,2263,2263,2263,2263,2272,2288,2288,2297,2314,2314,2332,2332,2332,2340,2340,2349,2367,2358,2358,2376,2376,2376,2376,2376,2386,2386,2386,2395,2395,2395,2395,2395,2395,2395,2423,2423,2423,2433,2433,2433,2442,2442,2442,2452,2452,2452,2452,2452,2452,2452,2462,2462,2462,2462,2462,2462,2462,2452,2452,2452,2442,2442,2442,2423,2423,2414,2414,2414,2414,2414,2414,2404,2404,2404,2404,2404,2404,2414,2414,2414,2414,2404,2404,2404,2395,2395,2386,2386,2395,2386,2376,2376,2376,2376,2376,2376,2376,2376,2376,2386,2376,2376,2376,2376,2376,2376,2386,2386,2386,2386,2386,2386,2386,2386,2395,2395,2395,2404,2414,2414,2423,2423,2442,2462,2462,2481,2491,2491,2512,2532,2532,2553,2553,2553,2585,2574,2574,2585,2585,2585,2585,2574,2574,2564,2564,2564,2543,2543,2512,2501,2501,2491,2491,2462,2452,2452,2442,2433,2433,2423,2423,2423,2414,2414,2414,2414,2414,2404,2404,2395,2386,2386,2386,2376,2376,2376,2376,2376,2376,2376,2376,2376,2386,2386,2395,2395,2395,2404,2404,2414,2423,2423,2442,2442,2462,2471,2471,2491,2512,2512,2532,2553,2553,2564,2564,2574,2574,2574,0,0,0,0,0,0,0,2585,2574,2574,2574,2574,2553,2553,2553,2553,2532,2532,2522,2522,2512,2501,2501,2491,2491,0,0,0,0,0,0,0,0,0,0,0,0,0,0,0,0,0,0,0,0,0,0,0,0,0,0,0,0,0,0,0,0,0,0,0,2442,2442,2442,2433,2433,2433,2433,2433,2433,2423,2423,2414,2414,2376,2376,2376,2367,2358,2358,2349,2349,2340,2323,2323,2314,2305,2305,2297,2297,2288,2272,2272,2263,2263,2239,2215,2215,2191,2168,2168,2138,2138,2116,2102,2102,2080,2080,2066,2060,2060,2053,2053,2039,2032,2032,2019,2006,2006,1993,1993,1974,1955,1955,1937,1937,1919,1901,1901,1884,1884,1867,1850,1850,1839,1828,1828,1812,1812,1796,1786,1786,1770,1770,1760,1745,1745,1731,1731,1716,1702,1702,1693,1679,1679,1665,1665,1652,1639,1639,1630,1630,1613,1605,1605,1592,1592,1584,1580,1580,1576,1572,1572,1572,1576,1576,1580,1584,1584,1592,1605,1605,1630,1670,1670,1712,1755,1755,1796,1817,1817,1833,1844,1844,1855,1855,1850,1850,1850,1839,1839,1833,1833,1828,1817,1817,1807,1791,1791,1781,1781,1770,1760,1760,1755,1755,1745,1745,0,0,0,0,0,0,0,0,0,1609,1609,1609,1609,1613,1613,1613,1613,1622,1626,1626,1630,1630,1630,1648,1656,1656,1665,1665,1670,1674,1674,0,0,0,0,0,0,0,0,0,0,0,0,0,0,0,0,4753,4753,4753,4753,4753,4753,4716,4716,4716,4716,4681,4681,4681,4681,4646,4646,4646,4646,4646,4646,4646,4611,4543
0,0,0,0,0,0,0,0,0,0,0,0,0,0,0,0,0,0,0,0,0,0,0,0,0,0,0,0,0,0,0,0,0,0,0,0,0,0,0,0,0,0,0,0,0,0,0,0,0,0,0,0,0,0,0,0,0,0,0,0,0,0,0,0,0,0,0,0,0,0,0,2191,2191,2191,2191,2191,2191,2199,2199,2199,2207,2207,2215,2215,2215,2215,2223,2223,2231,2231,2239,2239,2239,2239,2247,2247,2247,2247,2255,2255,2255,2263,2272,2272,2272,2288,2288,2297,2297,2297,2297,2297,2288,2288,2280,2280,2263,2263,2263,2247,2247,2231,2223,2223,2223,2215,2215,2215,2215,2215,2207,2207,2207,2207,2207,2207,2207,2207,2215,2215,2215,2239,2247,2247,2247,2263,2263,2263,2263,2272,2288,2288,2297,2314,2314,2332,2332,2332,2340,2340,2349,2367,2358,2358,2376,2376,2376,2376,2376,2386,2386,2386,2395,2395,2395,2395,2395,2395,2395,2395,2395,2395,2404,2404,2404,2404,2404,2404,2404,2395,2395,2395,2386,2386,2386,2404,2414,2404,2404,2404,2414,2423,2423,2423,2423,2414,2414,2414,2404,2404,2395,2395,2395,2386,2386,2386,2386,2386,2386,2386,2386,2386,2386,2386,2395,2395,2386,2386,2386,2376,2376,2376,2376,2376,2367,2358,2358,2358,2358,2358,2367,2376,2376,2376,2386,2376,2376,2376,2376,2376,2376,2386,2386,2386,2386,2386,2386,2386,2386,2395,2395,2395,2404,2414,2414,2423,2423,2442,2462,2462,2481,2491,2491,2512,2532,2532,2553,2553,2553,2553,2553,2553,2553,2553,2564,2564,2564,2564,2543,2522,2522,2512,2512,2491,2462,2462,2452,2452,2433,2423,2423,2414,2404,2404,2395,2395,2386,2386,2386,2376,2367,2367,2367,2367,2349,2349,2349,2340,2340,2332,2332,2332,2332,2332,2332,2332,2340,2340,2340,2349,2349,2349,2358,2358,2367,2386,2386,2442,2442,2462,2471,2471,2491,2512,2512,2532,2553,2553,2564,2564,2574,2574,2574,0,0,0,0,0,0,0,2585,2574,2574,2574,2574,2553,2553,2553,2553,2532,2532,2522,2522,2512,2501,2501,2491,2481,2481,2481,2481,2481,2471,2471,2462,2452,2452,2452,2452,2442,2433,2433,2433,2433,2414,2414,2414,2404,2395,2395,2386,2386,2386,2395,2395,2395,2395,2395,2395,2395,2395,2386,2386,2386,2386,2386,2376,2376,2376,2376,2386,2386,2376,2376,2376,2376,2367,2367,2367,2358,2349,2349,2340,2340,2332,2323,2323,2314,2305,2305,2297,2297,2288,2272,2272,2263,2263,2239,2215,2215,2191,2168,2168,2145,2145,2123,2102,2102,2087,2087,2066,2060,2060,2053,2053,2039,2032,2032,2019,2006,2006,1993,1993,1974,1955,1955,1937,1937,1919,1901,1901,1884,1884,1867,1850,1850,1839,1828,1828,1812,1812,1796,1786,1786,1770,1770,1760,1745,1745,1731,1731,1716,1702,1702,1693,1679,1679,1665,1665,1652,1639,1639,1630,1630,1613,1605,1605,1592,1592,1584,1580,1580,1576,1576,1576,1576,1576,1576,1580,1584,1584,1597,1605,1605,1630,1665,1665,1707,1755,1755,1796,1817,1817,1833,1844,1844,1855,1855,1850,1850,1850,1839,1839,1833,1833,1828,1817,1817,1807,1791,1791,1781,1781,1775,1760,1760,1755,1755,1745,1745,0,0,0,0,0,0,0,0,0,1609,1609,1609,1609,1613,1613,1613,1613,1622,1626,1626,1630,1630,1630,1648,1656,1656,1661,1661,1665,1674,1674,0,0,0,0,0,0,0,0,0,0,0,0,0,0,0,0,4790,4790,4790,4753,4753,4753,4716,4716,4716,4716,4681,4646,4646,4646,4611,4611,4611,4611,4611,4611,4611,4577,4543
0,0,0,0,0,0,0,0,0,0,0,0,0,0,0,0,0,0,0,0,0,0,0,0,0,0,0,0,0,0,0,0,0,0,0,0,0,0,0,0,0,0,0,0,0,0,0,0,0,0,0,0,0,0,0,0,0,0,0,0,0,0,0,0,0,0,0,0,0,0,0,2183,2183,2183,2183,2191,2191,2191,2191,2191,2199,2199,2207,2207,2207,2207,2215,2215,2223,2223,2231,2231,2231,2231,2239,2239,2239,2239,2247,2247,2247,2255,2263,2263,2272,2288,2288,2297,2297,2297,2297,2297,2288,2288,2280,2280,2263,2263,2263,2247,2247,2231,2223,2223,2223,2215,2215,2215,2215,2215,2207,2207,2207,2207,2207,2207,2207,2207,2215,2215,2215,2215,2223,2223,2231,2239,2239,2239,2239,2255,2263,2263,2280,2288,2288,2305,2305,2314,2323,2323,2332,2340,2340,2349,2349,2349,2349,2349,2358,2367,2367,2367,2367,2367,2367,2367,2367,2367,2367,2367,2367,2367,2367,2367,2367,2367,2358,2358,2358,2358,2358,2349,2349,2349,2349,2349,2358,2358,2367,2367,2376,2376,2376,2395,2423,2414,2414,2414,2404,2404,2395,2395,2395,2386,2386,2386,2386,2386,2386,2386,2386,2386,2386,2386,2395,2395,2386,2386,2386,2376,2376,2376,2376,2376,2367,2358,2358,2358,2358,2358,2367,2367,2367,2367,2367,2367,2367,2367,2367,2367,2367,2376,2376,2376,2376,2376,2376,2386,2386,2386,2386,2386,2395,2395,2395,2414,2414,2423,2442,2442,2471,2491,2491,2512,2532,2532,2543,2543,2543,2543,2543,2543,2543,2543,2543,2543,2532,2532,2532,2512,2512,2481,2481,2471,2452,2452,2433,2433,2423,2404,2404,2395,2395,2404,2395,2395,2386,2386,2386,2376,2367,2367,2367,2367,2349,2349,2349,2340,2340,2332,2332,2332,2332,2332,2332,2332,2340,2340,2340,2349,2349,2349,2358,2358,2367,2386,2386,0,0,2471,2471,2471,2491,2512,2512,2532,2553,2553,2564,2564,2574,2574,2574,0,0,0,0,0,0,0,2585,2574,2574,2574,2574,2553,2553,2553,2553,2532,2532,2522,2522,2512,2501,2501,2491,2481,2481,2481,2481,2481,2471,2471,2462,2452,2452,2452,2452,2423,2414,2414,2404,2404,2395,2386,2386,2376,2358,2358,2358,2386,2386,2395,2395,2395,2395,2395,2395,2395,2395,2386,2386,2386,2386,2386,2376,2376,2376,2376,2386,2386,2376,2376,2376,2376,2367,2367,2367,2358,2349,2349,2340,2340,2332,2323,2323,2314,2305,2305,2288,2288,2280,2272,2272,2263,2263,2239,2215,2215,2191,2168,2168,2145,2145,2123,2102,2102,2087,2087,2066,2060,2060,2053,2053,2039,2032,2032,2019,2006,2006,1987,1987,1974,1955,1955,1937,1937,1919,1901,1901,1884,1884,1867,1850,1850,1839,1828,1828,1812,1812,1796,1786,1786,1775,1775,1760,1745,1745,1731,1731,1721,1707,1707,1693,1679,1679,1665,1665,1652,1643,1643,1630,1630,1617,1605,1605,1597,1597,1584,1580,1580,1576,1576,1576,1576,1576,1576,1580,1584,1584,1597,1605,1605,1630,1665,1665,1707,1750,1750,1791,1812,1812,1833,1844,1844,1855,1855,1850,1850,1850,1839,1839,1833,1833,1823,1812,1812,1801,1791,1791,1775,1775,1765,1755,1755,1750,1750,1740,1736,1736,1736,0,0,0,0,0,0,0,1622,1622,1617,1617,1617,1617,1622,1622,1626,1635,1635,1635,1639,1639,1652,1656,1656,1661,1661,1665,1674,1674,0,0,0,0,0,0,0,0,0,0,0,0,0,0,0,0,4827,4827,4790,4753,4753,4753,4716,4716,4716,4716,4681,4646,4646,4646,4611,4611,4611,4611,4611,4611,4611,4577,4543
0,0,0,0,0,0,0,0,0,0,0,0,0,0,0,0,0,0,0,0,0,0,0,0,0,0,0,0,0,0,0,0,0,0,0,0,0,0,0,0,0,0,0,0,0,0,0,0,0,0,0,0,0,0,0,0,0,0,0,0,0,0,0,0,0,0,0,0,0,0,0,2183,2183,2183,2183,2191,2191,2191,2191,2191,2199,2199,2207,2207,2207,2207,2215,2215,2223,2223,2231,2231,2231,2231,2239,2239,2239,2239,2247,2247,2247,2255,2263,2255,2255,2263,2263,2272,2272,2272,2280,2272,2263,2263,2247,2247,2239,2231,2231,2223,2223,2215,2215,2215,2207,2199,2199,2199,2199,2199,2199,2199,2199,2199,2199,2199,2199,2199,2199,2199,2199,2199,2207,2207,2215,2215,2215,2223,2223,2231,2255,2255,2263,2280,2280,2288,2288,2305,2305,2305,2314,2323,2323,2332,2340,2340,2349,2349,2358,2367,2367,2367,2367,2367,2367,2367,2367,2367,2367,2367,2367,2367,2367,2367,2367,2367,2358,2358,2358,2358,2358,2349,2349,2349,2349,2349,2358,2358,2367,2367,2376,2376,2376,2395,2395,2395,2395,2395,2386,2386,2376,2376,2376,2367,2367,2367,2367,2367,2367,2367,2367,2367,2367,2367,2376,2376,2367,2367,2367,2358,2358,2358,2358,2358,2358,2358,2358,2358,2358,2358,2358,2358,2358,2367,2367,2367,2367,2367,2367,2367,2367,2376,2376,2376,2376,2376,2376,2376,2376,2376,2376,2376,2376,2386,2386,2404,2404,2423,2442,2442,2471,2491,2491,2512,2532,2532,2543,2543,2543,2543,2543,2543,2543,2543,2543,2543,2532,2532,2532,2512,2512,2481,2481,2471,2452,2452,2433,2433,2423,2404,2404,2395,2395,2395,2386,2386,2386,2376,2376,2367,2358,2358,2349,2349,2340,2332,2332,2314,2314,2305,2305,2305,2297,2297,2297,2297,2297,2297,2305,2305,2305,2314,2323,2323,2332,2340,2340,2358,2358,2367,2386,2386,2414,2442,2442,2462,2481,2481,2491,2491,2512,2522,2522,2532,2543,2543,2543,2543,2543,2543,2543,2532,2532,2532,2532,2532,0,0,0,0,0,0,0,0,0,0,0,0,0,0,0,0,0,0,0,0,0,0,0,2423,2414,2414,2404,2404,2395,2386,2386,2376,2358,2358,2358,2386,2386,2395,2395,2395,2395,2395,2395,2395,2395,2386,2386,2386,2386,2386,2376,2376,2358,2358,2367,2358,2358,2358,2358,2358,2349,2340,2340,2340,2340,2340,2332,2332,2323,2314,2314,2305,2297,2297,2288,2288,2280,2263,2263,2263,2263,2239,2223,2223,2199,2176,2176,2145,2145,2131,2109,2109,2087,2087,2066,2060,2060,2053,2053,2039,2032,2032,2019,2006,2006,1987,1987,1974,1955,1955,1937,1937,1919,1901,1901,1884,1884,1867,1850,1850,1839,1828,1828,1812,1812,1801,1786,1786,1775,1775,1760,1745,1745,1731,1731,1721,1707,1707,1693,1679,1679,1665,1665,1652,1643,1643,1630,1630,1617,1605,1605,1597,1597,1584,1580,1580,1576,1576,1576,1576,1576,1576,1580,1584,1584,1597,1605,1605,1630,1665,1665,1702,1745,1745,1791,1812,1812,1828,1839,1839,1850,1850,1850,1850,1844,1839,1839,1828,1828,1823,1807,1807,1796,1781,1781,1775,1775,1765,1755,1755,1750,1750,1740,1736,1736,1736,0,0,0,0,0,0,0,1635,1635,1630,1630,1630,1630,1635,1635,1635,1639,1639,1643,1648,1648,1656,1661,1661,1665,1665,1670,1674,1674,0,0,0,0,0,0,0,0,0,0,0,0,0,0,0,0,4827,4790,4790,4753,4753,4753,4716,4716,4716,4716,4681,4646,4646,4646,4611,4611,4611,4611,4611,4611,4611,4577,4510
0,0,0,0,0,0,0,0,0,0,0,0,0,0,0,0,0,0,0,0,0,0,0,0,0,0,0,0,0,0,0,0,0,0,0,0,0,0,0,0,0,0,0,0,0,0,0,0,0,0,0,0,0,0,0,0,0,0,0,0,0,0,0,0,0,0,0,0,0,2176,2176,2176,2176,2176,2176,2176,2176,2176,2183,2183,2191,2191,2191,2191,2191,2199,2207,2207,2223,2223,2223,2223,2223,2223,2223,2223,2223,2223,2231,2247,2247,2247,2247,2239,2239,2247,2247,2255,2255,2255,2255,2255,2239,2239,2223,2223,2215,2215,2215,2207,2207,2199,2191,2191,2191,2183,2183,2183,2183,2183,2199,2199,2199,2199,2199,2199,2199,2199,2199,2199,2199,2199,2207,2207,2215,2215,2215,2223,2223,2231,2255,2255,2263,2280,2280,2288,2288,2305,2305,2305,2314,2323,2323,2332,2340,2340,2340,2340,2340,2340,2340,2340,2340,2340,2340,2340,2340,2340,2340,2340,2340,2340,2340,2332,2323,2323,2323,2305,2305,2305,2305,2305,2305,2305,2305,2314,2323,2323,2332,2332,2340,2349,2349,2358,2367,2367,2367,2367,2367,2367,2358,2358,2358,2358,2358,2349,2349,2349,2349,2349,2349,2349,2349,2349,2349,2349,2349,2349,2367,2358,2358,2358,2358,2358,2358,2358,2358,2358,2358,2358,2358,2358,2358,2367,2367,2367,2367,2367,2367,2367,2367,2376,2376,2376,2376,2376,2376,2376,2376,2376,2376,2376,2376,2386,2386,2404,2404,2423,2442,2442,2471,2481,2481,2501,2522,2522,2543,2543,2543,2543,2543,2532,2532,2522,2522,2522,2512,2512,2491,2481,2481,2452,2452,2442,2433,2433,2414,2414,2404,2395,2395,2386,2386,2386,2376,2376,2376,2367,2367,2367,2349,2349,2332,2332,2323,2314,2314,2297,2297,2288,2272,2272,2272,2272,2272,2272,2272,2272,2272,2305,2305,2314,2323,2323,2332,2340,2340,2358,2358,2367,2386,2386,2414,2442,2442,2462,2481,2481,2491,2491,2512,2522,2522,2532,2543,2543,2543,2543,2543,2543,2543,2532,2532,2532,2532,2532,2522,2522,2512,2501,2501,2491,2491,2481,2471,2471,2462,2452,2452,2452,2452,2442,2442,2442,2433,2433,2433,2423,2423,2404,2395,2395,2386,2386,2367,2367,2367,2349,2332,2332,2323,2323,2323,2323,2323,2323,2323,2323,2323,2323,2323,2332,2332,2332,2332,2332,2332,2340,2340,2340,2340,2340,2340,2340,2340,2340,2340,2340,2340,2340,2340,2340,2332,2332,2323,2314,2314,2305,2297,2297,2288,2288,2280,2263,2263,2263,2263,2239,2223,2223,2199,2176,2176,2153,2153,2131,2109,2109,2087,2087,2066,2060,2060,2053,2039,2039,2032,2032,2019,2000,2000,1987,1987,1968,1949,1949,1931,1931,1913,1901,1901,1878,1867,1867,1850,1850,1839,1828,1828,1812,1812,1801,1786,1786,1770,1770,1760,1745,1745,1731,1716,1716,1702,1702,1693,1679,1679,1665,1665,1652,1643,1643,1630,1630,1617,1605,1605,1597,1597,1588,1580,1580,1576,1576,1576,1576,1576,1576,1580,1588,1588,1597,1609,1609,1630,1665,1665,1702,1745,1745,1791,1812,1812,1828,1839,1839,1850,1850,1850,1850,1844,1839,1839,1828,1828,1823,1807,1807,1796,1781,1781,1775,1775,1765,1750,1750,1745,1745,1740,1731,1731,1731,0,0,0,0,0,0,0,1635,1635,1630,1630,1630,1630,1635,1635,1635,1639,1639,1643,1648,1648,1656,1661,1661,1665,1665,1670,1679,1679,0,0,0,0,0,0,0,0,0,0,0,0,0,0,0,0,4827,4790,4790,4753,4753,4753,4753,4753,4716,4716,4646,4646,4646,4646,4611,4611,4611,4611,4611,4611,4611,4577,4510
0,0,0,0,0,0,0,0,0,0,0,0,0,0,0,0,0,0,0,0,0,0,0,0,0,0,0,0,0,0,0,0,0,0,0,0,0,0,0,0,0,0,0,0,0,0,0,0,0,0,0,0,0,0,0,0,0,0,0,0,0,0,0,0,0,0,0,0,0,2168,2168,2168,2176,2168,2168,2168,2168,2176,2176,2176,2176,2176,2183,2191,2191,2191,2199,2199,2215,2215,2223,2223,2223,2223,2223,2223,2223,2223,2231,2247,2247,2247,2247,2239,2239,2247,2247,2255,2255,2255,2255,2255,2239,2239,2223,2223,2215,2215,2215,2207,2207,2199,2191,2191,2191,2183,2183,2183,2183,2183,2183,2183,2183,2183,2183,2183,2183,2183,2183,2191,2191,2191,2191,2191,2199,2207,2207,2215,2215,2231,2239,2239,2255,2272,2272,2280,2280,2288,2305,2305,2305,2305,2305,2314,2323,2323,2323,2323,2323,2323,2323,2323,2323,2323,2323,2314,2314,2314,2314,2314,2314,2314,2314,2305,2297,2297,2280,2280,2280,2272,2272,2272,2305,2305,2305,2314,2323,2323,2332,2332,2340,2349,2349,2358,2367,2367,2367,2367,2367,2367,2358,2358,2358,2358,2358,2349,2349,2349,2349,2349,2349,2349,2349,2349,2349,2349,2349,2349,2349,2349,2349,2349,2349,2349,2349,2349,2349,2340,2340,2340,2349,2358,2358,2358,2358,2358,2358,2367,2367,2367,2367,2376,2376,2376,2376,2376,2376,2376,2376,2376,2376,2376,2376,2386,2386,2404,2404,2423,2442,2442,2471,2481,2481,2501,2522,2522,2543,2543,2543,2543,2532,2512,2512,2501,2501,2501,2481,2481,2471,2471,2452,2452,2452,2442,2433,2433,2414,2414,2404,2395,2395,2386,2386,2386,2376,2376,2376,2367,2367,2367,2349,2349,2332,2332,2323,2314,2314,2297,2297,2288,2272,2272,2272,2272,2272,2272,2272,2272,2272,2288,2288,2288,2305,2305,2314,2332,2332,2349,2349,2367,2386,2386,2404,2423,2423,2452,2462,2462,2481,2481,2491,2501,2501,2512,2522,2512,2512,2512,2522,2522,2522,2522,2522,2522,2522,2512,2512,2512,2512,2501,2501,2491,2491,2481,2471,2471,2462,2452,2452,2452,2452,2442,2442,2442,2433,2433,2433,2423,2423,2404,2395,2395,2386,2386,2367,2367,2367,2349,2332,2332,2323,2323,2323,2323,2323,2323,2323,2323,2323,2323,2323,2332,2332,2332,2332,2332,2332,2340,2340,2340,2340,2340,2340,2340,2340,2340,2340,2332,2332,2323,2323,2323,2323,2323,2314,2305,2305,2297,2288,2288,2280,2280,2272,2263,2263,2255,2239,2239,2223,2223,2199,2176,2176,2153,2153,2131,2109,2109,2087,2087,2066,2060,2060,2046,2039,2039,2026,2026,2013,2000,2000,1980,1980,1968,1949,1949,1931,1931,1913,1895,1895,1878,1861,1861,1850,1850,1839,1823,1823,1812,1812,1801,1786,1786,1770,1770,1760,1745,1745,1731,1716,1716,1702,1702,1693,1679,1679,1665,1665,1652,1643,1643,1630,1630,1617,1609,1609,1597,1597,1588,1584,1584,1580,1576,1576,1576,1576,1576,1580,1588,1588,1597,1609,1609,1630,1661,1661,1702,1745,1745,1781,1807,1807,1823,1833,1833,1839,1844,1844,1844,1839,1833,1833,1823,1823,1812,1801,1801,1786,1781,1781,1765,1765,1755,1750,1750,1740,1740,1736,1731,1731,1726,1726,0,0,0,0,0,0,1643,1643,1639,1639,1639,1639,1639,1643,1643,1648,1643,1643,1652,1652,1661,1665,1665,1670,1674,1674,1679,1679,0,0,0,0,0,0,0,0,0,0,0,0,0,0,0,0,4827,4790,4790,4753,4753,4753,4753,4753,4716,4716,4646,4646,4646,4611,4611,4611,4577,4577,4577,4577,4577,4577,4510
