1202,1202,1216,1226,1226,1233,1246,1246,1253,1258,1258,1261,1261,1264,1266,1266,1269,1274,1274,1282,1287,1287,1295,1295,1303,1312,1312,1320,1332,1332,1343,1355,1355,1367,1379,1379,1392,1407,1407,1430,1447,1447,1461,1471,1471,1478,1478,1482,1489,1489,1496,1503,1503,1511,1522,1522,1533,1533,1552,1572,1572,1601,1630,1630,1652,1674,1674,1697,1716,1716,1736,1750,1750,1760,1770,1770,1781,1781,1781,1781,1781,1775,1775,1770,1770,1765,1755,1755,1750,1750,1750,1750,1750,1750,1760,1770,1770,1781,1801,1801,1823,1844,1844,1861,1878,1878,1907,1907,1931,1961,1961,1980,2000,2000,2026,2039,2039,2053,2066,2066,2073,2073,2073,2080,2080,2087,2094,2094,2102,2116,2116,2131,2131,2145,2168,2168,2183,2191,2191,2207,2223,2223,2231,2231,2231,2231,2223,2223,2223,2223,2223,2223,2223,2231,2231,2231,2231,2231,2231,2231,2239,2247,2247,2247,2255,2255,2255,2263,2263,2272,2272,2272,2280,2280,2272,2272,2272,2280,2280,2272,2272,2263,2255,2255,2247,2247,2231,2231,2231,2231,2231,2215,2215,2215,2215,2215,2215,2207,2207,2207,2199,2199,2199,2199,2199,2199,2207,2215,2215,2215,2215,2231,2239,2239,2255,2272,2272,2297,2297,2314,2332,2332,2340,2349,2349,2358,2367,2367,2367,2367,2367,2367,2367,2367,2367,2367,2376,2376,2376,2376,2376,2376,2386,2386,2395,2395,2414,2414,2414,2423,2442,2442,2442,2452,2452,2452,2452,2462,2462,2462,2462,2462,2462,2462,2462,2462,2471,2471,2471,2471,2471,2481,2481,2491,2491,2491,2501,2501,2501,2512,2522,2522,2532,2532,2501,2501,2501,2553,0,0,0,2574,2543,2543,2543,2543,2553,2543,2543,2543,2532,2532,2532,2522,2522,2522,2522,2522,2512,2512,2501,2501,2501,2501,2501,2491,2491,2491,2491,2491,2491,2491,2491,2491,2501,2512,2512,2532,2553,2553,2585,2585,2607,2640,2640,2675,2698,2698,2746,2771,2771,2796,2821,2821,2847,2847,2887,2914,2914,2942,2956,2956,2970,2985,2985,2999,2999,3014,3014,3014,3014,3014,3014,3014,3014,3014,3014,2999,2985,2985,2970,2970,2942,2914,2914,2887,2887,2860,2821,2821,2796,2783,2783,2771,2771,2746,2746,2758,2758,2771,2783,2783,2796,2796,2808,2821,2808,2796,2796,2796,2808,2796,2783,2783,2758,2746,2746,2734,2734,2722,2710,2710,2675,2675,2640,2607,2607,2574,2553,2553,2543,2543,2512,2491,2491,2491,2491,2481,2481,2481,2481,2481,2481,2481,2481,2462,2452,2452,2433,2423,2423,2404,2404,2395,2376,2376,2358,2358,2349,2349,2358,2349,2340,2340,2332,2332,2332,2323,2323,2323,2323,2323,2323,2323,2314,2305,2305,2305,2297,2297,2280,2280,2263,2255,2255,2239,2239,2239,2231,2231,2223,2207,2207,2199,2199,2191,2191,2191,2191,2191,2191,2183,2183,2183,2168,2168,2153,2138,2138,2116,2116,2102,2080,2080,2060,2060,2046,2026,2026,2013,2013,2000,1987,1987,1974,1955,1955,1937,1937,1925,1907,1907,1895,1895,1884,1872,1872,1861,1855,1855,1850,1850,1844,1839,1839,1833,1833,1828,1823,1823,1823,1817,1817,1812,1812,1807,1807,1807,1796,1796,1796,1786,1786,1786,1775,1775,1770,1770,1765,1755,1755,1745,1731,1731,1716,1716,1697,1674,1674,1656,1656,1639,1635,1635,1617,1617,1613,1609,1609,1601,1597,1597,1597,1597,1597,1597,1597,1597,1597,1597,1597,1601,1601,1601,1605,1605,1609,1617,1617,1622,1630,1630,1639,1639,1656,1674
1202,1202,1216,1226,1226,1233,1241,1241,1248,1253,1253,1261,1261,1264,1266,1266,1269,1274,1274,1282,1287,1287,1295,1303,1303,1312,1312,1323,1337,1337,1349,1364,1364,1376,1382,1382,1395,1414,1414,1434,1450,1450,1468,1475,1475,1482,1482,1482,1489,1489,1496,1503,1503,1511,1522,1522,1533,1533,1549,1568,1568,1592,1617,1617,1639,1661,1661,1679,1702,1702,1731,1745,1745,1755,1770,1770,1781,1781,1781,1781,1781,1775,1775,1770,1770,1765,1755,1755,1750,1750,1750,1750,1750,1750,1760,1770,1770,1786,1801,1801,1828,1855,1855,1867,1889,1889,1919,1949,1949,1974,1974,1993,2013,2013,2026,2039,2039,2053,2066,2066,2073,2073,2073,2080,2080,2087,2094,2094,2102,2116,2116,2131,2131,2145,2168,2168,2183,2191,2191,2207,2223,2223,2231,2231,2231,2231,2223,2223,2223,2223,2223,2223,2223,2231,2231,2231,2231,2231,2231,2231,2239,2247,2247,2247,2255,2255,2255,2263,2263,2272,2272,2272,2280,2280,2272,2272,2272,2280,2280,2272,2272,2263,2255,2255,2247,2247,2239,2231,2231,2231,2231,2215,2215,2215,2207,2207,2207,2207,2207,2207,2199,2199,2199,2199,2199,2199,2207,2215,2215,2223,2223,2231,2247,2247,2263,2288,2288,2314,2332,2332,2349,2349,2367,2386,2386,2395,2395,2395,2395,2395,2395,2395,2395,2395,2395,2395,2395,2395,2395,2395,2395,2404,2414,2414,2423,2433,2433,2442,2423,2423,2442,2442,2442,2452,2452,2452,2452,2462,2462,2462,2462,2462,2462,2462,2462,2462,2471,2471,2471,2471,2471,2481,2481,2491,2491,2491,2501,2501,2501,2512,2522,2522,2532,2532,2543,2543,2543,2553,2596,2596,2607,2574,2574,2574,2574,2574,2574,2574,2574,2574,2574,2574,2564,2564,2564,2564,2564,2564,2553,2553,2553,2553,2553,2553,2553,2553,2553,2553,2553,2553,2553,2553,2564,2564,2585,2596,2596,2618,2652,2652,2686,2710,2710,2758,2796,2796,2821,2821,2860,2874,2874,2914,2928,2928,2942,2985,2985,2985,2942,2942,2956,2956,2970,2985,2985,2999,2999,3014,3014,3014,3014,3014,3014,3014,3014,3014,3014,2999,2985,2985,2970,2970,2942,2914,2914,2887,2887,2860,2821,2821,2796,2783,2783,2771,2771,2758,2758,2771,2771,2783,2796,2796,2808,2808,2821,2834,2821,2821,2821,2821,2821,2808,2796,2796,2771,2758,2758,2734,2734,2722,2698,2698,2675,2675,2640,2607,2607,2574,2553,2553,2543,2543,2512,2491,2491,2491,2491,2481,2481,2481,2481,2481,2481,2481,2481,2462,2452,2452,2433,2423,2423,2404,2404,2395,2376,2376,2358,2358,2349,2332,2332,2323,2314,2314,2305,2305,2305,2297,2297,2297,2297,2297,2288,2288,2288,2288,2288,2280,2280,2280,2263,2263,2247,2239,2239,2223,2223,2215,2207,2207,2199,2191,2191,2176,2176,2176,2168,2168,2168,2168,2168,2168,2168,2160,2160,2160,2145,2131,2131,2116,2116,2102,2080,2080,2060,2060,2046,2032,2032,2013,2013,2006,1993,1993,1974,1961,1961,1943,1943,1925,1913,1913,1895,1895,1884,1872,1872,1867,1855,1855,1850,1850,1844,1839,1839,1839,1839,1833,1828,1828,1828,1823,1823,1817,1817,1807,1807,1807,1796,1796,1796,1786,1786,1786,1775,1775,1770,1770,1760,1755,1755,1745,1726,1726,1697,1697,1674,1652,1652,1630,1630,1613,1592,1592,1588,1588,1580,1576,1576,1576,1580,1580,1580,1584,1584,1588,1588,1588,1588,1592,1592,1597,1597,1597,1601,1601,1605,1613,1613,1617,1626,1626,1635,1635,1652,1665
1204,1204,1216,1226,1226,1233,1241,1241,1248,1253,1253,1256,1256,1258,1261,1261,1264,1269,1269,1277,1282,1282,1293,1303,1303,1312,1312,1323,1337,1337,1349,1364,1364,1376,1382,1382,1395,1414,1414,1434,1450,1450,1468,1475,1475,1482,1482,1485,1492,1492,1500,1507,1507,1514,1522,1522,1537,1537,1549,1564,1564,1588,1609,1609,1630,1648,1648,1670,1688,1688,1712,1736,1736,1745,1770,1770,1781,1786,1781,1781,1781,1775,1775,1770,1770,1765,1755,1755,1750,1750,1750,1750,1755,1755,1765,1775,1775,1786,1807,1807,1839,1867,1867,1884,1901,1901,1937,1961,1961,1987,1993,1993,2013,2013,2026,2039,2039,2053,2060,2060,2066,2066,2066,2066,2066,2073,2087,2087,2094,2109,2109,2131,2131,2145,2160,2160,2176,2191,2191,2207,2223,2223,2231,2231,2223,2223,2223,2223,2223,2223,2223,2223,2223,2223,2223,2223,2231,2231,2239,2247,2247,2255,2255,2255,2263,2263,2280,2288,2288,2297,2297,2314,2314,2314,2314,2314,2314,2314,2305,2297,2297,2280,2272,2272,2255,2255,2247,2231,2231,2231,2231,2215,2215,2215,2207,2207,2207,2207,2207,2207,2199,2199,2199,2199,2199,2199,2207,2215,2215,2223,2223,2231,2247,2247,2263,2288,2288,2314,2332,2332,2349,2349,2367,2386,2386,2395,2395,2395,2395,2395,2395,2395,2395,2395,2395,2395,2395,2395,2395,2395,2395,2404,2414,2414,2423,2433,2433,2442,2442,2462,2462,2462,2481,2481,2481,2491,2491,2491,2491,2491,2491,2491,2491,2491,2491,2501,2501,2501,2512,2522,2522,2522,2532,2532,2532,2532,2543,2543,2543,2553,2564,2564,2574,2574,2585,2596,2596,2596,2596,2596,2607,2607,2607,2607,2607,2618,2618,2618,2618,2629,2618,2618,2618,2618,2629,2629,2629,2629,2618,2618,2553,2553,2553,2553,2553,2553,2553,2553,2553,2553,2553,2553,2564,2564,2585,2596,2596,2618,2652,2652,2686,2710,2710,2758,2796,2796,2821,2821,2860,2874,2874,2914,2928,2928,2942,2985,2985,2985,2985,2999,3014,3014,3029,3044,3044,3044,3044,3059,3074,3059,3059,3059,3059,3074,3059,3059,3059,3044,3029,3029,3014,3014,2985,2970,2970,2928,2887,2887,2860,2860,2821,2796,2796,2796,2796,2783,2783,2796,2796,2796,2821,2821,2834,2834,2834,2834,2834,2834,2834,2834,2834,2821,2808,2808,2783,2771,2771,2746,2746,2722,2698,2698,2663,2663,2618,2596,2596,2564,2532,2532,2512,2512,2491,2471,2471,2452,2452,2452,2452,2481,2481,2433,2433,2433,2442,2433,2423,2423,2404,2386,2386,2376,2376,2358,2340,2340,2332,2332,2314,2297,2297,2288,2288,2288,2280,2280,2272,2272,2272,2272,2272,2272,2272,2272,2263,2263,2263,2263,2255,2255,2239,2239,2231,2231,2239,2223,2223,2215,2207,2207,2199,2191,2191,2176,2176,2176,2168,2168,2168,2168,2168,2168,2168,2160,2160,2160,2145,2131,2131,2116,2116,2102,2080,2080,2060,2060,2053,2032,2032,2013,2013,2006,1993,1993,1974,1961,1961,1943,1943,1925,1913,1913,1895,1895,1884,1872,1872,1867,1855,1855,1850,1850,1844,1839,1839,1839,1839,1833,1828,1828,1828,1823,1823,1817,1817,1812,1812,1812,1801,1796,1796,1791,1791,1786,1775,1775,1770,1760,1760,1750,1750,1745,1712,1712,1679,1679,1652,1626,1626,1605,1605,1605,1592,1592,1588,1588,1580,1576,1576,1576,1580,1580,1580,1584,1584,1588,1588,1588,1588,1592,1592,1597,1597,1597,1601,1601,1605,1613,1613,1617,1626,1626,1635,1635,1652,1665
1202,1202,1211,1221,1221,1231,1236,1236,1243,1246,1246,1251,1251,1253,1256,1256,1258,1261,1261,1271,1279,1279,1290,1298,1298,1312,1312,1323,1337,1337,1352,1367,1367,1376,1385,1385,1401,1417,1417,1440,1457,1457,1475,1485,1485,1489,1496,1496,1503,1503,1507,1514,1514,1522,1529,1529,1537,1549,1549,1564,1564,1588,1609,1609,1630,1648,1648,1670,1688,1688,1712,1736,1736,1745,1755,1755,1770,1775,1775,1775,1775,1770,1770,1765,1760,1760,1755,1755,1750,1750,1750,1750,1755,1755,1765,1775,1775,1786,1807,1807,1839,1867,1867,1878,1895,1895,1931,1961,1961,1987,2000,2000,2013,2013,2026,2039,2039,2053,2060,2060,2060,2066,2066,2066,2066,2073,2080,2080,2087,2102,2102,2123,2131,2145,2160,2160,2176,2191,2191,2207,2223,2223,2231,2231,2223,2223,2223,2223,2223,2223,2223,2223,2223,2223,2223,2223,2239,2239,2247,2255,2255,2272,2272,2280,2280,2280,2297,2314,2314,2323,2332,2332,2349,2314,2314,2314,2314,2314,2305,2297,2297,2280,2272,2272,2255,2255,2247,2231,2231,2231,2223,2215,2215,2215,2207,2207,2207,2207,2207,2207,2199,2199,2199,2199,2199,2199,2207,2215,2215,2223,2223,2239,2255,2255,2280,2305,2305,2332,2358,2358,2386,2386,2404,2414,2414,2423,2433,2433,2423,2423,2423,2423,2423,2423,2423,2423,2423,2423,2423,2423,2423,2423,2433,2433,2442,2462,2462,2471,2471,2491,2491,2491,2501,2512,2512,2522,2522,2522,2522,2522,2522,2522,2522,2532,2532,2532,2532,2532,2543,2543,2543,2553,2564,2532,2532,2532,2543,2543,2543,2553,2564,2564,2574,2574,2585,2596,2596,2596,2596,2596,2607,2607,2607,2607,2607,2618,2618,2618,2618,2629,2618,2618,2618,2618,2629,2629,2629,2629,2618,2618,2618,2618,2618,2618,2618,2618,2618,2618,2618,2629,2640,2640,2652,2675,2675,2686,2686,2722,2758,2758,2783,2821,2821,2860,2887,2887,2914,2956,2956,2970,2970,2985,2999,2999,3044,3044,3044,3059,3059,3074,3074,3074,3074,3089,3089,3105,3105,3105,3105,3105,3089,3089,3089,3089,3089,3074,3074,3059,3059,3059,3029,3029,2999,2970,2970,2928,2887,2887,2860,2860,2821,2796,2796,2796,2796,2783,2783,2796,2796,2796,2821,2821,2834,2834,2834,2834,2834,2834,2834,2834,2834,2821,2808,2808,2783,2758,2758,2746,2746,2710,2686,2686,2652,2652,2607,2574,2574,2543,2512,2512,2491,2491,2462,2452,2452,2433,2433,2423,2414,2414,2404,2404,2404,2395,2395,2386,2386,2423,2404,2386,2386,2376,2376,2358,2340,2340,2332,2332,2314,2297,2297,2288,2288,2288,2280,2280,2272,2272,2272,2272,2272,2272,2272,2272,2263,2263,2263,2263,2255,2255,2239,2239,2231,2223,2223,2207,2207,2199,2191,2191,2183,2168,2168,2160,2160,2153,2153,2153,2145,2145,2145,2138,2138,2138,2138,2138,2131,2116,2116,2109,2109,2094,2080,2080,2060,2060,2053,2032,2032,2019,2013,2006,1993,1993,1980,1968,1968,1949,1949,1931,1913,1913,1901,1901,1889,1878,1878,1867,1861,1861,1855,1855,1850,1844,1844,1844,1839,1839,1833,1833,1828,1828,1828,1823,1823,1817,1812,1812,1807,1796,1796,1791,1791,1786,1775,1775,1770,1760,1760,1750,1750,1745,1712,1712,1679,1679,1652,1626,1626,1605,1605,1580,1580,1564,1556,1556,1556,1556,1556,1556,1560,1568,1568,1572,1572,1576,1580,1580,1584,1588,1588,1592,1592,1597,1601,1601,1605,1609,1609,1617,1626,1626,1635,1635,1648,1665
1202,1202,1211,1221,1221,1231,1236,1236,1243,1246,1246,1251,1251,1253,1256,1256,1258,1261,1261,1271,1279,1279,1290,1298,1298,1312,1312,1323,1337,1337,1352,1367,1367,1376,1385,1385,1401,1417,1417,1440,1457,1457,1475,1485,1485,1489,1496,1496,1503,1503,1507,1514,1514,1522,1529,1529,1537,1549,1549,1564,1564,1584,1601,1601,1617,1635,1635,1652,1674,1674,1697,1721,1721,1731,1745,1745,1755,1765,1765,1765,1765,1765,1765,1760,1755,1755,1755,1755,1750,1750,1750,1750,1755,1765,1765,1775,1775,1791,1807,1807,1839,1867,1867,1878,1895,1895,1931,1961,1961,1987,2000,2000,2013,2013,2026,2039,2039,2053,2060,2060,2060,2066,2066,2066,2066,2073,2080,2080,2087,2102,2102,2123,2145,2145,2160,2160,2176,2191,2191,2207,2215,2215,2231,2231,2223,2223,2215,2215,2215,2215,2223,2223,2223,2223,2223,2223,2239,2239,2247,2255,2255,2272,2272,2280,2280,2280,2297,2314,2314,2323,2332,2332,2349,2349,2349,2349,2340,2340,2340,2332,2332,2314,2297,2297,2272,2272,2255,2239,2239,2231,2223,2223,2215,2215,2215,2207,2207,2207,2207,2207,2207,2207,2199,2199,2199,2199,2215,2223,2223,2239,2239,2255,2272,2272,2297,2332,2332,2358,2386,2386,2414,2433,2433,2452,2452,2462,2471,2471,2462,2462,2462,2462,2452,2452,2452,2423,2423,2423,2423,2423,2423,2423,2433,2433,2442,2462,2462,2471,2471,2491,2491,2491,2501,2512,2512,2522,2522,2522,2522,2522,2522,2522,2522,2532,2532,2532,2532,2532,2543,2543,2543,2553,2564,2564,2564,2564,2574,2585,2585,2596,2618,2618,2629,2640,2640,2652,2652,2640,2640,2640,2629,2629,2629,2640,2640,2640,0,2675,2675,2698,2663,2663,2663,2686,2686,2686,2686,2698,2686,2686,2686,2686,2686,2686,2686,2698,2698,2698,2698,2710,2722,2722,2734,2758,2758,2771,2808,2808,2834,2834,2860,2887,2887,2914,2942,2942,2956,2956,2956,2970,2970,2985,2999,2999,3044,3044,3044,3059,3059,3074,3074,3074,3074,3089,3089,3105,3105,3105,3105,3105,3089,3089,3089,3074,3074,3059,3059,3044,3029,3029,3014,3014,2970,2942,2942,2901,2860,2860,2821,2821,2796,2771,2771,2758,2758,2746,2746,2758,2758,2771,2783,2783,2796,2821,2821,2821,2821,2821,2821,2821,2834,2821,2808,2808,2783,2758,2758,2746,2746,2710,2686,2686,2652,2652,2607,2574,2574,2543,2512,2512,2491,2491,2462,2452,2452,2433,2433,2423,2414,2414,2404,2404,2404,2395,2395,2386,2376,2376,2367,2358,2358,2340,2340,2323,2314,2314,2297,2297,2280,2263,2263,2255,2255,2255,2247,2247,2247,2239,2239,2239,2239,2239,2239,2247,2239,2239,2239,2239,2231,2231,2223,2223,2207,2199,2199,2183,2183,2176,2160,2160,2153,2145,2145,2131,2131,2123,2123,2123,2123,2123,2123,2116,2116,2116,2116,2116,2109,2109,2116,2109,2109,2094,2080,2080,2060,2060,2053,2039,2039,2026,2013,2013,2000,2000,1987,1974,1974,1955,1955,1937,1919,1919,1901,1901,1889,1878,1878,1867,1861,1861,1855,1855,1850,1844,1844,1844,1839,1839,1833,1833,1828,1828,1828,1823,1823,1817,1812,1812,1807,1796,1796,1791,1791,1786,1775,1775,1765,1760,1760,1745,1745,1736,1702,1702,1665,1665,1630,1626,1601,1576,1576,1552,1552,1541,1537,1537,1533,1533,1537,1537,1549,1549,1556,1560,1560,1568,1576,1576,1580,1584,1584,1588,1588,1592,1597,1597,1601,1609,1609,1617,1626,1626,1635,1635,1648,1665
1202,1202,1211,1219,1219,1226,1233,1233,1236,1241,1241,1243,1243,1246,1251,1251,1253,1258,1258,1266,1277,1277,1287,1298,1298,1309,1309,1323,1337,1337,1352,1367,1367,1376,1385,1385,1401,1420,1420,1440,1464,1464,1478,1492,1492,1500,1507,1507,1514,1514,1518,1522,1522,1529,1537,1537,1541,1552,1552,1564,1564,1580,1601,1601,1617,1635,1635,1652,1674,1674,1697,1721,1721,1731,1745,1745,1755,1765,1765,1765,1765,1765,1765,1760,1755,1755,1755,1755,1750,1750,1750,1750,1755,1765,1765,1775,1775,1791,1807,1807,1833,1861,1861,1872,1889,1889,1919,1949,1949,1974,1993,1993,2006,2006,2019,2039,2039,2046,2060,2060,2060,2066,2066,2066,2066,2073,2080,2080,2087,2102,2102,2123,2145,2145,2160,2160,2176,2191,2191,2207,2215,2215,2231,2231,2223,2223,2215,2215,2215,2215,2223,2223,2223,2231,2231,2239,2247,2247,2255,2280,2280,2288,2288,2297,2305,2305,2323,2340,2340,2349,2367,2367,2376,2376,2376,2376,2367,2358,2358,2349,2349,2332,2314,2314,2288,2288,2272,2255,2255,2239,2231,2231,2223,2223,2223,2215,2215,2215,2207,2207,2207,2207,2199,2199,2199,2199,2215,2223,2223,2239,2239,2255,2272,2272,2297,2332,2332,2358,2386,2386,2414,2433,2433,2452,2452,2462,2471,2471,2462,2462,2462,2462,2452,2452,2452,2442,2442,2442,2442,2442,2442,2452,2471,2471,2481,2491,2491,2501,2512,2512,2522,2522,2532,2543,2543,2543,2553,2553,2553,2543,2543,2553,2553,2564,2564,2564,2564,2564,2574,2574,2574,2585,2596,2596,2607,2618,2618,2629,2629,2652,2663,2663,2675,2698,2698,2698,2675,2675,2686,2663,2652,2652,2652,2652,2652,2663,0,2675,2675,2698,2663,2663,2663,2686,2686,2686,2686,2698,2686,2686,2686,2686,2686,2686,2686,2698,2698,2698,2698,2710,2722,2722,2734,2758,2758,2771,2808,2808,2834,2834,2860,2887,2887,2914,2942,2942,2970,2999,2999,3014,3014,3044,3074,3074,3074,3089,3089,3105,3105,3105,3120,3120,3120,3120,3120,3105,3105,3105,3105,3089,3074,3074,3074,3074,3074,3059,3059,3044,3029,3029,3014,3014,2970,2942,2942,2901,2860,2860,2821,2821,2796,2771,2771,2758,2758,2746,2746,2758,2758,2771,2783,2783,2796,2821,2821,2821,2821,2821,2821,2821,2808,2808,2783,2783,2758,2746,2746,2722,2722,2686,2663,2663,2618,2618,2585,2543,2543,2512,2481,2481,2462,2462,2433,2414,2414,2395,2395,2386,2376,2376,2367,2367,2367,2358,2358,2349,2340,2340,2332,2332,2314,2305,2305,2297,2280,2280,2272,2272,2247,2239,2239,2223,2215,2215,2215,2215,2215,2207,2207,2207,2215,2239,2239,2247,2239,2239,2239,2239,2231,2231,2223,2223,2207,2199,2199,2183,2183,2176,2160,2160,2153,2145,2145,2131,2131,2123,2123,2123,2123,2123,2123,2116,2116,2116,2116,2116,2109,2102,2102,2094,2094,2094,2080,2080,2060,2060,2053,2039,2039,2026,2013,2013,2000,2000,1987,1974,1974,1955,1955,1937,1919,1919,1901,1901,1889,1878,1878,1867,1861,1861,1855,1855,1850,1850,1850,1844,1844,1844,1839,1839,1833,1828,1828,1828,1823,1823,1817,1817,1807,1796,1796,1791,1791,1786,1775,1775,1765,1755,1755,1745,1745,1736,1702,1702,1665,1665,1630,1630,1601,1576,1576,1552,1552,1541,1537,1537,1533,1533,1537,1537,1549,1549,1556,1560,1560,1568,1576,1576,1580,1584,1584,1588,1588,1592,1597,1597,1601,1609,1609,1613,1622,1622,1630,1630,1643,1665
1200,1200,1207,1216,1216,1221,1226,1226,1231,1236,1236,1238,1238,1241,1243,1243,1248,1253,1253,1264,1274,1274,1287,1301,1301,1309,1309,1326,1337,1337,1355,1367,1367,1376,1385,1385,1401,1424,1424,1447,1468,1468,1485,1500,1500,1511,1518,1518,1526,1529,1529,1533,1533,1537,1541,1541,1545,1552,1552,1564,1564,1580,1592,1592,1605,1622,1622,1639,1656,1656,1679,1697,1697,1712,1726,1726,1740,1750,1750,1755,1755,1755,1755,1755,1750,1750,1750,1750,1750,1750,1750,1750,1755,1765,1765,1775,1775,1791,1807,1807,1833,1855,1855,1861,1878,1878,1913,1937,1937,1961,1980,1980,1993,1993,2013,2032,2032,2046,2060,2060,2060,2060,2060,2060,2060,2066,2080,2080,2087,2102,2102,2123,2145,2145,2160,2160,2176,2191,2191,2207,2223,2223,2239,2239,2231,2231,2223,2223,2223,2223,2231,2239,2239,2247,2247,2255,2272,2272,2280,2297,2288,2288,2288,2297,2305,2305,2323,2340,2340,2349,2367,2367,2376,2376,2376,2376,2367,2358,2358,2349,2349,2332,2314,2314,2288,2288,2272,2255,2255,2239,2231,2231,2223,2223,2223,2215,2215,2215,2215,2215,2215,2215,2215,2223,2223,2223,2231,2247,2247,2263,2263,2280,2297,2297,2332,2358,2358,2386,2414,2414,2433,2462,2462,2481,2481,2491,2501,2501,2491,2491,2491,2491,2491,2481,2481,2481,2471,2471,2471,2471,2471,2491,2501,2501,2512,2532,2532,2543,2553,2553,2564,2564,2574,2574,2574,2574,2574,2574,2574,2574,2553,2553,2553,2564,2564,2564,2564,2564,2574,2574,2574,2585,2596,2596,2607,2618,2618,2629,2629,2652,2663,2663,2675,2698,2698,2698,2675,2675,2686,2663,2652,2652,2652,2652,2652,2663,2675,2675,2675,2698,2698,2710,2710,2722,2734,2734,2746,2746,2746,2746,2746,2746,2746,2746,2746,2758,2758,2758,2771,2771,2783,2783,2796,2821,2821,2834,2874,2874,2887,2914,2914,2942,2942,2970,2999,2999,3029,3059,3059,3074,3105,3105,3120,3120,3120,3120,3120,3136,3136,3120,3120,3120,3120,3120,3120,3105,3105,3105,3105,3089,3074,3074,3059,3044,3044,3029,3029,3014,2999,2999,2970,2970,2928,2901,2901,2860,2821,2821,2783,2783,2758,2722,2722,2710,2710,2710,2710,2722,2722,2734,2758,2758,2771,2783,2783,2796,2796,2796,2796,2796,2796,2771,2758,2758,2734,2710,2710,2686,2686,2652,2618,2618,2585,2585,2532,2512,2512,2471,2471,2452,2433,2433,2404,2404,2414,2395,2395,2386,2376,2376,2367,2367,2367,2358,2358,2349,2340,2340,2332,2332,2314,2305,2305,2297,2280,2280,2272,2272,2247,2239,2239,2223,2215,2215,2215,2215,2215,2207,2207,2207,2207,2207,2207,2207,2207,2207,2207,2207,2199,2199,2199,2199,2183,2176,2176,2168,2168,2153,2145,2145,2131,2116,2116,2102,2102,2102,2094,2094,2094,2094,2094,2087,2087,2087,2087,2094,2087,2087,2087,2087,2087,2080,2073,2073,2060,2060,2060,2046,2046,2032,2019,2019,2006,2006,1993,1974,1974,1961,1961,1943,1925,1925,1907,1907,1895,1878,1878,1872,1861,1861,1855,1855,1850,1850,1850,1850,1844,1844,1839,1839,1833,1833,1833,1828,1828,1828,1817,1817,1812,1801,1801,1791,1791,1786,1775,1775,1765,1755,1755,1745,1745,1736,1688,1688,1643,1643,1630,1630,1601,1549,1549,1529,1529,1518,1518,1518,1514,1514,1522,1522,1529,1529,1545,1552,1552,1564,1572,1572,1580,1584,1584,1588,1588,1592,1597,1597,1601,1605,1605,1613,1622,1622,1630,1630,1643,1661
1200,1200,1207,1216,1216,1221,1226,1226,1231,1236,1236,1238,1238,1241,1243,1243,1248,1253,1253,1264,1274,1274,1287,1298,1298,1309,1309,1323,1337,1337,1355,1367,1367,1376,1385,1385,1401,1424,1424,1447,1468,1468,1485,1500,1500,1511,1518,1518,1526,1529,1529,1533,1533,1537,1541,1541,1545,1552,1552,1560,1560,1572,1584,1584,1592,1605,1605,1617,1635,1635,1656,1674,1674,1688,1707,1707,1716,1716,1731,1736,1736,1740,1740,1740,1745,1745,1745,1750,1750,1750,1755,1755,1760,1770,1770,1781,1781,1796,1812,1812,1833,1855,1855,1861,1878,1878,1913,1937,1937,1961,1980,1980,1993,1993,2013,2032,2032,2046,2060,2060,2060,2060,2060,2060,2060,2066,2080,2080,2087,2102,2102,2123,2145,2145,2160,2160,2176,2191,2191,2207,2223,2223,2239,2239,2231,2231,2223,2223,2223,2223,2231,2239,2239,2247,2247,2255,2272,2272,2280,2297,2297,2314,2323,2323,2332,2332,2349,2367,2367,2367,2386,2386,2395,2395,2395,2395,2395,2386,2386,2367,2367,2349,2323,2323,2305,2305,2280,2272,2272,2255,2247,2247,2247,2247,2239,2239,2239,2239,2239,2247,2247,2247,2247,2247,2255,2255,2272,2288,2288,2297,2314,2314,2340,2340,2358,2386,2386,2414,2452,2452,2471,2491,2491,2512,2491,2491,2501,2501,2491,2491,2491,2491,2491,2481,2481,2481,2471,2471,2471,2471,2471,2491,2501,2501,2512,2532,2532,2543,2553,2553,2564,2564,2574,2574,2574,2574,2574,2574,2574,2574,2574,2574,2574,2585,2585,2585,2585,2585,2596,2607,2607,2618,2629,2629,2640,2652,2652,2663,2663,2686,2698,2698,2710,2710,2710,2710,2698,2686,2686,2675,2663,2663,2652,2652,2652,2663,2675,2675,2698,2710,2710,2746,2758,2758,2783,2783,2796,2808,2808,2808,2808,2808,2808,2808,2808,2821,2821,2821,2821,2821,2847,2860,2860,2887,2834,2834,2874,2874,2887,2914,2914,2942,2942,2970,2999,2999,3029,3059,3059,3074,3105,3105,3120,3120,3120,3120,3120,3136,3136,3105,3105,3089,3074,3074,3059,3044,3044,3029,3029,3014,2999,2999,2999,2999,2970,2970,2970,2956,2942,2942,2901,2901,2860,2821,2821,2796,2796,2734,2710,2710,2675,2652,2652,2629,2629,2629,2629,2640,2640,2734,2758,2758,2771,2783,2783,2796,2796,2796,2796,2796,2796,2771,2758,2758,2734,2710,2710,2686,2686,2652,2618,2618,2585,2585,2532,2512,2512,2471,2471,2452,2433,2433,2404,2386,2386,2367,2367,2358,2340,2340,2332,2332,2332,2332,2332,2323,2314,2314,2305,2305,2280,2272,2272,2255,2247,2247,2231,2231,2215,2207,2207,2199,2199,2199,2191,2191,2191,2191,2191,2191,2191,2191,2191,2191,2191,2191,2191,2191,2191,2183,2176,2176,2168,2160,2160,2145,2145,2138,2123,2123,2109,2102,2102,2087,2087,2073,2073,2094,2094,2094,2094,2087,2087,2087,2087,2094,2087,2087,2087,2087,2087,2080,2073,2073,2060,2060,2060,2053,2053,2039,2026,2026,2019,2019,2000,1987,1987,1968,1968,1949,1925,1925,1907,1895,1895,1878,1878,1872,1861,1861,1855,1855,1850,1850,1850,1850,1844,1844,1839,1839,1833,1833,1833,1828,1828,1828,1817,1817,1812,1801,1801,1791,1791,1786,1775,1775,1765,1755,1755,1740,1740,1731,1688,1688,1639,1639,1639,0,0,1529,1529,1514,1514,1503,1500,1500,1500,1503,1514,1514,1522,1522,1541,1549,1549,1564,1572,1572,1580,1584,1584,1588,1588,1592,1597,1597,1601,1605,1605,1613,1622,1622,1630,1630,1643,1661
1197,1197,1204,1211,1211,1216,1223,1223,1228,1231,1231,1236,1236,1238,1241,1241,1243,1251,1251,1261,1274,1274,1285,1298,1298,1312,1323,1323,1337,1337,1355,1370,1370,1376,1385,1385,1404,1427,1427,1450,1471,1471,1489,1507,1507,1518,1526,1526,1533,1537,1537,1537,1537,1541,1545,1545,1549,1556,1556,1560,1560,1572,1584,1584,1592,1605,1605,1617,1635,1635,1656,1674,1674,1688,1707,1707,1716,1716,1731,1736,1736,1740,1740,1740,1745,1745,1745,1750,1750,1750,1755,1755,1760,1770,1770,1781,1781,1796,1812,1812,1828,1844,1844,1855,1867,1867,1895,1925,1925,1949,1968,1968,1987,1987,2006,2026,2026,2046,2060,2060,2060,2060,2060,2060,2060,2066,2080,2080,2087,2102,2102,2123,2145,2145,2160,2160,2176,2191,2191,2207,2231,2231,2239,2247,2239,2239,2239,2239,2247,2247,2255,2255,2255,2272,2272,2288,2297,2297,2314,2332,2332,2340,2349,2349,2349,2349,2367,2376,2376,2395,2404,2404,2414,2414,2414,2414,2414,2414,2414,2395,2395,2376,2349,2349,2332,2305,2280,2272,2272,2255,2247,2247,2247,2247,2239,2239,2239,2239,2239,2247,2247,2247,2247,2247,2255,2255,2272,2288,2288,2297,2314,2314,2340,2340,2358,2386,2386,2414,2452,2452,2471,2491,2491,2512,2532,2532,2543,2543,2553,2553,2553,2553,2564,2564,2564,2553,2553,2564,2553,2553,2553,2553,2564,2564,2564,2585,2585,2596,2596,2596,2596,2596,2596,2607,2607,2596,2596,2596,2596,2596,2596,2596,2596,2596,2607,2607,2607,2618,2618,2629,2629,2629,2652,2652,2663,2675,2675,2686,2686,2698,2710,2710,2722,2734,2722,2722,2698,2686,2686,2675,2663,2663,2652,2652,2652,2663,2675,2675,2698,2710,2710,2746,2758,2758,2783,2783,2796,2808,2808,2808,2808,2808,2808,2808,2808,2821,2821,2821,2821,2821,2847,2860,2860,2887,2887,2901,2914,2914,2928,2956,2956,2985,2985,3014,3029,3029,3044,3059,3059,3074,3089,3074,3074,3074,3074,3074,3059,3044,3044,3014,3014,3014,3074,3074,3059,3044,3044,3029,3029,3014,2999,2999,2999,2999,2970,2970,2970,2956,2942,2942,2901,2901,2860,2821,2821,2796,2796,2734,2710,2710,2675,2652,2652,2629,2629,2629,2629,2640,2640,2652,2663,2663,2686,2686,2698,2710,2710,2710,2722,2722,2722,2698,2686,2686,2663,2652,2652,2618,2618,2596,2564,2564,2522,2522,2491,2471,2471,2442,2442,2414,2395,2395,2376,2358,2358,2340,2340,2323,2314,2314,2305,2305,2297,2297,2297,2288,2280,2280,2272,2272,2255,2247,2247,2239,2223,2223,2215,2215,2199,2199,2207,2199,2199,2199,2191,2191,2191,2191,2191,2191,2191,2191,2191,2191,2191,2191,2191,2191,2191,2183,2176,2176,2168,2160,2160,2145,2145,2138,2123,2123,2109,2102,2102,2087,2087,2073,2073,2073,2066,2066,2066,2066,2066,2066,2066,2073,2073,2073,2073,2073,2073,2073,2066,2066,2060,2060,2060,2053,2053,2039,2026,2026,2019,2019,2000,1987,1987,1968,1968,1949,1925,1925,1913,1895,1895,1884,1884,1872,1867,1867,1861,1861,1855,1850,1850,1850,1844,1844,1844,1844,1839,1833,1833,1833,1828,1828,1823,1823,1812,1807,1807,1796,1796,1786,1775,1775,1765,1755,1755,1740,1740,1731,1688,1688,1639,1639,1639,0,0,1529,1529,1514,1514,1503,1500,1500,1500,1503,1514,1514,1522,1522,1541,1549,1549,1560,1572,1572,1576,1584,1584,1588,1588,1592,1597,1597,1601,1605,1605,1613,1622,1622,1630,1630,1643,1656
1193,1193,1200,1204,1204,1211,1219,1219,1223,1228,1228,1236,1236,1238,1241,1241,1243,1251,1251,1261,1274,1274,1285,1298,1298,1315,1326,1326,1340,1340,1355,1370,1370,1379,1388,1388,1407,1430,1430,1454,1471,1471,1492,1511,1511,1526,1533,1533,1533,1537,1537,1537,1537,1541,1545,1545,1549,1556,1556,1560,1560,1568,1576,1576,1584,1592,1592,1605,1617,1617,1639,1652,1652,1665,1684,1684,1697,1697,1712,1721,1721,1731,1731,1731,1736,1740,1740,1750,1750,1755,1755,1755,1765,1775,1775,1786,1786,1796,1812,1812,1823,1839,1839,1850,1861,1861,1884,1907,1907,1937,1955,1955,1980,1980,2006,2026,2026,2046,2060,2060,2066,2066,2066,2066,2066,2080,2087,2087,2102,2109,2109,2131,2153,2153,2168,2168,2183,2199,2199,2215,2239,2239,2255,2272,2263,2263,2263,2263,2272,2255,2255,2255,2255,2272,2272,2288,2297,2297,2314,2332,2332,2340,2349,2349,2349,2349,2367,2376,2376,2395,2404,2404,2414,2414,2414,2414,2414,2414,2414,2395,2395,2376,2349,2349,2332,2305,2305,2288,2288,2280,2272,2272,2272,2272,2280,2280,2280,2280,2280,2288,2288,2297,2297,2297,2305,2305,2314,2332,2332,2340,2358,2358,2376,2395,2395,2423,2423,2452,2471,2471,2501,2522,2522,2543,2574,2574,2596,2596,2607,2607,2607,2618,2618,2618,2618,2618,2618,2618,2618,2607,2607,2607,2607,2607,2607,2618,2618,2618,2618,2596,2596,2596,2596,2607,2607,2596,2596,2596,2596,2596,2596,2596,2596,2596,2607,2607,2607,2618,2618,2629,2629,2629,2652,2652,2663,2675,2675,2686,2686,2698,2710,2710,2722,2734,2722,2722,2710,2710,2710,2686,2686,2686,2686,2686,2686,2686,2734,2734,2734,2758,2758,2783,2808,2808,2834,2834,2847,2860,2860,2874,2874,2874,2874,2874,2874,2874,2874,2887,2887,2887,2901,2914,2914,2928,2928,2928,2956,2956,2970,2985,2985,2999,3029,3029,3044,3044,3044,3059,3059,3074,3089,3074,3074,3074,3074,3074,3059,3044,3044,3014,3014,2999,2970,2970,2956,2956,2942,2928,2928,2914,2914,2914,2901,2901,2901,2887,2887,2874,2847,2847,2808,2808,2771,2722,2722,2686,2686,2652,2607,2607,2585,2585,2553,2543,2543,2543,2543,2553,2553,2564,2564,2574,2585,2585,2607,2607,2607,2607,2618,2618,2618,2607,2596,2596,2585,2585,2564,2553,2553,2532,2512,2512,2512,2522,2491,2471,2471,2442,2442,2414,2395,2395,2376,2358,2358,2340,2340,2323,2314,2314,2305,2305,2297,2297,2297,2288,2280,2280,2272,2272,2255,2247,2247,2239,2223,2223,2215,2215,2199,2191,2191,2183,2183,2176,2176,2176,2176,2176,2176,2176,2176,2176,2176,2176,2176,2176,2176,2176,2176,2168,2160,2160,2153,2145,2145,2138,2138,2123,2109,2109,2094,2080,2080,2073,2073,2066,2060,2060,2053,2053,2053,2046,2046,2046,2053,2060,2060,2060,2060,2060,2060,2060,2066,2066,2060,2060,2060,2053,2053,2039,2032,2032,2026,2026,2006,1993,1993,1974,1974,1955,1931,1931,1919,1901,1901,1884,1884,1872,1867,1867,1861,1861,1855,1850,1850,1850,1844,1844,1844,1844,1839,1833,1833,1833,1828,1828,1823,1823,1812,1807,1807,1796,1796,1786,1775,1775,1760,1750,1750,1740,1740,1731,1679,1679,1639,1639,1639,0,0,1529,1529,1507,1507,1496,1492,1492,1492,1492,1507,1507,1518,1518,1533,1549,1549,1560,1572,1572,1576,1584,1584,1588,1592,1592,1597,1597,1601,1609,1609,1613,1622,1622,1630,1630,1643,1656
1193,1193,1200,1204,1204,1211,1219,1219,1223,1228,1228,1231,1231,1236,1238,1238,1243,1251,1251,1261,1274,1274,1285,1298,1298,1315,1326,1326,1340,1340,1355,1370,1370,1379,1388,1388,1407,1430,1430,1450,1471,1471,1489,1507,1507,1522,1533,1533,1545,1545,1545,1549,1549,1549,1549,1549,1549,1556,1556,1560,1564,1564,1572,1572,1576,1584,1584,1597,1605,1605,1617,1635,1635,1648,1648,1684,1697,1697,1712,1721,1721,1731,1731,1731,1736,1740,1740,1750,1750,1755,1760,1760,1765,1775,1775,1786,1796,1796,1812,1812,1823,1839,1839,1850,1861,1861,1884,1907,1907,1937,1955,1955,1980,1980,2006,2026,2026,2046,2060,2060,2066,2066,2066,2066,2066,2080,2087,2087,2102,2109,2109,2131,2153,2153,2168,2168,2183,2199,2199,2215,2239,2239,2255,2272,2263,2263,2263,2263,2272,2272,2280,2297,2297,2314,2323,2323,2332,2332,2349,2367,2367,2376,2376,2367,2367,2367,2386,2404,2404,2404,2423,2423,2423,2442,2433,2433,2433,2433,2433,2423,2404,2404,2376,2376,2349,2340,2340,2332,2332,2323,2323,2323,2323,2323,2332,2332,2332,2332,2349,2358,2358,2358,2367,2367,2376,2386,2386,2395,2395,2395,2414,2376,2376,2395,2395,2423,2423,2452,2471,2471,2501,2522,2522,2543,2574,2574,2596,2596,2607,2607,2607,2618,2618,2618,2618,2618,2618,2618,2618,2607,2607,2607,2607,2607,2607,2618,2618,2618,2618,2618,2618,2618,2618,2629,2618,2618,2618,2618,2607,2607,2607,2618,2618,2618,2629,2629,2629,2640,2640,2652,2652,2663,2675,2675,2698,2698,2698,2710,2722,2722,2746,2746,2758,2758,2746,2734,2734,2722,2722,2710,2710,2710,2710,2710,2710,2710,2734,2734,2758,2783,2783,2808,2834,2834,2874,2887,2887,2928,2928,2928,2928,2874,2874,2874,2874,2874,2874,2887,2887,2887,2901,2914,2914,2928,2928,2928,2956,2956,2970,2985,2985,2999,3014,3014,3014,2999,2999,3014,3014,3014,3014,3014,3014,2999,2985,2985,2970,2970,2956,2942,2942,2914,2887,2887,2874,2874,2860,2834,2834,2808,2796,2796,2796,2796,2771,2758,2758,2734,2734,2722,2686,2686,2640,2607,2607,2607,2686,2652,2607,2607,2585,2585,2553,2543,2543,2543,2543,2553,2553,2564,2564,2574,2585,2585,2607,2607,2607,2607,2618,2618,2618,2607,2596,2596,2585,2585,2564,2553,2553,2532,2512,2512,2471,2471,2452,2423,2423,2395,2395,2376,2349,2349,2340,2323,2323,2305,2305,2297,2280,2280,2280,2280,2272,2272,2272,2263,2255,2255,2239,2239,2231,2223,2223,2215,2207,2207,2191,2191,2176,2168,2168,2160,2160,2160,2160,2160,2160,2153,2153,2153,2160,2153,2153,2153,2153,2153,2153,2153,2153,2153,2145,2145,2138,2138,2145,2138,2138,2123,2109,2109,2094,2080,2080,2073,2073,2066,2060,2060,2053,2053,2053,2046,2046,2046,2053,2060,2060,2060,2060,2060,2060,2060,2066,2066,2066,2066,2066,2060,2060,2039,2032,2032,2026,2026,2006,1993,1993,1974,1961,1955,1931,1931,1919,1901,1901,1884,1884,1872,1867,1867,1861,1861,1855,1850,1850,1850,1844,1844,1844,1844,1839,1833,1833,1833,1828,1828,1823,1823,1812,1807,1807,1796,1786,1786,1775,1775,1760,1750,1750,1740,1740,1731,1679,1679,1639,1639,1639,0,0,1529,1529,1507,1507,1496,1492,1492,1492,1492,1507,1507,1518,1518,1533,1549,1549,1560,1572,1572,1576,1584,1584,1592,1597,1597,1601,1601,1605,1609,1609,1617,1622,1622,1635,1643,1643,1656
1186,1186,1193,1200,1200,1207,1211,1211,1219,1223,1223,1228,1228,1233,1236,1236,1243,1251,1251,1261,1271,1271,1285,1298,1298,1312,1329,1329,1343,1358,1358,1370,1370,1379,1392,1392,1407,1430,1430,1450,1471,1471,1489,1507,1507,1522,1537,1537,1545,1549,1549,1552,1552,1552,1552,1552,1552,1560,1560,1564,1564,1564,1572,1572,1576,1584,1584,1597,1605,1605,1617,1635,1635,1648,1648,1661,1674,1674,1688,1702,1702,1712,1716,1716,1726,1731,1731,1740,1740,1750,1760,1760,1765,1775,1775,1786,1796,1796,1807,1807,1823,1833,1833,1839,1855,1855,1872,1901,1901,1931,1955,1955,1974,1974,2006,2026,2026,2053,2066,2066,2073,2080,2080,2080,2087,2087,2102,2102,2116,2123,2123,2145,2160,2160,2176,2199,2199,2215,2215,2231,2247,2247,2272,2280,2280,2280,2288,2288,2305,2305,2314,2332,2332,2349,2358,2358,2376,2386,2386,2404,2404,2395,2395,2395,2395,2404,2404,2423,2423,2433,2442,2442,2452,2462,2433,2433,2433,2433,2433,2423,2404,2404,2376,2376,2349,2340,2340,2332,2332,2323,2323,2323,2323,2323,2332,2332,2332,2332,2349,2358,2358,2358,2367,2367,2376,2386,2386,2395,2395,2395,2414,2414,2423,2442,2442,2452,2452,2481,2501,2501,2522,2532,2532,2553,2574,2574,2585,2607,2607,2607,2607,2629,2640,2640,2640,2640,2640,2652,2652,2640,2640,2640,2629,2629,2629,2640,2640,2640,2640,2640,2629,2629,2629,2629,2629,2629,2629,2629,2618,2618,2618,2629,2629,2629,2640,2640,2640,2652,2652,2663,2663,2675,2686,2686,2698,2698,2698,2710,2722,2722,2746,2746,2746,2746,2746,2734,2734,2722,2722,2710,2710,2710,2710,2710,2710,2710,2734,2734,2758,2783,2783,2808,2834,2834,2874,2887,2887,2928,2928,2928,2928,2928,2928,2928,2928,2928,2928,2942,2942,2942,2956,2956,2956,2970,2970,2970,2970,2956,2956,2956,2956,2970,2956,2956,2956,2942,2942,2956,2956,3014,3014,3014,3014,2999,2985,2985,2970,2970,2956,2942,2942,2914,2887,2887,2874,2874,2860,2834,2834,2808,2796,2796,2796,2796,2771,2758,2758,2734,2734,2722,2686,2686,2640,2607,2607,2585,2585,2553,2522,2522,2501,2501,2481,2471,2471,2471,2471,2471,2471,2481,2481,2491,2501,2501,2522,2522,2522,2532,2532,2532,2543,2532,2532,2532,2512,2512,2501,2481,2481,2471,2442,2442,2414,2414,2395,2367,2367,2349,2349,2332,2314,2314,2305,2305,2288,2280,2280,2263,2255,2255,2247,2247,2239,2239,2239,2231,2231,2255,2239,2239,2231,2223,2223,2215,2207,2207,2191,2191,2176,2168,2168,2160,2160,2160,2160,2160,2160,2153,2153,2153,2160,2153,2153,2153,2153,2153,2153,2153,2153,2153,2145,2145,2138,2131,2131,2123,2123,2109,2102,2102,2087,2073,2073,2066,2066,2060,2053,2053,2046,2046,2046,2039,2039,2039,2046,2046,2046,2053,2053,2053,2053,2053,2060,2066,2066,2060,2060,2060,2060,2046,2039,2039,2032,2032,2013,2000,2000,1980,1961,1961,1937,1937,1919,1901,1901,1889,1889,1872,1867,1867,1861,1855,1855,1850,1850,1844,1844,1844,1844,1844,1839,1833,1833,1833,1828,1828,1823,1823,1817,1807,1807,1796,1786,1786,1775,1775,1765,1755,1755,1740,1740,1731,1684,1684,1684,0,0,0,0,1529,1529,1507,1507,1496,1492,1492,1492,1492,1507,1507,1518,1518,1533,1549,1549,1560,1572,1572,1576,1584,1584,1592,1597,1597,1601,1601,1605,1609,1609,1617,1622,1622,1630,1643,1643,1656
1186,1186,1193,1200,1200,1207,1211,1211,1219,1223,1223,1228,1228,1233,1236,1236,1243,1251,1251,1261,1271,1271,1285,1298,1298,1312,1329,1329,1343,1358,1358,1370,1370,1382,1392,1392,1407,1430,1430,1450,1468,1468,1489,1507,1507,1522,1533,1533,1545,1549,1549,1552,1552,1552,1552,1552,1552,1556,1556,1564,1564,1564,1568,1568,1572,1580,1580,1584,1597,1597,1605,1617,1617,1630,1630,1643,1656,1656,1670,1684,1684,1697,1702,1702,1716,1726,1726,1736,1736,1745,1755,1755,1765,1781,1781,1786,1801,1801,1807,1807,1817,1833,1833,1839,1855,1855,1872,1901,1901,1931,1955,1955,1974,1974,2006,2039,2039,2060,2080,2080,2087,2094,2094,2102,2109,2109,2123,2123,2131,2138,2138,2160,2176,2176,2191,2207,2207,2215,2215,2231,2247,2247,2272,2280,2280,2280,2288,2288,2305,2305,2314,2332,2332,2349,2358,2358,2376,2386,2386,2404,2404,2395,2395,2395,2395,2404,2404,2423,2423,2433,2442,2442,2452,2462,2452,2452,2452,2452,2471,2471,2462,2462,2442,2442,2442,2433,2433,2433,2423,2423,2423,2433,2423,2414,2414,2414,2414,2414,2414,2414,2414,2414,2414,2414,2414,2423,2423,2433,2433,2442,2442,2442,2462,2471,2471,2491,2501,2501,2522,2522,2532,2543,2543,2553,2574,2574,2585,2607,2607,2607,2607,2629,2640,2640,2640,2640,2640,2652,2652,2640,2640,2640,2629,2629,2629,2640,2640,2640,2640,2640,2629,2629,2629,2629,2629,2629,2629,2629,2618,2618,2618,2629,2629,2629,2640,2640,2640,2652,2652,2663,2663,2675,2686,2686,2698,2710,2710,2722,2722,2722,2746,2746,2746,2746,2746,2734,2734,2722,2722,2710,2710,2710,2698,2698,2710,2710,2722,2722,2746,2783,2783,2808,2847,2847,2887,2928,2928,2956,2956,2956,2970,2970,2970,2985,2985,2985,2985,2970,2970,2970,2985,2985,2970,2970,2970,2970,2970,2956,2956,2956,2956,2970,2956,2956,2956,2942,2942,2956,2942,2942,2928,2928,2928,2914,2901,2901,2887,2887,2860,2860,2860,2821,2808,2808,2771,2771,2746,2722,2722,2710,2710,2686,2675,2675,2652,2629,2629,2607,2607,2585,2553,2553,2522,2522,2501,2471,2471,2442,2442,2433,2414,2414,2395,2395,2395,2395,2395,2395,2395,2404,2404,2423,2433,2433,2452,2462,2462,2471,2471,2481,2491,2491,2532,2532,2512,2512,2501,2481,2481,2471,2442,2442,2414,2414,2395,2367,2367,2349,2349,2332,2314,2314,2305,2305,2288,2280,2280,2263,2255,2255,2247,2247,2239,2239,2239,2231,2223,2223,2215,2215,2215,2207,2207,2199,2183,2183,2176,2176,2168,2153,2153,2145,2145,2145,2138,2138,2138,2138,2138,2138,2138,2138,2138,2138,2138,2138,2138,2138,2138,2131,2123,2123,2123,2116,2116,2109,2109,2102,2094,2094,2080,2073,2073,2066,2066,2060,2053,2053,2046,2046,2046,2039,2039,2039,2046,2046,2046,2053,2053,2053,2053,2053,2060,2066,2066,2060,2060,2060,2060,2053,2046,2046,2039,2039,2019,2006,2006,1987,1968,1968,1943,1943,1925,1907,1907,1889,1889,1872,1867,1867,1861,1855,1855,1850,1850,1844,1844,1844,1844,1844,1839,1833,1833,1833,1828,1828,1823,1823,1817,1807,1807,1796,1786,1786,1775,1775,1765,1755,1755,1740,1740,1731,1684,1684,1684,0,0,0,0,1529,1529,1507,1507,1496,1489,1489,1489,1492,1503,1503,1518,1518,1537,1549,1549,1564,1576,1576,1584,1592,1592,1597,1601,1601,1601,1601,1609,1613,1613,1617,1626,1626,1630,1643,1643,1656
1184,1184,1188,1195,1195,1200,1207,1207,1214,1221,1221,1223,1223,1228,1236,1236,1241,1248,1248,1261,1271,1271,1282,1298,1298,1312,1329,1329,1343,1358,1358,1370,1370,1382,1392,1392,1411,1427,1427,1447,1464,1464,1482,1496,1496,1511,1526,1526,1537,1545,1545,1552,1552,1552,1556,1556,1556,1556,1556,1564,1568,1568,1568,1568,1572,1580,1580,1584,1597,1597,1605,1617,1617,1630,1630,1643,1656,1656,1670,1684,1684,1697,1702,1702,1716,1726,1726,1736,1736,1745,1755,1755,1765,1781,1781,1791,1801,1801,1807,1807,1817,1828,1828,1828,1844,1844,1861,1889,1889,1925,1949,1949,1974,1974,2006,2039,2039,2060,2080,2080,2087,2094,2094,2102,2109,2109,2123,2123,2131,2138,2138,2160,2176,2176,2191,2207,2207,2223,2223,2239,2263,2263,2280,2305,2305,2305,2323,2323,2340,2340,2358,2376,2376,2404,2433,2433,2452,2462,2462,2471,2471,2462,2462,2452,2452,2462,2462,2471,2481,2481,2491,2491,2501,2501,2501,2501,2512,2512,2543,2532,2522,2522,2512,2512,2512,2512,2512,2512,2522,2522,2512,2501,2501,2491,2491,2491,2491,2491,2491,2481,2414,2414,2414,2414,2414,2423,2423,2433,2433,2442,2442,2442,2462,2471,2471,2491,2501,2501,2522,2522,2532,2543,2543,2553,2564,2564,2574,2585,2585,2596,2596,2618,2618,2618,2629,2629,2629,2640,2640,2640,2640,2640,2640,2640,2640,2652,2640,2640,2640,2640,2640,2640,2640,2640,2640,2640,2640,2629,2629,2629,2629,2629,2629,2640,2652,2652,2652,2663,2663,2675,2675,2675,2698,2698,2710,2722,2722,2722,2734,2734,2746,2746,2758,2758,2746,2734,2734,2722,2722,2710,2710,2710,2698,2698,2710,2710,2722,2722,2746,2783,2783,2808,2847,2847,2887,2914,2914,2956,2956,2956,2970,2970,2970,2985,2985,2985,2985,2970,2970,2970,2985,2985,2970,2956,2956,2942,2942,2928,2928,2928,2914,2914,2914,2887,2887,2874,2860,2860,2847,2847,2834,2834,2834,2808,2796,2796,2783,2783,2771,2746,2746,2722,2722,2710,2675,2675,2652,2629,2629,2596,2596,2585,2585,2675,2652,2629,2629,2607,2607,2585,2553,2553,2522,2522,2501,2471,2471,2442,2442,2433,2414,2414,2395,2395,2395,2395,2395,2395,2395,2404,2404,2423,2433,2433,2452,2462,2462,2471,2471,2481,2491,2481,2481,2481,2471,2471,2452,2442,2442,2423,2423,2404,2386,2386,2358,2332,2332,2323,2323,2297,2288,2288,2280,2280,2263,2247,2247,2239,2231,2231,2223,2223,2223,2215,2215,2215,2215,2215,2207,2207,2199,2191,2191,2183,2176,2176,2160,2160,2153,2138,2138,2131,2131,2131,2123,2123,2123,2123,2123,2123,2123,2116,2116,2138,2138,2138,2138,2138,2138,2131,2123,2123,2123,2116,2116,2109,2109,2102,2094,2094,2080,2073,2073,2066,2066,2066,2060,2060,2053,2046,2046,2046,2046,2046,2053,2053,2053,2053,2053,2053,2053,2053,2060,2066,2066,2060,2060,2060,2060,2053,2046,2046,2039,2026,2019,2006,2006,1987,1968,1968,1943,1943,1925,1907,1907,1889,1889,1872,1867,1867,1855,1855,1855,1850,1850,1844,1844,1844,1839,1839,1839,1833,1833,1833,1828,1828,1823,1823,1817,1807,1807,1801,1791,1791,1781,1781,1765,1755,1755,1745,1745,1736,1688,1688,1688,0,0,0,0,1537,1537,1507,1507,1496,1489,1489,1489,1496,1503,1503,1522,1541,1541,1556,1556,1568,1584,1584,1588,1597,1597,1601,1605,1605,1609,1609,1613,1613,1613,1617,1626,1626,1630,1643,1643,1652
1177,1177,1184,1190,1190,1195,1202,1202,1209,1216,1216,1221,1221,1226,1233,1233,1238,1248,1248,1261,1271,1271,1282,1298,1298,1315,1332,1332,1343,1358,1358,1370,1382,1382,1395,1395,1411,1427,1427,1447,1464,1464,1482,1496,1496,1511,1526,1526,1537,1545,1545,1552,1552,1552,1556,1556,1556,1560,1560,1564,1568,1568,1568,1568,1572,1576,1576,1580,1584,1584,1592,1605,1605,1613,1613,1626,1635,1635,1648,1661,1661,1674,1688,1688,1697,1716,1716,1731,1731,1740,1755,1755,1765,1775,1775,1791,1801,1801,1807,1807,1817,1828,1828,1828,1844,1844,1861,1884,1884,1919,1949,1949,1974,1974,2006,2039,2039,2073,2094,2094,2109,2109,2109,2116,2131,2131,2138,2138,2145,2160,2160,2176,2191,2191,2207,2223,2223,2239,2239,2255,2280,2280,2297,2332,2332,2340,2367,2367,2386,2414,2414,2442,2442,2471,2501,2501,2512,2522,2522,2522,2522,2462,2462,2452,2452,2462,2462,2471,2481,2481,2491,2491,2501,2501,2501,2501,2512,2512,2543,2532,2522,2522,2512,2512,2512,2512,2512,2512,2522,2522,2512,2501,2501,2491,2491,2491,2491,2491,2491,2481,2481,2462,2462,2462,2462,2462,2462,2471,2481,2481,2491,2491,2491,2501,2501,2512,2522,2522,2532,2532,2543,2543,2543,2543,2553,2553,2564,2585,2585,2596,2596,2618,2618,2618,2629,2629,2629,2640,2640,2640,2640,2640,2640,2640,2640,2652,2640,2640,2640,2640,2640,2640,2640,2640,2640,2640,2640,2640,2629,2629,2629,2640,2640,2640,2652,2652,2652,2663,2663,2675,2675,2675,2698,2698,2710,2710,2710,2710,2722,2722,2734,2734,2746,2746,2746,2722,2722,2710,2710,2698,2698,2698,2686,2686,2686,2686,2710,2710,2734,2758,2758,2783,2808,2808,2860,2887,2887,2928,2942,2942,2956,2956,2970,2970,2970,2970,2970,2970,2970,2970,2956,2956,2928,2928,2914,2887,2887,2887,2928,2928,2914,2914,2914,2887,2887,2874,2860,2860,2847,2847,2834,2834,2834,2808,2796,2796,2783,2783,2771,2746,2746,2722,2722,2710,2675,2675,2652,2629,2629,2596,2596,2585,2553,2553,2532,2532,2512,2481,2481,2471,2442,2442,2414,2414,2386,2367,2367,2349,2349,2332,2332,2332,2314,2314,2314,2314,2314,2314,2323,2323,2323,2340,2358,2358,2376,2376,2386,2404,2404,2414,2433,2433,2433,2433,2423,2423,2414,2404,2404,2386,2386,2376,2349,2349,2332,2314,2314,2297,2297,2280,2263,2263,2255,2255,2247,2247,2247,2239,2231,2231,2223,2223,2223,2215,2215,2215,2215,2215,2207,2207,2199,2191,2191,2183,2176,2176,2160,2160,2153,2138,2138,2131,2131,2131,2123,2123,2123,2123,2123,2123,2123,2116,2116,2123,2116,2116,2116,2116,2116,2116,2116,2116,2109,2109,2109,2102,2102,2094,2087,2087,2080,2073,2073,2066,2066,2066,2060,2060,2053,2046,2046,2046,2046,2046,2053,2053,2053,2060,2060,2060,2060,2060,2060,2066,2066,2066,2066,2066,2066,2060,2046,2046,2039,2026,2026,2006,2006,1987,1968,1968,1949,1949,1931,1907,1907,1889,1889,1878,1867,1867,1855,1855,1855,1850,1850,1844,1844,1844,1839,1839,1839,1833,1833,1833,1828,1828,1823,1823,1817,1807,1807,1801,1791,1791,1781,1781,1770,1760,1760,1745,1745,1736,1688,1688,1674,1674,1635,1635,0,1537,1537,1507,1507,1496,1489,1489,1489,1496,1503,1503,1522,1541,1541,1556,1556,1568,1584,1584,1588,1597,1597,1601,1605,1605,1609,1609,1613,1617,1617,1622,1626,1626,1635,1643,1643,1652
1177,1177,1184,1190,1190,1195,1202,1202,1209,1216,1216,1221,1221,1226,1233,1233,1238,1251,1251,1261,1271,1271,1285,1298,1298,1315,1332,1332,1343,1358,1358,1370,1382,1382,1395,1395,1411,1427,1427,1444,1457,1457,1471,1489,1489,1503,1514,1514,1529,1537,1537,1545,1549,1549,1552,1552,1556,1560,1560,1564,1568,1568,1572,1572,1572,1576,1576,1576,1580,1580,1584,1588,1588,1597,1597,1605,1617,1617,1626,1643,1643,1656,1670,1670,1684,1684,1702,1716,1716,1740,1755,1755,1765,1775,1775,1791,1801,1801,1812,1812,1817,1828,1828,1833,1844,1844,1861,1884,1884,1919,1949,1949,1974,2013,2013,2046,2046,2080,2109,2109,2116,2123,2123,2131,2131,2131,2138,2138,2145,2160,2160,2176,2191,2191,2207,2223,2223,2239,2239,2255,2280,2280,2297,2332,2332,2340,2367,2367,2386,2414,2414,2442,2442,2471,2501,2501,2512,2522,2522,2522,2522,2501,2501,2491,2491,2501,2501,2501,2501,2501,2501,2501,2512,2522,2522,2522,2543,2543,2564,2564,2553,2553,2543,2543,2553,2553,2564,2564,2585,2596,2574,2564,2564,2553,2553,2553,2553,2553,2543,2532,2532,2522,2522,2512,2512,2512,2512,2522,2522,2522,2522,2522,2532,2532,2532,2532,2543,2543,2543,2543,2543,2543,2543,2543,2553,2553,2564,2574,2574,2585,2585,2596,2596,2596,2607,2607,2607,2618,2618,2629,2629,2629,2640,2640,2640,2640,2640,2640,2640,2640,2640,2640,2640,2640,2640,2640,2640,2640,2629,2629,2629,2640,2640,2652,2652,2652,2663,2663,2663,2663,2663,2663,2663,2663,2675,2675,2675,2675,2675,2675,2686,2686,2698,2698,2686,2675,2675,2663,2663,2663,2698,2698,2686,2686,2686,2686,2710,2710,2734,2758,2758,2783,2808,2808,2860,2887,2887,2928,2942,2942,2956,2956,2970,2970,2970,2970,2970,2970,2970,2970,2956,2956,2928,2928,2914,2887,2887,2860,2834,2834,2821,2821,2808,2771,2771,2746,2746,2734,2710,2710,2710,2698,2698,2686,2686,2675,2663,2663,2652,2640,2640,2618,2618,2596,2574,2574,2553,2553,2522,2501,2501,2471,2452,2452,2423,2423,2404,2376,2376,2358,2358,2332,2314,2314,2280,2280,2263,2255,2255,2239,2231,2231,2223,2223,2223,2223,2223,2223,2323,2323,2323,2340,2358,2358,2376,2376,2386,2404,2404,2414,2433,2433,2433,2433,2423,2423,2414,2404,2404,2386,2386,2376,2349,2349,2332,2314,2314,2297,2297,2280,2263,2263,2255,2255,2247,2231,2231,2223,2207,2207,2199,2199,2199,2199,2199,2199,2199,2199,2191,2191,2191,2183,2183,2176,2168,2168,2153,2153,2138,2131,2131,2123,2123,2116,2116,2116,2109,2109,2109,2109,2109,2102,2102,2102,2102,2102,2102,2102,2102,2102,2102,2102,2094,2094,2094,2094,2094,2094,2087,2087,2080,2073,2073,2073,2073,2066,2066,2066,2060,2060,2060,2053,2053,2053,2060,2060,2060,2060,2060,2060,2060,2060,2066,2066,2066,2066,2073,2066,2066,2060,2053,2053,2046,2032,2032,2013,2013,1993,1974,1974,1949,1949,1931,1907,1907,1889,1889,1878,1867,1867,1855,1855,1855,1850,1850,1844,1844,1844,1839,1839,1839,1833,1833,1833,1828,1828,1823,1823,1817,1807,1807,1801,1791,1791,1781,1781,1770,1760,1760,1750,1750,1740,1707,1707,1674,1674,1635,1635,0,0,0,0,1533,1533,1522,1522,1522,1522,1533,1533,1541,1552,1552,1564,1580,1580,1592,1592,1597,1605,1605,1609,1609,1609,1613,1617,1617,1622,1622,1626,1630,1630,1635,1643,1643,1652
1175,1175,1179,1186,1186,1190,1197,1197,1204,1211,1211,1219,1219,1223,1231,1231,1236,1248,1248,1258,1271,1271,1285,1301,1301,1317,1334,1334,1349,1364,1364,1376,1385,1385,1398,1398,1414,1427,1427,1444,1454,1454,1468,1478,1478,1492,1507,1507,1518,1529,1529,1545,1549,1549,1552,1552,1556,1564,1564,1568,1568,1568,1572,1572,1572,1576,1576,1576,1580,1580,1584,1588,1588,1597,1597,1605,1617,1617,1626,1643,1643,1656,1670,1670,1684,1684,1702,1716,1716,1736,1750,1750,1765,1775,1775,1791,1801,1801,1812,1812,1817,1828,1828,1833,1844,1844,1861,1884,1884,1919,1949,1949,1974,2013,2013,2046,2046,2080,2109,2109,2116,2123,2123,2131,2145,2145,2160,2168,2168,2183,2183,2199,2207,2207,2223,2239,2239,2255,2272,2272,2297,2297,2332,2367,2367,2395,2442,2442,2471,2512,2512,2564,2607,2607,2618,2640,2640,2640,2640,2629,2629,2607,2596,2596,2585,2585,2585,2585,2596,2585,2585,2585,2585,2585,2574,2574,2596,2596,2607,2607,2596,2596,2585,2585,2607,2607,2629,2585,2585,2596,2574,2564,2564,2553,2553,2553,2553,2553,2543,2532,2532,2522,2522,2512,2512,2512,2512,2522,2522,2522,2522,2522,2532,2532,2532,2532,2543,2543,2543,2532,2532,2532,2532,2543,2543,2543,2543,2543,2543,2564,2564,2564,2574,2574,2585,2585,2585,2596,2596,2607,2607,2607,2629,2629,2629,2640,2640,2640,2652,2652,2640,2640,2640,2652,2652,2652,2652,2640,2640,2640,2640,2640,2652,2652,2652,2652,2663,2663,2663,2663,2663,2663,2663,2663,2675,2675,2675,2675,2675,2675,2686,2686,2698,2698,2686,2675,2675,2663,2663,2663,2652,2652,2652,2652,2652,2652,2652,2652,2675,2698,2698,2722,2758,2758,2796,2821,2821,2847,2847,2860,2874,2874,2887,2901,2901,2901,2901,2901,2901,2901,2901,2901,2874,2874,2847,2821,2821,2783,2746,2746,2734,2734,2710,2675,2675,2640,2640,2618,2607,2607,2585,2574,2574,2574,2574,2564,2553,2553,2543,2543,2532,2532,2618,2596,2574,2574,2553,2553,2522,2501,2501,2471,2452,2452,2423,2423,2404,2376,2376,2358,2358,2332,2314,2314,2280,2280,2263,2255,2255,2239,2231,2231,2223,2223,2223,2223,2223,2223,2239,2247,2247,2263,2280,2280,2305,2305,2323,2332,2332,2349,2367,2367,2386,2386,2386,2386,2376,2367,2367,2358,2358,2349,2332,2332,2314,2288,2288,2272,2272,2263,2247,2247,2239,2239,2223,2207,2207,2191,2183,2183,2183,2183,2183,2183,2183,2183,2183,2183,2183,2183,2183,2183,2183,2176,2168,2168,2153,2153,2138,2131,2131,2123,2123,2116,2116,2116,2109,2109,2109,2109,2109,2102,2102,2102,2102,2102,2102,2102,2102,2102,2102,2102,2094,2094,2094,2094,2094,2094,2087,2087,2087,2080,2080,2080,2080,2066,2066,2066,2060,2060,2060,2053,2053,2053,2060,2060,2060,2060,2060,2060,2060,2060,2066,2066,2066,2066,2073,2066,2066,2060,2053,2053,2046,2032,2032,2013,2013,1993,1974,1974,1949,1949,1931,1913,1913,1895,1895,1878,1867,1867,1855,1855,1855,1850,1850,1844,1844,1844,1839,1839,1839,1833,1833,1833,1828,1828,1823,1823,1817,1812,1812,1807,1796,1796,1781,1781,1770,1765,1765,1755,1750,1750,1726,1726,1697,1697,1665,1665,0,0,0,0,0,0,0,0,1556,1556,1560,1560,1564,1576,1576,1580,1580,1580,1592,1592,1597,1605,1605,1609,1609,1609,1613,1617,1617,1622,1622,1626,1630,1630,1635,1643,1643,1652
1170,1170,1177,1181,1181,1186,1195,1195,1202,1209,1209,1219,1219,1223,1231,1231,1236,1248,1248,1258,1271,1271,1287,1306,1306,1326,1343,1343,1358,1373,1373,1382,1395,1395,1404,1417,1417,1430,1430,1444,1454,1454,1468,1478,1478,1492,1507,1507,1518,1529,1529,1537,1545,1545,1549,1549,1556,1560,1560,1568,1568,1568,1572,1568,1568,1572,1572,1572,1576,1576,1580,1584,1584,1592,1592,1601,1609,1609,1617,1630,1630,1648,1665,1665,1684,1684,1702,1716,1716,1736,1750,1750,1765,1781,1781,1791,1801,1801,1812,1817,1817,1828,1828,1833,1844,1844,1867,1889,1889,1919,1949,1949,2013,2013,2013,2053,2094,2094,2116,2116,2131,2138,2138,2153,2160,2160,2176,2191,2191,2199,2199,2215,2223,2223,2247,2255,2255,2272,2288,2288,2323,2323,2367,2433,2433,2481,2543,2543,2607,2640,2564,2564,2607,2607,2618,2640,2640,2640,2640,2629,2629,2607,2596,2596,2585,2585,2585,2585,2596,2585,2585,2585,2585,2585,2574,2574,2596,2596,2607,2607,2596,2596,2585,2585,2607,2607,2629,2640,2640,2652,2652,2629,2629,2629,2618,2618,2618,2618,2607,2585,2585,2564,2564,2564,2553,2553,2553,2553,2553,2543,2543,2553,2543,2543,2543,2543,2543,2543,2543,2532,2532,2532,2532,2543,2543,2543,2543,2543,2543,2564,2564,2564,2574,2574,2585,2585,2585,2596,2596,2607,2607,2607,2629,2629,2629,2640,2640,2640,2652,2652,2640,2640,2640,2652,2652,2652,2652,2640,2640,2640,2640,2640,2652,2652,2652,2640,2640,2652,2640,2629,2629,2618,2618,2618,2618,2618,2618,2618,2607,2607,2618,2618,2640,2640,2640,2629,2629,2618,2618,2618,2618,2618,2618,2618,2618,2618,2618,2618,2629,2652,2652,2675,2698,2698,2722,2734,2734,2758,2758,2771,2783,2783,2783,2783,2783,2901,2901,2901,2901,2901,2901,2901,2874,2874,2847,2821,2821,2783,2746,2746,2734,2734,2710,2675,2675,2640,2640,2618,2607,2607,2585,2574,2574,2574,2574,2564,2553,2553,2543,2543,2532,2512,2512,2501,2471,2471,2452,2452,2423,2395,2395,2376,2376,2349,2332,2332,2297,2297,2272,2255,2255,2239,2215,2215,2207,2207,2199,2191,2191,2191,2183,2183,2183,2183,2183,2183,2191,2191,2199,2207,2207,2223,2223,2239,2247,2247,2263,2280,2280,2297,2314,2314,2332,2332,2340,2340,2340,2332,2332,2332,2332,2323,2323,2332,2314,2288,2288,2272,2272,2263,2247,2247,2239,2239,2223,2207,2207,2191,2183,2183,2183,2183,2183,2183,2183,2183,2183,2183,2183,2183,2183,2183,2183,2176,2168,2168,2153,2153,2138,2123,2123,2109,2109,2109,2102,2102,2094,2094,2094,2094,2094,2094,2087,2087,2087,2087,2087,2087,2087,2087,2087,2087,2087,2087,2087,2087,2087,2087,2087,2087,2087,2080,2080,2080,2080,2080,2080,2080,2073,2073,2080,2073,2073,2073,2080,2080,2080,2080,2080,2080,2080,2080,2080,2080,2073,2073,2073,2066,2066,2060,2053,2053,2046,2032,2032,2019,2019,2000,1974,1974,1955,1955,1931,1913,1913,1895,1895,1878,1867,1867,1855,1855,1855,1850,1850,1844,1844,1844,1839,1839,1839,1833,1833,1833,1828,1828,1823,1823,1817,1812,1812,1807,1796,1796,1781,1781,1770,1765,1765,1755,1750,1750,1726,1726,1697,1693,1665,1665,1679,1661,1639,1639,1622,1622,1605,1597,1556,1556,1560,1560,1564,1576,1576,1584,1592,1592,1601,1601,1609,1613,1613,1613,1617,1617,1617,1622,1622,1626,1626,1630,1630,1630,1635,1643,1643,1652
1170,1170,1177,1181,1181,1186,1195,1195,1202,1209,1209,1216,1216,1221,1231,1231,1236,1248,1248,1258,1271,1271,1287,1306,1306,1326,1343,1343,1358,1373,1373,1382,1395,1395,1404,1417,1417,1430,1430,1444,1454,1454,1464,1471,1471,1482,1492,1492,1507,1518,1518,1529,1537,1537,1545,1545,1549,1556,1556,1560,1564,1564,1564,1564,1564,1568,1568,1568,1572,1572,1576,1580,1580,1584,1584,1592,1609,1609,1617,1630,1630,1648,1665,1665,1684,1702,1702,1716,1716,1736,1755,1755,1770,1786,1786,1796,1807,1807,1817,1823,1823,1828,1828,1833,1850,1850,1867,1889,1889,1919,1949,1949,2013,2013,2013,2053,2094,2094,2116,2116,2131,2138,2138,2153,2160,2160,2176,2191,2191,2199,2199,2215,2223,2223,2247,2255,2255,2272,2288,2288,2323,2323,2367,2433,2433,2481,2543,2543,2607,2640,2640,2675,2710,2710,2746,2746,2746,2734,2734,2722,2722,2698,2686,2686,2686,2686,2686,2686,0,2675,2675,2675,2675,2686,2675,2675,2698,2698,2698,2698,2698,0,0,2675,2675,2675,2698,2698,2698,2698,2698,2686,2686,2675,2675,2675,2652,2652,2629,2618,2618,2596,2596,2596,2585,2585,2585,2574,2574,2564,2564,2564,2543,2543,2543,2543,2543,2532,2532,2532,2532,2532,2532,2532,2532,2532,2532,2532,2532,2543,2543,2553,2553,2553,2564,2574,2574,2585,2585,2607,2607,2607,2629,2629,2629,2640,2640,2640,2652,2652,2652,2652,2652,2652,2663,2652,2652,2652,2640,2640,2640,2629,2629,2629,2629,2607,2607,2607,2596,2596,2574,2574,2574,2574,2564,2564,2564,2618,2607,2607,2618,2618,2640,2640,2640,2629,2629,2618,2618,2618,2618,2618,2618,2618,2618,2618,2618,2618,2629,2652,2652,2675,2698,2698,2722,2734,2734,2758,2758,2771,2783,2783,2783,2783,2783,2796,2796,2796,2796,2796,2808,2808,2783,2783,2758,2746,2746,2710,2710,2686,2652,2652,2629,2596,2596,2564,2564,2543,2522,2522,2491,2491,2481,2481,2481,2471,2462,2462,2442,2442,2442,2423,2423,2404,2404,2386,2367,2367,2349,2332,2332,2305,2305,2280,2263,2263,2247,2247,2231,2215,2215,2199,2183,2183,2176,2176,2176,2191,2191,2191,2183,2183,2183,2183,2183,2183,2191,2191,2199,2207,2207,2223,2223,2239,2247,2247,2263,2280,2280,2297,2314,2314,2332,2332,2340,2340,2340,2332,2332,2332,2332,2323,2305,2305,2288,2263,2263,2247,2247,2231,2223,2223,2215,2215,2199,2183,2183,2168,2160,2160,2160,2160,2160,2160,2168,2168,2176,2176,2176,2183,2183,2183,2183,2176,2168,2168,2153,2153,2138,2123,2123,2109,2109,2102,2094,2094,2087,2080,2080,2080,2080,2080,2080,2080,2073,2073,2073,2073,2073,2073,2073,2073,2073,2073,2073,2073,2087,2087,2087,2087,2087,2087,2087,2080,2080,2080,2080,2087,2087,2087,2087,2087,2094,2094,2094,2109,2102,2102,2102,2102,2094,2094,2087,2087,2087,2080,2080,2073,2073,2060,2053,2053,2046,2032,2032,2019,2019,2000,1974,1974,1955,1955,1931,1913,1913,1895,1895,1878,1867,1867,1855,1855,1855,1850,1850,1844,1844,1844,1839,1839,1839,1833,1833,1833,1828,1828,1823,1823,1823,1812,1812,1807,1796,1796,1786,1786,1775,1770,1770,1760,1755,1755,1736,1736,1716,1693,1693,1679,1679,1661,1639,1639,1622,1622,1605,1597,1597,1597,1597,1597,1597,1605,1605,1605,1609,1609,1617,1622,1622,1622,1622,1626,1626,1626,1626,1626,1626,1630,1630,1630,1635,1635,1639,1643,1643,1652
1168,1168,1172,1179,1179,1184,1190,1190,1200,1209,1209,1216,1216,1221,1231,1231,1238,1246,1246,1253,1269,1269,1293,1315,1315,1337,1355,1355,1373,1385,1385,1395,1401,1401,1414,1424,1424,1434,1444,1444,1454,1454,1464,1471,1471,1482,1492,1492,1507,1518,1518,1529,1537,1537,1545,1545,1549,1556,1556,1560,1564,1564,1564,1564,1564,1568,1568,1568,1572,1572,1576,1580,1580,1584,1584,1592,1601,1601,1609,1626,1626,1643,1661,1661,1684,1702,1702,1716,1716,1736,1755,1755,1770,1786,1786,1796,1807,1807,1817,1823,1823,1828,1828,1833,1850,1850,1867,1889,1889,1919,1949,1949,2019,2019,2019,2060,2094,2094,2123,2138,2138,2153,2153,2160,2176,2176,2191,2199,2199,2215,2231,2231,2247,2247,2255,2272,2272,2297,2314,2314,2358,2423,2423,2501,2553,2553,2618,2686,2686,2710,2771,2771,2796,2796,2834,2847,2834,2821,2821,2808,2808,2783,2783,2808,2808,2834,2834,2834,0,2834,2834,2847,2847,2847,2847,2698,2698,2698,2698,2698,2698,2746,2746,2675,2675,2675,2698,2698,2698,2698,2698,2686,2686,2675,2675,2675,2652,2652,2629,2618,2618,2596,2596,2596,2585,2585,2585,2574,2574,2564,2564,2564,2553,2553,2553,2543,2543,2532,2532,2532,2522,2522,2522,2522,2522,2522,2522,2522,2522,2543,2543,2553,2553,2553,2564,2574,2574,2585,2585,2607,2618,2618,2629,2640,2640,2663,2663,2663,2675,2675,2675,2675,2675,2663,2663,2652,2652,2652,2640,2640,2640,2629,2629,2629,2629,2607,2607,2607,2596,2596,2574,2574,2574,2574,2564,2564,2553,2553,2543,2543,2553,2553,2564,2574,2574,2574,2574,2564,2564,2564,2564,2564,2564,2574,2564,2564,2564,2564,2564,2574,2574,2596,2607,2607,2618,2618,2618,2618,2618,2618,2640,2640,2640,2640,2652,2652,2652,2652,2663,2663,2675,2675,2675,2675,2652,2652,2652,2618,2618,2596,2574,2574,2543,2543,2512,2481,2481,2462,2462,2522,2491,2491,2481,2481,2481,2471,2462,2462,2442,2442,2442,2423,2423,2404,2404,2386,2367,2367,2349,2332,2332,2305,2305,2280,2263,2263,2247,2247,2231,2215,2215,2199,2183,2183,2176,2176,2168,2168,2168,2153,2153,2145,2145,2153,2153,2153,2153,2153,2160,2168,2168,2183,2183,2191,2207,2207,2223,2239,2239,2255,2272,2272,2280,2280,2288,2297,2297,2297,2297,2288,2288,2288,2272,2272,2255,2247,2247,2231,2231,2215,2199,2199,2191,2191,2176,2160,2160,2153,2145,2145,2145,2145,2145,2153,2160,2160,2160,2168,2168,2183,2183,2183,2183,2176,2168,2168,2153,2153,2138,2123,2123,2109,2109,2102,2094,2094,2087,2080,2080,2080,2080,2080,2080,2080,2073,2073,2073,2073,2073,2073,2073,2073,2073,2073,2073,2073,2073,2073,2080,2080,2080,2080,2080,2080,2080,2080,2080,2087,2087,2087,2087,2087,2094,2094,2094,2109,2102,2102,2102,2102,2094,2094,2087,2087,2087,2080,2080,2073,2066,2060,2053,2053,2046,2032,2032,2019,2019,2000,1980,1980,1955,1955,1937,1919,1919,1901,1884,1884,1867,1867,1855,1855,1855,1850,1850,1844,1844,1844,1839,1839,1839,1833,1833,1833,1828,1828,1823,1823,1823,1817,1817,1807,1796,1796,1786,1786,1781,1770,1770,1765,1760,1760,1750,1750,1736,1721,1721,1721,0,0,0,0,1622,1622,1605,1597,1597,1597,1597,1597,1597,1605,1605,1605,1609,1609,1617,1622,1622,1622,1622,1626,1626,1626,1626,1626,1626,1630,1630,1630,1635,1635,1639,1643,1643,1652
1168,1168,1172,1179,1179,1184,1190,1190,1200,1209,1209,1216,1223,1223,1231,1231,1238,1246,1246,1253,1269,1269,1293,1317,1317,1343,1367,1367,1382,1395,1395,1404,1411,1411,1420,1427,1427,1434,1440,1440,1447,1447,1457,1464,1464,1471,1478,1478,1492,1507,1507,1514,1514,1526,1533,1533,1541,1549,1549,1556,1560,1560,1560,1560,1560,1564,1564,1564,1568,1568,1568,1572,1572,1580,1580,1584,1597,1597,1609,1626,1626,1643,1661,1661,1684,1702,1702,1721,1721,1740,1760,1760,1775,1791,1791,1801,1812,1812,1823,1828,1828,1833,1833,1844,1855,1855,1872,1895,1895,1925,1955,1955,2019,2019,2019,2060,2094,2094,2131,2138,2138,2160,2160,2168,2183,2183,2207,2223,2223,2231,2247,2247,2263,2263,2272,2297,2297,2314,2314,2314,2358,2423,2423,2501,2553,2553,2618,2686,2686,2710,2771,2771,2796,2796,2834,2847,2834,2821,2821,2808,2808,2783,2783,2808,2808,2834,2834,2834,0,2834,2834,2847,2847,2847,2847,2847,2860,2860,2847,2847,2783,2746,2746,2746,2758,2758,2758,2771,2771,2796,2796,2771,2771,2758,2758,2758,2734,2710,2710,2686,2686,2663,2652,2652,2640,2640,2618,2607,2607,2585,2585,2585,2574,2574,2553,2553,2553,2532,2532,2532,2522,2522,2522,2522,2522,2522,2522,2522,2522,2543,2543,2553,2564,2564,2574,2585,2585,2607,2607,2607,2618,2618,2629,2640,2640,2663,2663,2663,2675,2675,2675,2675,2675,2663,2663,2652,2652,2652,2640,2640,2629,2618,2618,2607,2607,2596,2574,2574,2574,2574,2553,2543,2543,2532,2512,2512,2501,2501,2501,2501,2501,2501,2512,2522,2522,2522,2522,2512,2512,2512,2522,2532,2532,2532,2532,2532,2532,2522,2522,2522,2522,2522,2522,2607,2618,2618,2618,2618,2618,2618,2640,2640,2640,2640,2652,2652,2652,2652,2663,2663,2675,2675,2675,2675,2652,2652,2652,2618,2618,2596,2574,2574,2543,2543,2512,2481,2481,2462,2442,2442,2414,2414,2395,2386,2386,2386,2386,2386,2367,2367,2358,2340,2340,2332,2332,2323,2314,2314,2288,2272,2272,2255,2255,2239,2223,2223,2207,2207,2191,2176,2176,2168,2160,2160,2153,2153,2145,2138,2138,2138,2138,2131,2131,2138,2138,2138,2138,2138,2145,2153,2153,2160,2160,2168,2168,2168,2183,2199,2199,2215,2231,2231,2280,2280,2288,2297,2297,2297,2297,2288,2288,2288,2272,2272,2255,2247,2247,2231,2231,2215,2199,2199,2191,2191,2176,2160,2160,2153,2145,2145,2145,2145,2145,2153,2160,2160,2160,2168,2168,2176,2176,2176,2176,2168,2160,2160,2153,2153,2131,2116,2116,2102,2102,2094,2087,2087,2080,2073,2073,2073,2073,2066,2066,2066,2060,2060,2060,2060,2066,2066,2066,2066,2060,2060,2066,2066,2066,2066,2066,2073,2073,2073,2073,2073,2080,2087,2087,2087,2087,2094,2102,2102,2109,2116,2116,2123,2123,2123,2123,2116,2109,2109,2102,2102,2094,2087,2087,2073,2066,2066,2060,2060,2046,2032,2032,2019,2019,2000,1980,1980,1961,1961,1937,1919,1919,1901,1884,1884,1872,1872,1861,1855,1855,1850,1850,1844,1844,1844,1839,1839,1839,1833,1833,1833,1828,1828,1823,1823,1823,1817,1817,1807,1796,1796,1786,1786,1781,1770,1770,1765,1760,1760,1750,1750,1736,1721,1721,1721,1731,1731,1726,1726,1712,1697,1697,1684,1684,1670,1626,1626,1626,1630,1626,1626,1630,1630,1630,1630,1630,1630,1630,1630,1630,1630,1630,1635,1635,1635,1635,1635,1635,1635,1639,1643,1643,1652
1168,1168,1172,1179,1179,1184,1190,1190,1200,1209,1209,1216,1223,1223,1231,1231,1238,1246,1246,1253,1266,1266,1293,1317,1317,1343,1367,1367,1382,1395,1395,1404,1411,1411,1420,1427,1427,1434,1437,1437,1444,1444,1450,1454,1454,1461,1468,1468,1478,1492,1492,1500,1500,1511,1518,1518,1529,1537,1537,1549,1552,1552,1556,1556,1560,1564,1564,1564,1568,1568,1568,1572,1572,1580,1580,1584,1597,1597,1609,1626,1626,1643,1665,1665,1684,1707,1707,1721,1721,1745,1765,1765,1781,1791,1791,1807,1812,1812,1828,1828,1828,1833,1833,1844,1855,1855,1872,1895,1895,1925,1955,1955,1987,2019,2019,2053,2094,2094,2131,2138,2138,2160,2160,2168,2183,2183,2207,2223,2223,2231,2247,2247,2263,2263,2272,2297,2297,2314,2340,2340,2386,0,2532,2532,2596,2596,2663,2710,2710,2746,2783,2783,2821,2834,2834,2847,2834,2821,2821,2821,2821,2821,2821,2847,2847,2860,0,0,0,0,2914,2914,2914,2914,0,2914,2914,2914,2887,2887,2847,2847,0,0,0,0,0,0,0,0,0,2834,2834,2808,2783,2783,2746,2722,2722,2698,2698,2663,2652,2652,2640,2640,2618,2607,2607,2585,2585,2585,2574,2574,2553,2553,2553,2532,2522,2522,2522,2522,2512,2501,2501,2501,2512,2512,2512,2522,2522,2532,2543,2543,2543,2564,2564,2574,2574,2596,2607,2607,2640,2652,2652,2675,2675,2675,2698,2698,2698,2698,2686,2686,2686,2663,2663,2652,2640,2640,2618,2607,2607,2585,2585,2585,2574,2574,2574,2574,2553,2543,2543,2532,2512,2512,2501,2501,2501,2501,2501,2501,2512,2522,2522,2522,2522,2512,2512,2512,2522,2532,2532,2532,2532,2532,2532,2522,2522,2522,2522,2522,2522,2512,2512,2512,2501,2501,2501,2501,2501,2501,2512,2512,2522,2522,2522,2532,2543,2543,2564,2564,2564,2564,2553,2543,2543,2522,2522,2512,2481,2481,2452,2452,2433,2404,2404,2386,2386,2367,2349,2349,2332,2323,2323,2323,2323,2323,2305,2305,2305,2297,2297,2288,2288,2280,2272,2272,2263,2263,2247,2223,2223,2223,2223,2223,2207,2207,2191,2176,2176,2168,2160,2160,2153,2153,2145,2138,2138,2138,2138,2131,2131,2138,2138,2138,2138,2138,2145,2153,2153,2160,2160,2168,2168,2168,2183,2199,2199,2215,2231,2231,2239,2239,2255,2263,2263,2263,2263,2263,2263,2263,2255,2255,2247,2223,2223,2207,2207,2199,2183,2183,2176,2176,2160,2153,2153,2138,2131,2131,2131,2138,2138,2138,2145,2145,2153,2160,2160,2168,2168,2168,2168,2160,2153,2153,2145,2145,2123,2109,2109,2094,2087,2087,2080,2080,2073,2066,2066,2066,2066,2060,2060,2066,2060,2060,2060,2060,2066,2066,2066,2066,2060,2060,2066,2066,2066,2066,2066,2073,2073,2073,2073,2073,2080,2087,2087,2087,2087,2102,2109,2109,2116,2131,2131,2138,2138,2131,2131,2116,2109,2109,2102,2102,2094,2087,2087,2073,2066,2066,2060,2060,2046,2032,2032,2019,2019,2000,1980,1980,1961,1961,1937,1919,1919,1901,1884,1884,1872,1872,1861,1855,1855,1850,1850,1844,1844,1844,1839,1839,1839,1833,1833,1833,1828,1828,1823,1817,1817,1817,1817,1812,1801,1801,1791,1786,1781,1775,1775,1770,1765,1765,1760,1760,1750,1740,1740,1736,1731,1731,1726,1726,1712,1697,1697,1684,1684,1670,1661,1661,1656,1656,1648,1643,1643,1643,1643,1643,1643,1643,1639,1639,1639,1639,1639,1639,1639,1639,1635,1635,1635,1635,1639,1643,1643,1652
1168,1168,1175,1181,1181,1188,1195,1195,1202,1211,1211,1216,1226,1226,1231,1231,1241,1246,1246,1256,1266,1266,1295,0,0,1373,1373,1373,1388,1401,1401,1411,1417,1417,1427,1427,1427,1434,1437,1437,1444,1444,1450,1454,1454,1461,1468,1468,1478,1492,1492,1500,1500,1511,1518,1518,1529,1537,1537,1549,1552,1552,1556,1556,1556,1556,1556,1560,1564,1564,1568,1572,1572,1580,1580,1584,1597,1597,1609,1626,1626,1643,1665,1665,1684,1707,1707,1721,1721,1745,1765,1765,1781,1791,1791,1807,1812,1812,1828,1833,1833,1844,1844,1850,1861,1861,1884,1901,1901,1931,1961,1961,1987,2019,2019,2053,2094,2094,2116,2138,2138,2153,2153,2168,2183,2183,2207,2223,2223,2231,2255,2255,2272,2272,2280,2305,2305,2332,2358,2358,2404,0,2553,2553,2607,2607,2663,2710,2710,2746,2783,2783,2821,2834,2834,2847,2834,2821,2821,2821,2821,2821,2821,2847,2847,2860,2887,2887,2928,2928,2914,2914,2914,2914,2999,2914,2914,2914,2887,2887,2847,2847,0,0,0,0,0,0,0,0,0,2834,2834,2783,2758,2758,2710,2675,2675,2640,2640,2629,2607,2607,2596,2596,2585,2574,2574,2564,2564,2564,2564,2564,2543,2543,2543,2522,2501,2501,2491,2491,2481,2471,2471,2471,2471,2512,2512,2522,2522,2532,2543,2543,2543,2564,2564,2574,2574,2596,2607,2607,2640,2652,2652,2675,2686,2686,2710,2710,2722,2722,2710,2698,2698,2686,2686,2663,2640,2640,2618,2607,2607,2585,2585,2574,2553,2553,2532,2532,2522,2501,2501,2491,2471,2471,2471,2471,2452,2452,2462,2462,2462,2462,2462,2471,2462,2452,2452,2452,2452,2452,2452,2452,2452,2442,2442,2423,2423,2423,2414,2414,2414,2414,2414,2395,2395,2386,2376,2376,2376,2395,2404,2404,2404,2414,2414,2433,2433,2442,2452,2452,2462,2462,2452,2452,2452,2522,2522,2512,2481,2481,2452,2452,2433,2404,2404,2386,2386,2367,2349,2349,2332,2323,2323,2323,2323,2323,2305,2305,2305,2297,2297,2288,2288,2280,2272,2272,2263,2263,2247,2223,2223,2215,2199,2199,2183,2183,2176,2160,2160,2153,2145,2145,2138,2138,2131,2131,2131,2131,2131,2123,2123,2123,2123,2123,2123,2123,2131,2138,2138,2145,2145,2153,2153,2153,2160,2176,2176,2191,2191,2207,2215,2215,2231,2247,2247,2247,2247,2247,2247,2247,2247,2247,2231,2223,2223,2207,2207,2191,2176,2176,2168,2168,2153,2153,2153,2138,2131,2131,2131,2138,2138,2138,2145,2145,2153,2160,2160,2168,2168,2168,2168,2160,2153,2153,2145,2145,2123,2109,2109,2094,2087,2087,2080,2080,2073,2066,2066,2066,2066,2060,2060,2060,2053,2053,2053,2053,2053,2053,2053,2053,2053,2053,2053,2053,2060,2060,2060,2066,2066,2066,2073,2073,2080,2087,2087,2087,2087,2102,2109,2109,2116,2131,2131,2138,2138,2131,2131,2131,2123,2123,2109,2109,2094,2087,2087,2080,2066,2066,2060,2060,2046,2032,2032,2019,2019,2000,1987,1987,1961,1961,1943,1925,1925,1907,1889,1889,1872,1872,1861,1855,1855,1850,1850,1844,1844,1844,1839,1839,1839,1833,1833,1833,1828,1828,1823,1817,1817,1817,1817,1812,1801,1801,1791,1786,1786,1775,1775,1770,1765,1765,1760,1760,1750,1740,1740,1736,1731,1731,1726,1726,1712,1697,1697,1684,1684,1670,1661,1661,1656,1656,1648,1643,1643,1643,1643,1643,1643,1643,1639,1639,1639,1639,1639,1639,1639,1639,1639,1639,1639,1639,1639,1643,1643,1652
1172,1172,1179,1184,1184,1190,1197,1197,1204,1211,1211,1221,1228,1228,1236,1236,1243,1253,1253,1261,0,0,0,0,0,1373,1373,1373,1388,1401,1401,1411,1417,1417,1427,1427,1427,1434,1437,1437,1440,1440,1440,1447,1447,1450,1457,1457,1464,1478,1478,1489,1489,1503,1511,1511,1522,1529,1529,1537,1545,1545,1549,1549,1549,1552,1552,1556,1560,1560,1564,1572,1572,1580,1580,1588,1597,1597,1613,1626,1626,1648,1670,1670,1688,1707,1707,1726,1750,1750,1770,1770,1786,1801,1801,1807,1823,1823,1828,1839,1839,1850,1855,1855,1867,1867,1889,1913,1913,1937,1961,1961,1993,2019,2019,2053,2094,2094,2116,2138,2138,2153,2153,2168,2183,2183,2207,2223,2223,2231,2247,2247,2272,2272,2280,2305,2305,2332,2358,2358,2404,0,2553,2553,2607,2607,2652,2686,2686,2722,2746,2746,2796,2796,2808,2821,2808,2808,2808,2808,2821,2821,2821,2847,2847,2874,2887,2887,2928,2928,2928,2985,2999,2999,2999,2999,3089,3089,3089,3089,0,0,0,0,0,0,0,0,0,0,0,0,0,2783,2758,2758,2710,2675,2675,2640,2640,2629,2607,2607,2596,2596,2585,2574,2574,2564,2564,2564,2564,2564,2543,2543,2543,2522,2501,2501,2491,2491,2481,2471,2471,2471,2462,2462,2462,2471,2471,2471,2471,2471,2481,2491,2491,2512,2512,2522,2553,2553,2574,2596,2596,2640,2663,2663,2698,2698,2722,2722,2710,2686,2686,2663,2663,2629,2607,2607,2574,2574,2553,2543,2543,2512,2501,2501,2481,2481,2462,2452,2452,2442,2423,2423,2414,2414,2404,2404,2404,2404,2404,2395,2395,2395,2386,2376,2376,2376,2452,2452,2452,2452,2452,2442,2442,2423,2423,2423,2414,2414,2414,2414,2414,2395,2395,2386,2376,2376,2376,2395,2404,2404,2404,2414,2414,2433,2433,2442,2452,2452,2462,2462,2452,2452,2442,2433,2433,2423,2395,2395,2376,2376,2358,2340,2340,2332,2332,2314,2297,2297,2280,2280,2280,2280,2280,2272,2272,2272,2263,2255,2255,2247,2247,2247,2247,2247,2231,2231,2223,2207,2207,2191,2183,2183,2168,2168,2160,2145,2145,2138,2131,2131,2123,2123,2123,2116,2116,2116,2116,2109,2109,2109,2109,2116,2116,2116,2123,2138,2138,2145,2145,2153,2153,2153,2160,2176,2176,2191,2191,2207,2215,2215,2231,2247,2247,2247,2247,2247,2247,2247,2247,2247,2231,2223,2223,2207,2207,2191,2176,2176,2168,2168,2153,2145,2145,2131,2123,2123,2123,2131,2131,2131,2145,2145,2153,2160,2160,2168,2168,2168,2168,2160,2153,2153,2138,2138,2123,2109,2109,2094,2080,2080,2073,2073,2066,2066,2066,2060,2060,2060,2053,2053,2046,2046,2046,2046,2046,2046,2046,2046,2046,2046,2046,2046,2053,2053,2053,2060,2060,2066,2066,2066,2073,2080,2080,2087,2087,2102,2109,2109,2116,2138,2138,2138,2145,2145,2145,2138,2123,2123,2116,2116,2109,2087,2087,2080,2066,2066,2060,2060,2046,2032,2032,2019,2019,2000,1987,1987,1968,1968,1943,1925,1925,1907,1889,1889,1872,1872,1861,1855,1855,1850,1850,1844,1844,1844,1839,1839,1839,1833,1833,1828,1828,1828,1823,1817,1817,1812,1812,1807,1801,1801,1791,1786,1786,1775,1775,1770,1765,1765,1765,1765,1760,1755,1755,1750,1745,1745,1740,1740,1731,1721,1721,1707,1707,1693,1688,1688,1674,1661,1661,1656,1656,1652,1652,1652,1652,1648,1648,1643,1643,1643,1643,1643,1643,1643,1643,1643,1643,1643,1643,1648,1648,1652
1172,1172,1179,1184,1184,1190,1197,1197,1204,1211,1211,1221,1228,1228,1236,1236,1243,1253,1253,1261,0,0,0,0,0,0,1392,1392,1392,1407,1407,1414,1424,1424,1430,1430,1430,1434,1437,1437,1440,1440,1440,1444,1444,1447,1454,1454,1461,1471,1471,1489,1489,1503,1511,1511,1522,1529,1529,1537,1545,1545,1549,1549,1549,1552,1552,1556,1560,1560,1564,1572,1572,1584,1584,1592,1605,1605,1617,1635,1635,1652,1674,1674,1693,1712,1712,1726,1750,1750,1770,1770,1786,1801,1801,1807,1823,1823,1828,1839,1839,1850,1855,1855,1867,1867,1889,1913,1913,1937,1961,1961,1993,2019,2019,2046,2080,2080,2109,2123,2123,2138,2138,2153,2176,2176,2191,2207,2207,2223,2239,2239,2263,2272,2280,2314,2314,2340,2376,2376,2501,2501,2501,2564,2607,2607,2652,2675,2675,2698,2734,2734,2771,2771,2808,2821,2808,2808,2808,2808,2821,2834,2834,2874,2874,2914,2942,2942,3014,3014,3014,3074,3120,3120,3120,3105,3089,3089,3089,3089,0,0,0,0,0,0,0,0,0,0,0,0,0,2783,2758,2758,2710,2675,2675,2585,2585,2585,2543,2543,2532,2532,2522,2522,2532,2532,2543,2543,2532,2532,2532,2522,2522,2501,2491,2491,2481,2481,2462,2462,2462,2452,2452,2452,2452,2452,2442,2442,2452,2452,2452,2471,2471,2481,2481,2501,2532,2532,2564,2596,2596,2629,2663,2663,2698,2698,2722,2722,2710,2686,2686,2663,2663,2629,2607,2607,2574,2574,2553,2543,2543,2512,2501,2501,2481,2481,2462,2452,2452,2442,2423,2423,2414,2414,2404,2404,2404,2404,2404,2395,2395,2395,2386,2376,2376,2376,2376,2367,2367,2376,2367,2349,2349,2349,2349,2340,2340,2340,2340,2332,2332,2323,2323,2305,2305,2314,2305,2305,2323,2323,2323,2323,2332,2332,2332,2340,2340,2340,2340,2332,2323,2323,2323,2314,2314,2305,2305,2297,2297,2297,2288,2288,2288,2288,2288,2280,2272,2272,2255,2247,2247,2247,2247,2239,2239,2239,2231,2231,2255,2247,2247,2247,2247,2247,2231,2231,2223,2207,2207,2191,2183,2183,2168,2168,2160,2145,2145,2138,2131,2131,2123,2123,2123,2116,2116,2116,2116,2109,2109,2109,2109,2116,2116,2116,2123,2123,2123,2131,2131,2138,2138,2138,2145,2160,2160,2168,2168,2191,2199,2199,2215,2223,2223,2231,2239,2239,2239,2239,2239,2239,2223,2215,2215,2199,2199,2191,2168,2168,2160,2160,2153,2145,2145,2131,2123,2123,2123,2131,2131,2131,2145,2145,2153,2160,2160,2168,2168,2160,2160,2160,2153,2153,2138,2138,2123,2109,2109,2094,2080,2080,2073,2073,2066,2066,2066,2060,2060,2060,2053,2053,2046,2046,2046,2046,2046,2046,2046,2046,2046,2046,2046,2046,2053,2053,2053,2060,2060,2066,2066,2066,2073,2080,2080,2087,2087,2102,2109,2109,2116,2138,2138,2138,2145,2145,2145,2138,2123,2123,2116,2116,2109,2087,2087,2080,2066,2066,2053,2053,2046,2032,2032,2013,2013,2000,1987,1987,1961,1943,1943,1925,1925,1907,1889,1889,1872,1872,1861,1855,1855,1850,1850,1844,1844,1844,1839,1839,1839,1833,1833,1828,1828,1828,1823,1817,1817,1812,1812,1807,1801,1801,1791,1786,1786,1781,1781,1775,1770,1770,1765,1765,1760,1760,1760,1760,1755,1755,1750,1750,1740,1731,1731,1721,1707,1707,1697,1697,1688,1674,1674,1665,1665,1652,1652,1652,1652,1648,1648,1643,1643,1643,1643,1643,1643,1643,1643,1643,1643,1643,1643,1648,1648,1652
1179,1184,1184,1190,1190,1195,1202,1202,1209,1216,1216,1221,1233,1233,1238,1248,1248,1256,1256,1266,0,0,0,0,0,0,1395,1395,1395,1407,1407,1417,1424,1424,1434,1434,1434,1434,1437,1437,1440,1440,1440,1444,1444,1447,1454,1454,1461,1471,1471,1482,1482,1489,1500,1500,1507,1518,1518,1526,1533,1533,1537,1537,1541,1545,1545,1549,1556,1556,1564,1572,1572,1584,1584,1592,1605,1605,1617,1635,1635,1652,1674,1674,1693,1712,1712,1736,1755,1755,1775,1791,1791,1807,1807,1812,1828,1828,1839,1850,1850,1855,1867,1867,1878,1878,1895,1919,1919,1943,1968,1968,1993,2013,2013,2046,2080,2080,2109,2123,2123,2138,2138,2153,2176,2176,2191,2207,2207,2223,2239,2239,2263,2280,2280,2314,2314,2349,2386,2386,2501,2501,2501,2564,2607,2607,2652,2675,2675,2698,2734,2734,2771,2771,2783,2783,2783,2783,2783,2783,2808,2821,2821,2874,2874,2901,2928,2928,3014,3014,3014,3074,3120,3120,3120,3105,3089,3089,3089,3089,0,0,0,0,0,0,0,0,0,2618,2618,2596,2596,2585,2574,2574,2564,2564,2543,2532,2532,2532,2522,2522,2522,2522,2522,2522,2522,2522,2522,2532,2532,2532,2512,2512,2522,2501,2491,2491,2481,2481,2462,2462,2462,2452,2452,2452,2452,2452,2442,2442,2452,2452,2452,2471,2471,2481,2481,2501,2532,2532,2564,2596,2596,2629,2675,2675,2710,2734,2722,2722,2710,2686,2686,2652,2652,2607,2564,2564,2543,2543,2512,2491,2491,2471,2452,2452,2442,2442,2423,2414,2414,2404,2404,2395,2386,2386,2367,2358,2358,2349,2349,2349,2340,2340,2332,2314,2314,2305,2305,2305,2305,2305,2297,2280,2280,2272,2272,2272,2280,2280,2280,2263,2263,2255,2255,2255,2255,2255,2247,2247,2247,2247,2323,2323,2332,2332,2332,2340,2340,2340,2340,2332,2323,2323,2323,2314,2314,2305,2305,2297,2297,2297,2288,2288,2288,2288,2288,2280,2272,2272,2255,2247,2247,2247,2247,2239,2239,2239,2231,2231,2231,2223,2223,2215,2215,2215,2207,2207,2191,2183,2183,2176,2160,2160,2153,2153,2145,2138,2138,2131,2123,2123,2116,2116,2116,2109,2109,2109,2109,2102,2102,2102,2102,2102,2102,2102,2102,2109,2109,2109,2109,2116,2123,2123,2131,2145,2145,2153,2153,2168,2183,2183,2191,2207,2207,2215,2215,2215,2223,2223,2223,2223,2223,2215,2215,2199,2199,2191,2168,2168,2160,2160,2153,2145,2145,2131,2123,2123,2123,2131,2131,2138,2145,2145,2153,2160,2160,2168,2168,2160,2160,2160,2153,2153,2138,2138,2123,2109,2109,2094,2080,2080,2073,2073,2066,2066,2066,2060,2053,2053,2046,2046,2046,2039,2039,2039,2039,2039,2039,2039,2039,2039,2046,2046,2046,2046,2046,2053,2053,2060,2060,2060,2066,2080,2080,2087,2087,2102,2116,2116,2123,2138,2138,2145,2153,2153,2153,2138,2131,2131,2123,2123,2109,2094,2094,2080,2066,2066,2046,2046,2039,2032,2032,2013,2013,2000,1987,1987,1961,1943,1943,1925,1925,1907,1889,1889,1878,1878,1861,1855,1855,1850,1850,1844,1844,1844,1839,1839,1839,1833,1833,1828,1828,1828,1823,1817,1817,1812,1812,1807,1801,1801,1791,1786,1786,1781,1781,1775,1770,1770,1765,1765,1760,1760,1760,1760,1755,1755,1750,1750,1740,1731,1731,1721,1707,1707,1697,1697,1688,1674,1674,1665,1665,1665,1661,1661,1656,1652,1652,1648,1648,1648,1648,1648,1643,1643,1643,1643,1643,1643,1643,1648,1648,1652
1186,1190,1190,1195,1195,1202,1204,1204,1211,1219,1219,1221,1233,1233,1238,1248,1248,1256,1256,1266,1282,1282,1306,0,0,0,1392,1392,1392,1404,1404,1414,1420,1420,1430,1430,1430,1434,1434,1434,1437,1437,1440,1444,1444,1447,1447,1447,1454,1461,1461,1471,1471,1478,1485,1485,1492,1503,1503,1514,1518,1518,1526,1526,1529,1537,1537,1541,1549,1549,1564,1572,1572,1584,1584,1597,1609,1609,1626,1648,1648,1670,1688,1688,1707,1726,1726,1745,1765,1765,1786,1796,1796,1807,1807,1817,1828,1828,1844,1855,1855,1867,1872,1872,1884,1884,1901,1925,1925,1949,1974,1974,1993,2013,2013,2039,2066,2066,2094,2109,2109,2123,2123,2138,2160,2160,2176,2199,2199,2215,2231,2231,2255,2280,2280,2314,2314,2349,2386,2386,2462,2501,2501,2564,2607,2607,2640,2663,2663,2675,2698,2698,2734,2734,2746,2746,2746,2746,2746,2746,2746,2746,2746,2796,2796,2847,2928,2928,3044,3044,3044,3105,3185,3185,3201,3218,3152,3152,3152,0,0,0,0,0,0,0,0,0,0,2618,2618,2596,2596,2585,2574,2574,2564,2564,2543,2532,2532,2532,2522,2522,2522,2522,2522,2522,2522,2522,2522,2532,2532,2532,2512,2512,2512,2501,2481,2481,2471,2471,2462,2442,2442,2433,2433,2433,2433,2433,2433,2433,2433,2433,2433,2433,2433,2452,2452,2462,2471,2471,2512,2553,2553,2585,2629,2629,2675,2686,2686,2698,2686,2640,2640,2607,2607,2553,2522,2522,2491,2491,2462,2452,2452,2433,2423,2423,2414,2414,2404,2386,2386,2376,2376,2367,2367,2386,2367,2358,2358,2349,2349,2349,2340,2340,2332,2314,2314,2305,2305,2305,2305,2305,2297,2280,2280,2272,2272,2272,2280,2280,2280,2263,2263,2255,2255,2255,2255,2255,2247,2247,2247,2247,2247,2247,2247,2247,2247,2247,2239,2239,2239,2231,2223,2223,2215,2215,2215,2215,2215,2215,2215,2223,2223,2223,2231,2231,2239,2239,2231,2231,2223,2223,2223,2223,2223,2215,2215,2215,2207,2207,2199,2199,2199,2199,2199,2199,2191,2191,2183,2168,2168,2160,2153,2153,2145,2145,2138,2131,2131,2123,2116,2116,2116,2116,2116,2109,2109,2109,2109,2102,2102,2102,2102,2102,2102,2102,2102,2109,2109,2109,2109,2116,2123,2123,2131,2145,2145,2153,2153,2168,2183,2183,2191,2207,2207,2215,2215,2215,2223,2223,2223,2223,2207,2199,2199,2191,2191,2183,2168,2168,2160,2160,2153,2138,2138,2131,2123,2123,2123,2131,2131,2131,2145,2145,2153,2160,2160,2160,2168,2160,2160,2153,2145,2145,2131,2131,2116,2102,2102,2094,2080,2080,2073,2073,2066,2066,2066,2060,2053,2053,2046,2046,2046,2039,2039,2039,2039,2039,2039,2039,2039,2039,2039,2039,2046,2046,2046,2053,2053,2060,2060,2060,2066,2080,2080,2087,2087,2102,2116,2116,2123,2145,2145,2153,2160,2160,2160,2145,2138,2138,2123,2123,2109,2094,2094,2080,2066,2066,2046,2046,2039,2026,2026,2013,2013,1993,1980,1980,1961,1943,1943,1925,1925,1907,1889,1889,1878,1878,1861,1855,1855,1850,1844,1844,1839,1839,1839,1833,1833,1828,1828,1828,1823,1823,1823,1817,1817,1812,1812,1807,1801,1801,1791,1786,1786,1781,1781,1775,1775,1775,1770,1770,1770,1765,1765,1765,1765,1765,1755,1755,1755,1745,1745,1731,1721,1721,1712,1712,1697,1684,1684,1674,1674,1670,1665,1665,1661,1656,1656,1652,1652,1648,1648,1648,1648,1643,1643,1643,1643,1643,1643,1648,1648,1652
1186,1190,1190,1195,1195,1202,1204,1204,1211,1219,1219,1226,1236,1236,1243,1256,1256,1264,1274,1274,1282,1282,1306,1334,1355,1355,1385,1385,1385,1398,1398,1407,1417,1417,1427,1427,1427,1430,1434,1434,1437,1437,1440,1444,1444,1447,1447,1447,1454,1461,1461,1471,1471,1478,1485,1485,1492,1503,1503,1514,1518,1518,1526,1526,1529,1537,1537,1541,1549,1549,1564,1572,1572,1588,1597,1597,1609,1609,1626,1648,1648,1670,1688,1688,1707,1726,1726,1745,1765,1765,1786,1796,1796,1807,1807,1817,1828,1828,1844,1855,1855,1867,1872,1872,1884,1884,1901,1925,1925,1949,1974,1974,1993,2013,2013,2032,2060,2060,2080,2094,2094,2109,2109,2123,2138,2138,2168,2183,2183,2199,2223,2223,2247,2280,2280,2314,2314,2358,2404,2404,2452,2512,2512,2564,2607,2607,2640,2663,2663,2675,2698,2698,2734,2734,2746,2746,2746,2746,2746,2746,2746,2746,2746,2796,2796,2847,0,0,0,0,0,0,0,0,0,0,3152,3152,3152,0,0,0,0,0,0,0,0,0,0,2618,2618,2596,2596,2585,2574,2574,2564,2564,2543,2501,2501,2501,2512,2512,2512,2512,2512,2512,2512,2512,2522,2522,2522,2522,2501,2501,2501,2491,2471,2471,2462,2462,2442,2433,2433,2433,2423,2423,2423,2433,2423,2423,2423,2414,2414,2414,2414,2414,2414,2433,2471,2471,2512,2553,2553,2585,2629,2629,2675,2686,2686,2698,2686,2640,2640,2607,2607,2553,2522,2522,2491,2491,2462,2452,2452,2433,2423,2423,2414,2414,2404,2386,2386,2376,2376,2367,2358,2358,2340,2323,2323,2314,2314,2305,2288,2288,2272,2263,2263,2247,2247,2247,2231,2231,2231,2231,2231,2223,2223,2223,2231,2231,2231,2239,2239,2231,2231,2223,2215,2215,2207,2207,2207,2207,2207,2199,2191,2191,2183,2183,2183,2168,2168,2160,2153,2153,2138,2138,2138,2131,2131,2131,2145,2145,2145,2160,2160,2168,2183,2183,2231,2231,2223,2223,2223,2223,2223,2215,2215,2215,2207,2207,2199,2199,2199,2199,2199,2199,2191,2191,2183,2168,2168,2160,2153,2153,2145,2145,2138,2131,2131,2123,2116,2116,2116,2116,2109,2102,2102,2102,2094,2094,2094,2094,2094,2094,2094,2094,2094,2094,2094,2102,2102,2102,2109,2109,2116,2123,2123,2138,2138,2153,2160,2160,2168,2183,2183,2191,2199,2199,2199,2199,2199,2199,2199,2191,2191,2183,2183,2176,2168,2168,2160,2153,2153,2138,2138,2131,2131,2131,2131,2131,2131,2131,2145,2145,2153,2160,2160,2160,2168,2160,2160,2153,2145,2145,2131,2131,2116,2102,2102,2094,2087,2087,2073,2073,2066,2066,2066,2060,2060,2060,2053,2053,2046,2046,2046,2046,2039,2039,2039,2039,2039,2039,2039,2039,2046,2046,2046,2053,2053,2060,2060,2060,2066,2073,2073,2087,2087,2102,2116,2116,2123,2145,2145,2153,2160,2160,2160,2145,2138,2138,2123,2116,2109,2094,2094,2080,2066,2066,2046,2046,2032,2019,2019,2013,2013,1993,1980,1980,1955,1937,1937,1913,1913,1901,1884,1884,1872,1872,1861,1850,1850,1844,1839,1839,1839,1839,1839,1833,1833,1828,1828,1828,1823,1823,1823,1817,1817,1812,1812,1807,1801,1801,1791,1786,1786,1781,1781,1781,1775,1775,1770,1770,1770,1770,1770,1765,1765,1765,1760,1755,1755,1745,1745,1731,1721,1721,1712,1712,1697,1684,1684,1674,1674,1670,1665,1665,1661,1656,1656,1652,1652,1648,1648,1648,1643,1643,1643,1643,1643,1643,1643,1643,1643,1648
1190,1195,1195,1200,1204,1204,1209,1209,1214,1221,1221,1231,1236,1236,1246,1258,1258,1269,1277,1277,1287,1287,1312,1334,1355,1355,1385,1385,1385,1398,1398,1407,1417,1417,1427,1427,1427,1430,1434,1434,1437,1437,1440,1444,1444,1447,1447,1447,1450,1457,1457,1468,1468,1471,1478,1478,1482,1489,1489,1500,1511,1511,1518,1518,1522,1529,1529,1537,1549,1549,1564,1572,1572,1588,1605,1605,1622,1622,1643,1665,1665,1684,1697,1697,1721,1740,1740,1755,1775,1775,1791,1807,1807,1812,1812,1823,1833,1833,1844,1855,1855,1867,1878,1878,1884,1884,1907,1931,1931,1949,1974,1974,1993,2013,2013,2032,2060,2060,2080,2094,2094,2109,2109,2123,2138,2138,2168,2183,2183,2199,2223,2223,2247,2280,2280,2323,2323,2367,2404,2404,2452,2512,2512,2564,2596,2596,2618,2640,2640,2652,2675,2675,2698,2698,2698,2698,2686,2675,2675,2675,2686,2686,2686,2722,2722,2746,0,0,0,0,0,0,0,0,0,0,0,0,0,0,0,0,0,0,0,0,0,2414,2414,0,0,0,0,0,0,0,2462,2462,2462,2471,2481,2481,2481,2512,2512,2512,2512,2512,2512,2512,2522,2522,2522,2522,2501,2501,2501,2491,2471,2471,2462,2462,2442,2433,2433,2433,2423,2423,2423,2433,2423,2423,2423,2414,2414,2414,2414,2414,2414,2433,2442,2442,2481,2512,2512,2553,2607,2607,2640,2640,2675,2675,2652,2596,2596,2553,2553,2522,2481,2481,2433,2433,2423,2404,2404,2395,2386,2386,2376,2376,2358,2349,2349,2332,2332,2323,2305,2305,2297,2280,2280,2272,2272,2255,2247,2247,2231,2231,2215,2207,2207,2207,2199,2199,2199,2199,2199,2199,2199,2199,2199,2207,2207,2239,2239,2231,2231,2223,2215,2215,2207,2207,2207,2207,2207,2199,2191,2191,2183,2183,2183,2168,2168,2160,2153,2153,2138,2138,2138,2131,2131,2131,2145,2145,2145,2160,2160,2168,2183,2183,2191,2191,2183,2183,2183,2191,2191,2183,2183,2183,2183,2183,2183,2183,2183,2183,2183,2183,2176,2176,2176,2160,2160,2153,2145,2145,2138,2138,2131,2123,2123,2116,2109,2109,2109,2109,2102,2094,2094,2094,2087,2087,2087,2087,2087,2087,2087,2080,2080,2087,2087,2087,2087,2087,2094,2094,2102,2102,2102,2116,2116,2131,2160,2160,2168,2183,2183,2191,2199,2199,2199,2199,2199,2199,2199,2191,2191,2183,2183,2176,2168,2168,2160,2153,2153,2145,2145,2138,2138,2138,2138,2138,2138,2138,2145,2145,2153,2160,2160,2160,2160,2160,2160,2153,2145,2145,2131,2131,2116,2102,2102,2094,2080,2080,2073,2073,2066,2066,2066,2060,2053,2053,2053,2053,2046,2046,2046,2046,2039,2039,2039,2039,2039,2039,2039,2039,2046,2046,2046,2053,2053,2060,2060,2060,2066,2073,2073,2087,2087,2102,2116,2116,2131,2145,2145,2153,2168,2160,2160,2153,2138,2138,2131,2116,2116,2094,2094,2080,2066,2066,2046,2046,2032,2019,2019,2013,2013,1993,1980,1980,1955,1937,1937,1913,1913,1901,1884,1884,1872,1872,1861,1850,1850,1844,1839,1839,1839,1839,1833,1828,1828,1828,1828,1823,1817,1817,1817,1812,1812,1807,1807,1801,1796,1796,1791,1786,1786,1781,1781,1775,1770,1770,1770,1770,1770,1770,1770,1765,1765,1765,1760,1755,1755,1750,1750,1740,1731,1731,1721,1721,1702,1688,1688,1684,1684,1674,1670,1670,1665,1661,1661,1656,1656,1652,1648,1648,1643,1643,1643,1643,1643,1643,1643,1643,1643,1648
1190,1195,1195,1200,1204,1204,1209,1209,1214,1221,1221,1231,1236,1236,1246,1258,1258,1269,1277,1277,1287,1287,1312,1334,1352,1352,1367,1379,1379,1392,1392,1401,1411,1411,1420,1427,1427,1430,1434,1434,1437,1437,1440,1444,1444,1447,1447,1447,1450,1457,1457,1461,1461,1468,1471,1471,1475,1482,1482,1492,1500,1500,1507,1507,1522,1529,1529,1537,1549,1549,1564,1576,1576,1597,1617,1617,1635,1656,1656,1679,1679,1697,1712,1712,1731,1745,1745,1760,1775,1775,1796,1807,1807,1817,1823,1823,1833,1833,1844,1861,1861,1867,1878,1878,1884,1884,1907,1931,1931,1949,1974,1974,1987,2006,2006,2026,2053,2053,2066,2080,2080,2087,2087,2109,2123,2123,2153,2168,2168,2183,2207,2207,2239,2272,2272,2314,2314,2367,2404,2404,2452,2501,2501,2553,2574,2574,2585,2596,2596,2607,2618,2618,2618,2607,2596,2596,2574,2574,2553,2553,2553,2543,2543,2722,2722,2746,0,0,0,0,0,0,0,0,0,0,0,0,0,0,0,0,0,0,0,0,0,2414,2414,0,0,0,0,0,0,0,2462,2462,2462,2471,2481,2481,2481,2491,2491,2501,2501,2501,2501,2501,2512,2522,2512,2512,2501,2501,2501,2491,2471,2471,2462,2462,2442,2433,2433,2423,2414,2414,2404,2404,2395,2395,2395,2386,2386,2376,2367,2367,2367,2376,2376,2376,2404,2442,2442,2471,2471,2543,2543,2543,2574,2585,2564,2532,2532,2491,2491,2462,2423,2423,2395,2395,2376,2367,2367,2367,2386,2386,2376,2376,2358,2349,2349,2332,2332,2323,2305,2305,2297,2280,2280,2272,2272,2255,2247,2247,2231,2231,2215,2207,2207,2207,2199,2199,2199,2199,2199,2199,2199,2199,2199,2207,2207,2215,2215,2207,2207,2191,2191,2191,2183,2183,2176,2168,2168,2160,2153,2153,2138,2138,2138,2123,2123,2109,2109,2094,2087,2087,2087,2080,2080,2080,2080,2080,2094,2094,2094,2116,2131,2131,2145,2153,2145,2145,2145,2160,2160,2160,2168,2168,2168,2168,2168,2168,2168,2168,2168,2168,2160,2160,2160,2153,2153,2145,2145,2145,2138,2138,2131,2123,2123,2116,2109,2109,2109,2109,2102,2094,2094,2094,2087,2087,2087,2087,2087,2087,2087,2080,2080,2087,2087,2087,2087,2087,2094,2094,2102,2102,2102,2116,2116,2131,2138,2138,2145,2153,2153,2160,2168,2168,2176,2176,2176,2183,2183,2183,2183,2183,2183,2176,2168,2168,2160,2153,2153,2145,2145,2138,2138,2138,2138,2138,2138,2138,2145,2145,2153,2153,2153,2160,2160,2153,2153,2145,2138,2138,2123,2123,2116,2102,2102,2094,2080,2080,2073,2073,2073,2066,2066,2060,2053,2053,2053,2053,2046,2046,2046,2046,2039,2039,2039,2046,2039,2039,2046,2046,2046,2053,2053,2053,2053,2060,2060,2060,2073,2080,2080,2094,2109,2109,2116,2116,2138,2145,2145,2160,2168,2168,2168,2153,2138,2138,2131,2116,2116,2094,2094,2080,2066,2066,2046,2046,2032,2019,2019,2006,1993,1993,1974,1974,1955,1931,1931,1913,1913,1895,1878,1878,1867,1867,1855,1850,1850,1844,1833,1833,1833,1833,1828,1823,1823,1823,1817,1817,1812,1812,1807,1801,1801,1801,1801,1796,1791,1791,1786,1781,1781,1775,1775,1775,1770,1770,1770,1770,1770,1770,1770,1765,1765,1765,1765,1755,1755,1755,1755,1745,1736,1736,1726,1726,1712,1697,1697,1688,1684,1684,1674,1674,1670,1665,1665,1656,1656,1652,1648,1648,1643,1643,1643,1639,1639,1639,1639,1639,1639,1643
1195,1202,1202,1207,1211,1211,1214,1214,1221,1226,1226,1233,1241,1241,1251,1264,1264,1274,1285,1285,1293,1315,1315,1329,1346,1346,1367,1379,1379,1392,1392,1401,1411,1411,1420,1427,1427,1430,1434,1434,1437,1437,1440,1444,1444,1450,1450,1450,1450,1457,1457,1461,1461,1468,1471,1471,1475,1482,1482,1492,1500,1500,1507,1507,1514,1526,1526,1533,1549,1549,1564,1576,1576,1597,1617,1617,1635,1656,1656,1679,1679,1697,1712,1712,1731,1745,1745,1760,1775,1775,1796,1807,1807,1812,1823,1823,1828,1828,1844,1855,1855,1861,1872,1872,1884,1907,1907,1925,1925,1949,1968,1968,1980,2000,2000,2019,2039,2039,2060,2066,2066,2080,2080,2094,2116,2116,2138,2153,2153,2183,2207,2207,2239,2272,2272,2314,2314,2367,2404,2404,2462,2501,2501,2553,2574,2574,2585,2596,2596,2607,2618,2618,2618,2607,2596,2596,2574,2574,2553,2553,2553,2543,2543,0,2746,2746,0,0,0,0,0,0,0,0,0,0,0,0,0,0,0,0,0,0,0,0,0,2414,2414,0,0,2404,2404,2404,2414,2433,2433,2433,2433,2442,2452,2452,2471,2471,2471,2481,2481,2481,2481,2481,2491,2501,2501,2501,2491,2491,2491,2481,2471,2471,2442,2442,2404,2395,2395,2376,2376,2414,2404,2404,2395,2395,2395,2386,2386,2376,2367,2367,2367,2376,2376,2376,2404,2442,2442,2471,2471,2543,2543,2543,2574,2585,2564,2532,2532,2491,2491,2462,2423,2423,2395,2395,2376,2367,2367,2358,2358,2340,2332,2332,2323,2305,2305,2297,2297,2280,2263,2263,2255,2239,2239,2231,2231,2215,2207,2207,2199,2199,2183,2168,2168,2168,2168,2168,2168,2168,2168,2168,2176,2176,2183,2191,2191,2199,2199,2183,2183,2176,2168,2168,2160,2160,2153,2138,2138,2138,2123,2123,2109,2109,2094,2087,2087,2066,2066,2060,2060,2087,2087,2080,2080,2080,2080,2080,2094,2094,2094,2116,2131,2131,2145,2153,2145,2145,2145,2160,2160,2160,2168,2168,2168,2168,2168,2168,2168,2168,2168,2168,2160,2160,2160,2153,2153,2145,2138,2138,2131,2131,2116,2109,2109,2102,2102,2102,2094,2094,2087,2087,2087,2080,2080,2080,2080,2080,2073,2073,2073,2073,2073,2073,2073,2073,2073,2080,2080,2080,2080,2094,2094,2102,2102,2109,2116,2116,2123,2131,2131,2138,2145,2145,2153,2153,2160,2168,2168,2176,2176,2176,2176,2176,2176,2176,2168,2160,2160,2153,2153,2145,2138,2138,2138,2138,2138,2138,2145,2145,2153,2153,2153,2160,2160,2153,2153,2145,2138,2138,2123,2123,2116,2109,2109,2094,2087,2087,2073,2073,2073,2066,2066,2066,2060,2060,2053,2053,2046,2046,2046,2046,2039,2039,2039,2046,2039,2039,2046,2046,2046,2053,2053,2053,2053,2060,2060,2060,2073,2080,2080,2094,2109,2109,2116,2116,2138,2145,2145,2160,2168,2168,2168,2160,2145,2145,2138,2123,2123,2102,2102,2087,2066,2066,2053,2053,2032,2019,2019,2000,1980,1980,1968,1968,1943,1925,1925,1901,1901,1895,1878,1878,1867,1867,1855,1850,1850,1844,1833,1833,1833,1833,1828,1823,1823,1823,1817,1817,1812,1812,1807,1801,1801,1801,1801,1796,1791,1791,1786,1781,1781,1775,1775,1775,1770,1770,1770,1770,1770,1770,1770,1765,1765,1765,1765,1755,1755,1755,1755,1745,1736,1736,1726,1726,1712,1697,1697,1688,1684,1684,1674,1674,1670,1665,1665,1656,1656,1652,1648,1648,1643,1639,1639,1639,1639,1635,1635,1635,1635,1639
