0,0,0,0,0,0,0,0,0,0,0,0,0,0,0,0,0,0,1861,1861,1861,1861,1867,1872,1872,1872,1878,1878,1878,1878,1884,1889,1889,1889,1895,1895,1907,1907,1913,1913,1913,1919,1925,1925,1931,1931,1931,1943,1943,1943,1943,1943,1949,1961,1961,1968,1968,1968,1974,1974,1974,1980,1980,1993,1993,2000,2006,2006,2013,2013,2013,2019,2019,2019,2026,2026,2026,2039,2039,2046,2053,2053,2066,2066,2080,2094,2094,2094,0,2109,2109,2109,2102,2102,2102,0,0,0,0,0,0,0,0,0,0,0,0,0,0,0,0,0,0,0,0,0,0,0,0,0,0,0,0,0,0,0,0,0,0,0,0,0,0,0,0,0,0,0,0,0,0,0,0,0,0,0,0,0,0,0,0,0,0,0,0,0,0,0,0,0,0,0,0,0,0,0,0,0,0,0,0,0,0,0,0,0,0,0,0,0,0,0,0,0,0,0,0,0,0,0,0,0,0,0,0,0,0,0,0,0,0,0,0,0,0,0,0,0,0,0,0,0,0,0,0,0,0,0,0,0,2272,2263,2263,2263,2255,2255,2255,2255,2247,2247,2247,2247,2247,2255,2255,2255,2255,2263,2272,2272,2280,2280,2280,2297,2297,2305,2314,2314,2323,2332,2332,2349,2367,2367,2376,2376,2376,2386,2386,2386,2386,2376,2376,2367,2358,2358,2340,2332,2332,2332,2332,2323,2323,2323,2323,2323,2323,2314,2314,2314,2314,2314,2314,2323,2323,2323,2323,2323,2323,2323,2323,2323,2323,2323,2323,2314,2314,2314,2314,2305,2305,2305,2305,2305,2297,2297,2288,2288,2288,2288,2297,2297,2297,2297,2297,2305,2314,2314,2323,2323,2340,2349,2349,2367,2386,2386,2404,2414,2414,2414,2414,2423,2423,2414,2404,2404,2395,2395,2386,2367,2367,2358,2358,2349,2340,2340,2340,2340,2340,2340,2340,2340,2340,2349,2349,2358,2358,2358,2358,2358,2358,2358,2358,2349,2349,2349,2349,2340,2340,2340,2340,2332,2332,2332,2332,2323,2323,2323,2323,2323,2323,2323,2323,2323,2323,2323,2314,2297,2297,2288,2288,2280,2280,2280,2272,2272,2272,2263,2263,2263,2263,2272,2272,2272,2280,2280,2280,2280,2297,2297,2297,2297,2305,2305,2314,2314,2314,2323,2323,2323,2323,2323,2332,2332,2332,2332,2332,2332,2332,2332,2332,2332,2332,2332,2323,2305,2305,2280,2280,2263,2231,2231,2199,2199,2176,2153,2153,2131,2102,2102,2080,2080,2066,2046,2046,2026,2026,2013,2000,2000,1980,1980,1968,1955,1955,1943,1931,1931,1919,1919,1907,1895,1895,1889,1889,1884,1872,1872,1867,1855,1855,1850,1850,1839,1828,1828,1812,1812,1791,1775,1775,1755,1755,1740,1726,1726,1712,1697,1697,1684,1684,1674,1661,1661,1652,1652,1639,1626,1626,1613,1613,1601,1588,1588,1576,1576,1564,1556,1556,1545,1541,1541,1529,1529,1522,1518,1518,1511,1511,1507,1507,1507,1503,1503,1503,1503,1503,1503,1503,1507,1507,1511,1511,1511,1511,1518,1518,1529,1529,0,0,0,0,0,0,0,0,0,0,0,0,0,0,0,0,0,0,0,0,0,0,0,0,0,0,0,0,0,0,0,0,0,0,0,0,0,0,0,0,0,0,0,0,0,0,0,0,0,0,1464,1464,1464,1471,1485,1485,1489,1492,1492,1496,1500,1500,1507,1507,0,0,0,0,0,0,4232,4203,4203,4203,4203,4203,4203,4203,4203,4232,4232,4232,4232,4232,4203,4203,4203,4232,4232,4232,4232
0,0,0,0,0,0,0,0,0,0,0,0,0,0,0,0,0,0,1861,1861,1861,1861,1867,1872,1872,1872,1878,1878,1878,1878,1884,1889,1889,1889,1901,1901,1907,1907,1913,1913,1913,1919,1925,1925,1931,1931,1931,1943,1943,1943,1943,1943,1949,1955,1955,1961,1961,1961,1968,1968,1974,1980,1980,1987,1987,1993,2000,2000,2006,2006,2006,2013,2013,2013,2013,2013,2019,2019,2019,2026,2039,2039,2046,2046,2060,2073,2073,2073,2073,2073,2073,2073,2066,2066,2060,2060,2060,2060,0,2053,2053,0,0,0,0,0,0,0,0,0,0,0,0,0,0,0,0,0,0,0,0,0,0,0,0,0,0,0,0,0,0,0,0,0,0,0,0,0,0,0,0,0,0,0,0,0,0,0,0,0,0,0,0,0,0,0,0,0,0,0,0,0,0,0,0,0,0,0,0,0,0,0,0,0,0,0,0,0,0,0,0,0,0,0,0,0,0,0,0,0,0,0,0,0,0,0,0,0,0,0,0,0,0,0,0,0,0,0,0,0,0,0,0,0,0,0,0,0,0,0,0,0,0,2272,2263,2263,2263,2263,2263,2255,2255,2255,2263,2263,2263,2272,2272,2280,2288,2288,2288,2297,2297,2305,2323,2323,2323,2323,2332,2340,2340,2349,2367,2367,2376,2376,2376,2386,2386,2376,2376,2376,2376,2367,2349,2349,2332,2323,2323,2323,2323,2314,2314,2314,2314,2314,2314,2314,2314,2314,2314,2314,2314,2314,2323,2314,2314,2314,2314,2323,2323,2323,2323,2323,2323,2314,2314,2314,2314,2305,2305,2305,2305,2297,2297,2297,2288,2288,2288,2288,2288,2288,2288,2297,2297,2305,2314,2314,2323,2323,2340,2349,2349,2376,2386,2386,2404,2414,2414,2423,2423,2423,2423,2414,2414,2414,2395,2395,2386,2376,2376,2367,2367,2358,2349,2349,2349,2349,2349,2349,2349,2340,2340,2349,2349,2358,2358,2358,2358,2358,2358,2358,2358,2349,2349,2340,2340,2340,2340,2340,2332,2332,2332,2323,2323,2323,2323,2323,2323,2323,2323,2323,2323,2314,2314,2314,2305,2297,2297,2280,2280,2272,2263,2263,2255,2255,2255,2247,2247,2247,2247,2255,2255,2263,2263,2263,2272,2272,2280,2288,2288,2297,2305,2305,2314,2314,2314,2323,2323,2323,2323,2323,2332,2332,2332,2332,2332,2332,2340,2340,2332,2332,2332,2332,2323,2305,2305,2280,2280,2263,2231,2231,2199,2199,2176,2153,2153,2131,2102,2102,2080,2080,2060,2039,2039,2019,2019,2006,1993,1993,1974,1974,1961,1949,1949,1937,1925,1925,1913,1913,1907,1895,1895,1889,1889,1884,1872,1872,1867,1855,1855,1850,1850,1839,1828,1828,1812,1812,1791,1775,1775,1755,1755,1740,1726,1726,1707,1693,1693,1684,1684,1670,1661,1661,1648,1648,1639,1626,1626,1609,1609,1597,1588,1588,1576,1576,1564,1556,1556,1549,1541,1541,1533,1533,1526,1518,1518,1514,1511,1511,1507,1507,1503,1503,1503,1503,1507,1507,1507,1511,1511,1511,1511,1511,1514,1522,1522,1533,1533,0,0,0,1674,1674,1726,1726,0,0,0,0,0,0,0,0,0,0,0,0,0,0,0,0,0,0,0,0,0,0,0,0,0,0,0,0,0,0,0,1556,1556,1556,0,0,1529,1529,1511,1511,1489,1485,1485,1475,1475,1475,1482,1492,1492,1500,1503,1503,1507,1511,1511,1518,1518,0,0,0,0,0,0,4232,4203,4203,4203,4203,4203,4203,4203,4203,4232,4232,4232,4232,4232,4203,4203,4203,4232,4232,4232,4232
0,0,0,0,0,0,0,0,0,0,0,0,0,0,0,0,0,0,1861,1861,1861,1861,1861,1867,1867,1867,1872,1872,1872,1872,1884,1889,1889,1889,1901,1901,1907,1907,1907,1913,1913,1919,1919,1919,1925,1925,1925,1931,1931,1931,1937,1937,1937,1949,1949,1949,1949,1955,1961,1961,1968,1974,1974,1980,1980,1987,1993,1993,2000,2000,2000,2000,2000,2000,2006,2006,2006,2006,2006,2026,2039,2039,2046,2046,2060,2073,2073,2073,2073,2073,2073,2073,2066,2066,2060,2060,2060,2060,0,2053,2053,0,0,0,0,0,0,0,0,0,0,0,0,0,0,0,0,0,0,0,0,0,0,0,0,0,0,0,0,0,0,0,0,0,0,0,0,0,0,0,0,0,0,0,0,0,0,0,0,0,0,0,0,0,0,0,0,0,0,0,0,0,0,0,0,0,0,0,0,0,0,0,0,0,0,0,0,0,0,0,0,0,0,0,0,0,0,0,0,0,0,0,0,0,0,0,0,0,0,0,0,0,0,0,0,0,0,0,0,0,0,0,0,0,0,0,0,0,0,0,0,0,0,2272,2263,2263,2263,2263,2263,2255,2255,2255,2263,2263,2263,2272,2272,2280,2288,2288,2288,2297,2297,2305,2323,2323,2323,2323,2332,2340,2340,2349,2367,2367,2376,2376,2376,2386,2386,2376,2376,2376,2376,2367,2349,2349,2332,2323,2323,2323,2323,2314,2314,2314,2314,2314,2314,2314,2314,2314,2314,2314,2314,2314,2323,2314,2314,2314,2314,2323,2323,2323,2323,2323,2323,2323,2323,2323,2314,2305,2305,2305,2305,2297,2297,2297,2297,2288,2288,2288,2288,2288,2288,2297,2297,2305,2305,2305,2323,2323,2332,2349,2349,2376,2386,2386,2404,2414,2414,2423,2423,2423,2423,2414,2414,2414,2395,2395,2386,2376,2376,2367,2367,2358,2349,2349,2349,2349,2349,2349,2349,2349,2349,2358,2358,2358,2358,2358,2358,2358,2358,2358,2358,2349,2349,2340,2340,2340,2332,2332,2332,2323,2323,2314,2314,2314,2314,2323,2323,2323,2323,2323,2323,2314,2314,2314,2305,2297,2297,2280,2280,2272,2263,2263,2255,2255,2255,2247,2247,2247,2247,2255,2255,2263,2263,2263,2272,2272,2280,2288,2288,2297,2305,2305,2314,2314,2314,2323,2323,2323,2323,2323,2332,2332,2332,2332,2332,2332,2340,2340,2332,2332,2332,2332,2323,2305,2305,2280,2280,2255,2231,2231,2191,2191,2168,2145,2145,2123,2094,2094,2073,2073,2053,2032,2032,2013,2013,2000,1980,1980,1968,1968,1955,1943,1943,1931,1919,1919,1913,1913,1901,1895,1895,1889,1889,1884,1872,1872,1867,1855,1855,1850,1850,1839,1828,1828,1812,1812,1791,1775,1775,1755,1755,1740,1726,1726,1707,1693,1693,1684,1684,1670,1661,1661,1648,1648,1639,1626,1626,1609,1609,1597,1584,1584,1576,1564,1564,1552,1552,1545,1541,1541,1533,1533,1526,1518,1518,1514,1511,1511,1507,1507,1503,1503,1503,1503,1507,1507,1507,1511,1511,1511,1511,1511,1514,1522,1522,1533,1533,0,1652,1652,1652,1674,1726,1726,0,0,0,0,0,0,0,0,0,0,0,0,0,0,0,0,0,0,0,0,0,0,0,0,0,0,0,0,0,0,0,1556,1556,1556,0,0,1529,1529,1511,1511,1489,1485,1485,1485,1489,1492,1492,1503,1503,1514,1514,1514,1522,1529,1518,1518,1518,0,0,0,0,0,0,4175,4175,4175,4147,4147,4147,4147,4147,4147,4119,4119,4092,4092,4092,4092,4092,4092,4119,4147,4147,4175
0,0,0,0,0,0,0,0,0,0,0,0,0,0,1839,1839,1839,0,1850,1850,1850,1850,1850,1855,1855,1861,1867,1867,1872,1872,1878,1878,1878,1884,1889,1889,1901,1901,1901,1907,1907,1919,1919,1919,1925,1925,1925,1931,1931,1931,1937,1937,1937,1949,1949,1949,1949,1955,1961,1961,1968,1974,1974,1980,1980,1987,1993,1993,2000,2000,2000,2000,2000,2000,2006,2006,2006,2006,2006,2006,2019,2019,2026,2026,2039,2053,2053,2066,2066,2066,2066,2060,2060,2060,2060,2060,2060,2053,2053,2053,2053,0,0,0,0,0,0,0,0,0,0,0,0,0,0,0,0,0,0,0,0,0,0,0,0,0,0,0,0,0,0,0,0,0,0,0,0,0,0,0,0,0,0,0,0,0,0,0,0,0,0,0,0,0,0,0,0,0,0,0,0,0,0,0,0,0,0,0,0,0,0,0,0,0,0,0,0,0,0,0,0,0,0,0,0,0,0,0,0,0,0,0,0,0,0,0,0,0,0,0,0,0,0,0,0,0,0,0,0,0,0,0,0,0,0,0,0,0,0,0,0,0,0,0,0,0,0,0,0,0,0,0,0,0,0,0,0,0,0,0,0,0,0,0,0,0,0,0,0,0,0,0,0,0,0,0,0,0,0,0,0,0,0,0,0,0,0,0,0,0,0,0,0,0,0,2314,2314,2314,2314,2314,2314,2314,2314,2314,2323,2314,2314,2314,2314,2323,2323,2323,2323,2323,2323,2323,2323,2323,2314,2305,2305,2305,2305,2297,2297,2297,2297,2288,2288,2288,2288,2288,2288,2297,2297,2297,2305,2305,2314,2314,2332,2349,2349,2367,2395,2395,2404,2414,2414,2423,2423,2423,2423,2423,2414,2414,2395,2395,2395,2386,2386,2376,2367,2367,2358,2358,2349,2349,2349,2349,2349,2349,2349,2358,2358,2358,2358,2358,2358,2358,2358,2358,2358,2349,2349,2340,2340,2340,2332,2332,2332,2323,2323,2314,2314,2314,2314,2314,2314,2314,2314,2314,2314,2314,2305,2305,2297,2288,2288,2272,2272,2263,2247,2247,2247,2247,2247,2239,2239,2239,2239,2239,2239,2247,2255,2255,2272,2272,2272,2288,2288,2297,2297,2297,2305,2314,2314,2314,2314,2323,2332,2332,2332,2332,2332,2332,2332,2332,2332,2332,2332,2332,2323,2323,2323,2305,2305,2272,2272,2255,2231,2231,2191,2191,2168,2145,2145,2123,2094,2094,2073,2073,2053,2032,2032,2013,2013,2000,1980,1980,1968,1968,1955,1943,1943,1931,1919,1919,1913,1913,1901,1895,1895,1889,1889,1884,1872,1872,1867,1855,1855,1850,1850,1839,1828,1828,1812,1812,1791,1775,1775,1755,1740,1740,1726,1726,1707,1693,1693,1684,1684,1670,1661,1661,1648,1648,1635,1622,1622,1609,1609,1597,1584,1584,1572,1560,1560,1552,1552,1545,1541,1541,1533,1533,1526,1518,1518,1514,1511,1511,1507,1507,1507,1507,1507,1507,1511,1511,1511,1511,1511,1514,1514,1514,1518,1526,1526,1545,0,0,1652,1652,1652,1688,1736,1736,0,0,0,0,0,0,0,0,0,0,0,0,0,0,0,0,0,0,0,0,0,0,0,0,0,0,0,0,0,0,1572,1556,1556,1552,1552,1552,1529,1529,1511,1511,1489,1485,1485,1485,1489,1492,1492,1503,1503,1514,1514,1514,1522,1529,1529,1537,0,0,0,0,0,0,0,4147,4119,4119,4119,4119,4092,4065,4065,4065,4038,4038,4012,4012,4012,4012,4012,4012,4038,4065,4065,4119
0,0,0,0,0,0,0,0,0,0,0,0,0,0,1839,1839,1839,0,1850,1850,1850,1850,1850,1855,1855,1861,1867,1867,1872,1872,1878,1878,1878,1884,1889,1889,1901,1901,1901,1907,1907,1913,1913,1913,1913,1919,1919,1925,1925,1925,1931,1931,1931,1943,1943,1949,1949,1955,1955,1955,1961,1968,1968,1974,1974,1987,1987,1987,1993,1993,1993,1993,1993,1993,2000,2000,1993,1993,1993,2000,2000,2000,2013,2013,2026,2032,2032,2046,2046,2046,2046,2046,2046,2053,2046,2046,2046,2046,2046,2046,2046,0,0,0,0,0,0,0,0,0,0,0,0,0,0,0,0,0,0,0,0,0,0,0,0,0,0,0,0,0,0,0,0,0,0,0,0,0,0,0,0,0,0,0,0,0,0,0,0,0,0,0,0,0,0,0,0,0,0,0,0,0,0,0,0,0,0,0,0,0,0,0,0,0,0,0,0,0,0,0,0,0,0,0,0,0,0,0,0,0,0,0,0,0,0,0,0,0,0,0,0,0,0,0,0,0,0,0,0,0,0,0,0,0,0,0,0,0,0,0,0,0,0,0,0,0,0,0,0,0,0,0,0,0,0,0,0,0,0,0,0,0,0,0,0,0,0,0,0,0,0,0,0,0,0,0,0,0,0,0,0,0,0,0,0,0,0,0,0,0,0,0,0,0,0,0,0,0,0,2305,2305,2305,2305,0,0,0,0,2323,2323,2323,2323,2323,2323,2323,2323,2323,2323,2323,2314,2314,2314,2305,2305,2297,2297,2297,2297,2288,2288,2288,2288,2288,2288,2297,2297,2297,2305,2305,2314,2314,2332,2349,2349,2367,2395,2395,2404,2414,2414,2423,2423,2423,2423,2423,2414,2414,2395,2395,2395,2386,2386,2376,2367,2367,2358,2358,2349,2349,2349,2349,2349,2349,2349,2358,2358,2358,2358,2358,2358,2358,2349,2349,2349,2340,2340,2340,2332,2332,2323,2323,2323,2323,2323,2314,2314,2314,2314,2314,2314,2314,2314,2314,2305,2305,2297,2297,2288,2280,2280,2263,2263,2255,2247,2247,2239,2239,2239,2239,2239,2231,2231,2239,2239,2247,2255,2255,2272,2272,2272,2288,2288,2297,2297,2297,2305,2314,2314,2314,2314,2323,2332,2332,2332,2332,2332,2332,2332,2332,2332,2332,2332,2332,2323,2323,2323,2305,2305,2272,2272,2247,2215,2215,2183,2160,2160,2131,2131,2116,2087,2087,2066,2066,2046,2026,2026,2013,2013,1993,1974,1974,1961,1961,1949,1937,1937,1925,1913,1913,1907,1907,1901,1889,1889,1884,1878,1878,1872,1872,1861,1855,1855,1850,1850,1839,1828,1828,1812,1796,1796,1775,1775,1760,1740,1740,1726,1726,1707,1693,1693,1684,1684,1670,1661,1661,1648,1648,1635,1622,1622,1609,1609,1597,1584,1584,1572,1560,1560,1552,1552,1545,1541,1541,1533,1533,1526,1518,1518,1514,1514,1514,1511,1511,1511,1511,1511,1511,1511,1511,1511,1511,1511,1514,1514,1514,1518,1526,1526,1545,0,0,1652,1652,1652,1688,1736,1736,1736,0,0,0,0,0,0,0,0,0,0,0,0,0,0,0,0,0,0,0,0,0,0,0,0,0,0,0,0,0,1572,1560,1560,1552,1552,1552,1541,1541,1522,1522,1503,1496,1496,1496,1496,1503,1503,1514,1526,1526,1526,1526,1537,1541,1541,1552,0,0,0,0,0,0,0,4147,4119,4119,4119,4119,4092,4065,4065,4065,4038,4038,4012,4012,4012,4012,4012,4012,4038,4065,4065,4119
0,0,0,0,0,0,0,0,0,0,0,0,0,0,1839,1839,1839,0,1833,1833,1839,1839,1839,1850,1850,1850,1861,1861,1861,1861,1872,1878,1878,1878,1884,1884,1889,1889,1895,1901,1901,1901,1907,1907,1907,1913,1913,1919,1919,1925,1925,1925,1931,1937,1937,1943,1943,1949,1955,1955,1955,1961,1961,1974,1974,1980,1987,1987,1993,1993,1993,1993,1993,1993,2000,2000,1993,1993,1993,2000,2000,2000,2013,2013,2026,2032,2032,2046,2046,2046,2046,2046,2046,2053,2046,2046,2046,2046,2046,2046,2046,0,0,0,0,0,0,0,0,0,0,0,0,0,0,0,0,0,0,0,0,0,0,0,0,0,0,0,0,0,0,0,0,0,0,0,0,0,0,0,0,0,0,0,0,0,0,0,0,0,0,0,0,0,0,0,0,0,0,0,0,0,0,0,0,0,0,0,0,0,0,0,0,0,0,0,0,0,0,0,0,0,0,0,0,0,0,0,0,0,0,0,0,0,0,0,0,0,0,0,0,0,0,0,0,0,0,0,0,0,0,0,0,0,0,0,0,0,0,0,0,0,0,0,0,0,0,0,0,0,0,0,0,0,0,0,0,0,0,0,0,0,0,0,0,0,0,0,0,0,0,0,0,0,0,0,0,0,0,0,0,0,0,0,0,0,0,0,0,0,0,0,0,0,0,0,0,0,0,2305,2305,2305,2305,0,0,0,0,2323,2323,2323,2323,2332,2332,2332,2332,2332,2332,2332,2323,2314,2314,2305,2305,2297,2297,2297,2297,2288,2288,2288,2288,2288,2288,2297,2297,2297,2305,2305,2314,2314,2332,2349,2349,2367,2395,2395,2404,2414,2414,2423,2423,2423,2423,2423,2414,2414,2395,2395,2395,2386,2386,2376,2367,2367,2358,2358,2358,2349,2349,2349,2349,2358,2358,2358,2358,2358,2358,2358,2358,2358,2349,2349,2340,2332,2332,2332,2332,2332,2323,2323,2323,2323,2323,2314,2314,2314,2314,2314,2314,2314,2314,2314,2305,2305,2297,2297,2288,2280,2280,2263,2263,2255,2247,2247,2239,2239,2239,2239,2239,2231,2231,2239,2239,2247,2255,2255,2272,2272,2272,2288,2288,2297,2297,2297,2305,2314,2314,2314,2314,2323,2323,2323,2332,2332,2332,2332,2332,2332,2332,2332,2332,2332,2323,2323,2314,2288,2288,2263,2263,2231,2199,2199,2168,2160,2145,2123,2123,2102,2080,2080,2060,2060,2039,2019,2019,2006,2006,1987,1974,1974,1955,1955,1943,1937,1937,1925,1913,1913,1907,1907,1901,1889,1889,1884,1878,1878,1872,1872,1861,1855,1855,1850,1850,1839,1828,1828,1812,1796,1796,1775,1775,1760,1740,1740,1726,1726,1707,1693,1693,1684,1684,1670,1656,1656,1648,1648,1635,1622,1622,1609,1609,1592,1584,1584,1572,1560,1560,1552,1552,1545,1541,1541,1533,1533,1526,1518,1518,1514,1514,1514,1511,1511,1511,1511,1511,1511,1511,1514,1514,1514,1514,1518,1518,1518,1522,1533,1533,1549,0,0,1661,1661,1661,1697,1736,1736,1736,1740,1740,0,0,0,0,0,0,0,0,0,0,0,0,0,0,0,0,0,0,0,0,0,0,0,0,0,0,0,1580,1564,1564,1556,1556,1552,1545,1545,1545,0,1511,1496,1496,1496,1496,1503,1503,1514,1526,1526,1526,1526,1537,1541,1541,1552,0,0,0,0,0,0,0,4119,4092,4092,4065,4065,4038,4012,4012,3986,3961,3961,3935,3935,3935,3935,3935,3935,3961,4012,4012,4065
0,0,0,0,0,0,0,0,0,0,0,0,0,0,1812,1812,1812,1817,1817,1817,1828,1828,1828,1839,1839,1839,1850,1850,1861,1861,1872,1878,1878,1878,1884,1884,1889,1889,1895,1901,1901,1901,1907,1907,1907,1913,1913,1919,1919,1925,1925,1925,1931,1937,1937,1943,1943,1949,1955,1955,1955,1961,1961,1974,1980,1980,1987,1987,1987,1987,1987,1987,1987,1987,1993,1993,1987,1987,1987,1987,1993,1993,1993,1993,2006,2019,2019,2026,2026,2026,2032,2032,2032,2039,2039,2039,2046,2039,2039,2046,2046,0,0,0,0,0,0,0,0,0,0,0,0,0,0,0,0,0,0,0,0,0,0,0,0,0,0,0,0,0,0,0,0,0,0,0,0,0,0,0,0,0,0,0,0,0,0,0,0,0,0,0,0,0,0,0,0,0,0,0,0,0,0,0,0,0,0,0,0,0,0,0,0,0,0,0,0,0,0,0,0,0,0,0,0,0,0,0,0,0,0,0,0,0,0,0,0,0,0,0,0,0,0,0,0,0,0,0,0,0,0,0,0,0,0,0,0,0,0,0,0,0,0,0,0,0,0,0,0,0,0,0,0,0,0,0,0,0,0,0,0,0,0,0,0,0,0,0,0,0,0,0,0,0,0,0,0,0,0,0,0,0,0,0,0,0,0,0,0,0,0,0,0,0,0,0,0,0,0,2305,2305,2305,2305,0,0,0,0,2323,2323,2323,2323,2332,2332,2332,2332,2332,2332,2332,2323,2314,2314,2314,0,0,0,0,0,0,0,0,0,0,0,0,0,0,0,0,0,0,0,0,0,0,0,0,0,0,0,0,0,0,0,0,0,0,0,0,0,0,0,0,0,0,0,0,0,0,0,0,0,0,0,0,0,0,0,0,0,0,2349,2349,2340,2332,2332,2332,2323,2323,2323,2323,2323,2314,2314,2314,2305,2305,2305,2305,2305,2305,2305,2305,2305,2305,2297,2297,2288,2280,2280,2263,2263,2255,2247,2247,2239,2239,2239,2239,2239,2231,2231,2239,2239,2247,0,0,0,0,0,0,0,2297,2297,2297,2305,2314,2314,2314,2314,2323,2323,2323,2332,2332,2332,2332,2332,2332,2332,2332,2332,2332,2323,2323,2314,2288,2288,2263,2263,2231,2199,2199,2168,2168,2145,2123,2123,2102,2080,2080,2060,2060,2039,2019,2019,2006,2006,1987,1974,1974,1955,1955,1943,1931,1931,1925,1913,1913,1907,1907,1895,1889,1889,1884,1878,1878,1872,1872,1861,1855,1855,1844,1844,1839,1828,1828,1812,1796,1796,1775,1775,1760,1740,1740,1726,1726,1707,1693,1693,1684,1684,1670,1656,1656,1643,1643,1630,1617,1617,1605,1592,1592,1580,1580,1568,1560,1560,1552,1552,1545,1537,1537,1529,1529,1526,1522,1522,1514,1514,1514,1514,1514,1514,1514,1514,1514,1514,1514,1514,1518,1518,1518,1522,1522,1526,1541,1541,1560,0,0,1670,1670,1670,1702,1736,1736,1736,1740,1740,0,0,0,0,0,0,0,0,0,0,0,0,0,0,0,0,0,0,0,0,0,0,0,0,0,0,0,1580,1564,1564,1556,1556,1552,1545,1545,1533,1522,1511,1507,1507,1507,1507,1514,1514,1526,1533,1533,1541,1541,1549,1556,1556,1564,0,0,0,0,0,0,0,4119,4065,4065,4038,4038,4012,3961,3961,3961,3961,3961,3935,3935,3935,3935,3935,3935,3961,4012,4012,4065
0,0,0,0,0,0,0,0,0,0,0,0,0,0,1812,1812,1812,1817,1817,1817,1828,1828,1828,1839,1839,1839,1850,1850,1855,1855,1867,1867,1867,1878,1884,1884,1889,1889,1895,1895,1895,1901,1901,1901,1907,1907,1907,1913,1913,1919,1919,1919,1931,1937,1937,1937,1937,1943,1949,1949,1955,1961,1961,1968,1980,1980,1980,1980,1987,1987,1987,1980,1980,1980,1987,1987,1980,1980,1974,1974,1980,1980,1987,1987,1993,2006,2006,2006,2013,2013,2019,2019,2032,2039,2039,2039,2046,2039,2039,0,0,0,0,0,0,0,0,0,0,0,0,0,0,0,0,0,0,0,0,0,0,0,0,0,0,0,0,0,0,0,0,0,0,0,0,0,0,0,0,0,0,0,0,0,0,0,0,0,0,0,0,0,0,0,0,0,0,0,0,0,0,0,0,0,0,0,0,0,0,0,0,0,0,0,0,0,0,0,0,0,0,0,0,0,0,0,0,0,0,0,0,0,0,0,0,0,0,0,0,0,0,0,0,0,0,0,0,0,0,0,0,0,0,0,0,0,0,0,0,0,0,0,0,0,0,0,0,0,0,0,0,0,0,0,0,0,0,0,0,0,0,0,0,0,0,0,0,0,0,0,0,0,0,0,0,0,0,0,0,0,0,0,0,0,0,0,0,0,0,0,0,0,0,0,0,0,0,0,0,0,0,0,0,0,0,0,0,0,0,0,0,0,0,0,0,0,0,0,0,0,0,0,0,0,0,0,0,0,0,0,0,0,0,0,0,0,0,0,0,0,0,0,0,0,0,0,0,0,0,0,0,0,0,0,0,0,0,0,0,0,0,0,0,0,0,0,0,0,0,0,0,0,0,0,0,0,0,0,0,0,2349,2349,2340,2332,2332,2332,2323,2323,2323,2323,2323,2314,2314,2314,2305,2305,2305,2305,2305,2305,2305,2305,2305,0,0,0,0,0,0,0,0,0,0,0,0,0,0,0,0,0,0,0,0,0,0,0,0,0,0,0,0,0,0,2305,2305,2314,2314,0,0,2323,2323,2323,2332,2332,2332,2332,2332,2332,2332,2332,2332,2332,2323,2323,2314,2272,2272,2247,2247,2215,2176,2176,2153,2153,2131,2116,2116,2094,2073,2073,2053,2053,2032,2019,2019,2000,2000,1980,1968,1968,1955,1943,1943,1931,1931,1919,1913,1913,1907,1907,1895,1889,1889,1884,1878,1878,1872,1872,1861,1850,1850,1844,1844,1839,1828,1828,1812,1796,1796,1775,1775,1760,1745,1745,1726,1726,1712,1693,1693,1684,1684,1670,1656,1656,1643,1643,1630,1617,1617,1605,1592,1592,1580,1580,1568,1560,1560,1552,1552,1545,1537,1537,1529,1529,1526,1518,1518,1514,1514,1514,1514,1514,1514,1514,1514,1514,1514,1514,1514,1518,1518,1518,1522,1522,1526,1541,1541,1560,0,0,1670,1670,1670,1702,1736,1736,1736,1740,1740,1745,0,0,0,0,0,0,0,0,0,0,0,0,0,0,0,0,0,0,0,0,0,0,0,0,0,0,1584,1568,1568,1560,1560,1556,1549,1549,1533,1522,1522,1518,1518,1518,1518,1526,1526,1533,1545,1545,1549,1549,1560,1568,1568,1576,0,0,0,0,0,0,0,4119,4065,4065,4038,4038,4012,3961,3961,3961,3910,3910,3862,3862,3862,3862,3862,3862,3910,3961,3961,4012
0,0,0,0,0,0,0,0,0,0,0,0,0,0,1796,1796,1796,1801,1801,1807,1812,1812,1817,1828,1828,1828,1844,1844,1850,1850,1855,1867,1867,1867,1878,1878,1884,1884,1889,1895,1895,1895,1901,1901,1901,1907,1907,1913,1913,1919,1919,1919,1925,1937,1937,1937,1937,1943,1949,1949,1955,1961,1961,1968,1980,1980,1980,1980,1987,1987,1987,1980,1980,1980,1987,1987,1980,1980,1974,1974,1980,1980,1987,1987,1993,2006,2006,2006,2013,2013,2019,2019,2019,2026,2026,2032,2032,2032,2032,0,0,0,0,0,0,0,0,0,0,0,0,0,0,0,0,0,0,0,0,0,0,0,0,0,0,0,0,0,0,0,0,0,0,0,0,0,0,0,0,0,0,0,0,0,0,0,0,0,0,0,0,0,0,0,0,0,0,0,0,0,0,0,0,0,0,0,0,0,0,0,0,0,0,0,0,0,0,0,0,0,0,0,0,0,0,0,0,0,0,0,0,0,0,0,0,0,0,0,0,0,0,0,0,0,0,0,0,0,0,0,0,0,0,0,0,0,0,0,0,0,0,0,0,0,0,0,0,0,0,0,0,0,0,0,0,0,0,0,0,0,0,0,0,0,0,0,0,0,0,0,0,0,0,0,0,0,0,0,0,0,0,0,0,0,0,0,0,0,0,0,0,0,0,0,0,0,0,0,0,0,0,0,0,0,0,0,0,0,0,0,0,0,0,0,0,0,0,0,0,0,0,0,0,0,0,0,0,0,0,0,0,0,0,0,0,0,0,0,0,0,0,0,0,0,0,0,0,0,0,0,0,0,0,0,0,0,0,0,0,0,0,0,0,0,0,0,0,0,0,0,0,0,0,0,0,0,0,0,0,0,0,0,0,0,0,0,0,0,0,0,0,0,0,0,2305,2305,2305,2305,2305,0,0,0,0,0,0,0,0,0,0,0,0,0,0,0,0,0,0,0,0,0,0,0,0,0,0,0,0,0,0,0,0,0,0,2305,2305,2314,2314,0,0,2323,2323,2323,2332,2332,2332,2332,2332,2323,2323,2323,2323,2323,2323,2323,2305,2272,2272,2247,2247,2191,2160,2160,2138,2123,2123,2102,2102,2080,2066,2066,2046,2046,2032,2019,2019,2000,2000,1980,1968,1968,1955,1943,1943,1931,1931,1919,1913,1913,1907,1907,1895,1889,1889,1884,1878,1878,1872,1872,1861,1850,1850,1844,1844,1839,1828,1828,1812,1796,1796,1775,1775,1760,1745,1745,1726,1726,1712,1693,1693,1684,1684,1670,1656,1656,1643,1643,1630,1617,1617,1605,1592,1592,1580,1580,1568,1560,1560,1549,1549,1541,1537,1537,1529,1529,1522,1518,1518,1514,1514,1514,1514,1514,1514,1514,1514,1514,1518,1518,1518,1518,1518,1522,1526,1526,1533,1552,1552,1576,0,1661,1661,1684,1684,1712,1736,1736,1740,1740,1740,1745,0,0,0,0,0,0,0,0,0,0,0,0,0,0,0,0,0,0,0,0,0,0,0,0,0,0,1584,1568,1568,1560,1560,1556,1549,1549,1533,1522,1522,1518,1518,1518,1518,1526,1526,1533,1545,1545,1549,1549,1560,1568,1568,1576,0,1597,1597,1605,1605,0,0,4092,4038,4038,4012,4012,3961,3935,3935,3935,3886,3886,3814,3814,3814,3814,3838,3838,3886,3935,3935,3986
0,0,0,0,0,0,0,0,0,0,0,0,0,1781,1781,1786,1786,1801,1801,1807,1812,1812,1817,1828,1828,1828,1844,1844,1850,1850,1855,1867,1867,1867,1878,1878,1884,1884,1889,1895,1895,1895,1901,1901,1901,1907,1907,1913,1913,1919,1925,1925,1925,1931,1931,1937,1937,1943,1949,1949,1955,1961,1961,1968,1980,1980,1980,1980,1980,1980,1980,1980,1980,1980,1987,1980,1980,1980,1974,1974,1974,1974,1974,1974,1987,1993,1993,2000,2000,2000,2006,2006,2006,2013,2013,2013,2013,2013,2032,0,0,0,0,0,0,0,0,0,0,0,0,0,0,0,0,0,0,0,0,0,0,0,0,0,0,0,0,0,0,0,0,0,0,0,0,0,0,0,0,0,0,0,0,0,0,0,0,0,0,0,0,0,0,0,0,0,0,0,0,0,0,0,0,0,0,0,0,0,0,0,0,0,0,0,0,0,0,0,0,0,0,0,0,0,0,0,0,0,0,0,0,0,0,0,0,0,0,0,0,0,0,0,0,0,0,0,0,0,0,0,0,0,0,0,0,0,0,0,0,0,0,0,0,0,0,0,0,0,0,0,0,0,0,0,0,0,0,0,0,0,0,0,0,0,0,0,0,0,0,0,0,0,0,0,0,0,0,0,0,0,0,0,0,0,0,0,0,0,0,0,0,0,0,0,0,0,0,0,0,0,0,0,0,0,0,0,0,0,0,0,0,0,0,0,0,0,0,0,0,0,0,0,0,0,0,0,0,0,0,0,0,0,0,0,0,0,0,0,0,0,0,0,0,0,0,0,0,0,0,0,0,0,0,0,0,0,0,0,0,0,0,0,0,0,0,0,0,0,0,0,0,0,0,0,0,0,0,0,0,0,0,0,0,0,0,0,0,0,0,0,0,0,0,0,2305,2305,2305,2305,2305,0,0,0,0,0,0,0,0,0,0,0,0,0,0,0,0,0,0,0,0,0,0,0,0,0,0,0,0,0,0,0,0,0,0,0,0,0,0,0,0,0,0,0,0,0,0,0,2332,2323,2323,2323,2323,2323,2323,2323,2305,2305,0,0,0,2191,2160,2160,2138,2123,2123,2102,2102,2080,2066,2066,2046,2046,2032,2019,2019,2000,2000,1980,1968,1968,1955,1943,1943,1931,1931,1919,1913,1913,1901,1901,1895,1889,1889,1884,1878,1878,1867,1867,1861,1850,1850,1844,1844,1833,1823,1823,1812,1796,1796,1775,1775,1760,1745,1745,1726,1726,1712,1697,1697,1684,1684,1670,1656,1656,1643,1643,1630,1617,1617,1605,1592,1592,1580,1580,1568,1560,1560,1549,1549,1541,1537,1537,1529,1529,1522,1518,1518,1514,1514,1514,1514,1514,1514,1518,1518,1518,1518,1522,1522,1522,1526,1526,1529,1529,1545,1564,1564,1592,0,1661,1661,1684,1684,1712,1736,1736,1736,1736,1736,1740,0,0,0,0,0,0,0,0,0,0,0,0,0,0,1639,1639,1639,1635,1635,1630,1630,1622,1622,0,0,0,1584,1572,1572,1564,1564,1556,1552,1552,1541,1526,1526,1526,1526,1526,1529,1537,1537,1549,1556,1556,1568,1576,1576,1584,1584,1588,1605,1597,1597,1605,1605,0,0,4092,4038,4038,4012,4012,3961,3935,3935,3935,3886,3886,3814,3814,3814,3814,3838,3838,3886,3935,3935,3986
0,0,0,0,0,0,0,0,0,0,0,0,0,1781,1781,1786,1786,1791,1791,1796,1801,1801,1812,1817,1817,1823,1833,1833,1844,1844,1855,1861,1861,1867,1878,1878,1884,1884,1889,1895,1895,1895,1901,1901,1901,1907,1907,1913,1913,1919,1919,1919,1925,1931,1931,1931,1931,1937,1943,1943,1949,1961,1961,1968,1974,1974,1980,1974,1974,1980,1980,1980,1980,1980,1980,1974,1974,1974,1974,1974,1974,1974,1974,1974,1987,1993,1993,2000,2000,2000,2006,2006,2006,2013,2013,2013,2013,2013,0,0,0,0,0,0,0,0,0,0,0,0,0,0,0,0,0,0,0,0,0,0,0,0,0,0,0,0,0,0,0,0,0,0,0,0,0,0,0,0,0,0,0,0,0,0,0,0,0,0,0,0,0,0,0,0,0,0,0,0,0,0,0,0,0,0,0,0,0,0,0,0,0,0,0,0,0,0,0,0,0,0,0,0,0,0,0,0,0,0,0,0,0,0,0,0,0,0,0,0,0,0,0,0,0,0,0,0,0,0,0,0,0,0,0,0,0,0,0,0,0,0,0,0,0,0,0,0,0,0,0,0,0,0,0,0,0,0,0,0,0,0,0,0,0,0,0,0,0,0,0,0,0,0,0,0,0,0,0,0,0,0,0,0,0,0,0,0,0,0,0,0,0,0,0,0,0,0,0,0,0,0,0,0,0,0,0,0,0,0,0,0,0,0,0,0,0,0,0,0,0,0,0,0,0,0,0,0,0,0,0,0,0,0,0,0,0,0,0,0,0,0,0,0,0,0,0,0,0,0,0,0,0,0,0,0,0,0,0,0,0,0,0,0,0,0,0,0,0,0,0,0,0,0,0,0,0,0,0,0,0,0,0,0,0,0,0,0,0,0,0,0,0,0,0,0,0,0,0,0,0,0,0,0,0,0,0,0,0,0,0,0,0,0,0,0,0,0,0,0,0,0,0,0,0,0,0,0,0,0,0,0,0,0,0,0,0,0,0,0,0,0,0,0,0,0,0,0,2332,2323,2323,2323,2323,2323,2323,2323,2305,2305,0,0,0,2191,2160,2160,2123,2123,2102,2087,2087,2080,2060,2060,2046,2046,2026,2013,2013,2000,2000,1980,1968,1968,1955,1943,1943,1931,1931,1919,1913,1913,1901,1901,1895,1884,1884,1878,1872,1872,1867,1867,1861,1850,1850,1844,1844,1833,1823,1823,1812,1796,1796,1775,1775,1760,1745,1745,1731,1731,1712,1697,1697,1684,1684,1670,1656,1656,1643,1643,1630,1617,1617,1605,1592,1592,1580,1580,1568,1556,1556,1549,1549,1541,1533,1533,1529,1522,1522,1518,1518,1514,1514,1514,1514,1514,1514,1518,1518,1518,1518,1522,1522,1522,1526,1526,1529,1529,1545,1564,1564,1592,0,1661,1661,1688,1688,1716,1736,1736,1736,1736,1736,1740,0,0,0,0,0,0,1670,1670,1665,1656,1656,1648,1648,1643,1639,1639,1639,1635,1635,1630,1630,1622,1622,0,0,0,1592,1584,1584,1576,1568,1568,1564,1564,1556,1549,1549,1549,1549,1552,1552,1560,1560,1568,1572,1572,1580,1588,1588,1597,1601,1601,1605,1597,1597,1605,1605,0,0,4092,4038,4038,4012,4012,3961,3935,3935,3910,3862,3862,3814,3814,3814,3814,3814,3814,3862,3910,3910,3961
0,0,0,0,0,0,0,0,0,0,1760,1760,1765,1765,1770,1775,1775,1781,1781,1791,1796,1796,1801,1807,1807,1817,1828,1828,1839,1839,1850,1855,1855,1867,1872,1872,1884,1889,1889,1895,1895,1895,1901,1901,1901,1907,1907,1913,1913,1919,1919,1919,1925,1931,1931,1931,1931,1937,1943,1943,1949,1961,1961,1968,1974,1974,1980,1974,1974,1980,1980,1980,1980,1980,1980,1974,1974,1974,1968,1968,1968,1968,1968,1968,1980,1980,1980,1987,1987,1987,1993,1993,2006,2013,2013,2013,2013,2013,0,0,0,0,0,0,0,0,0,0,0,0,0,0,0,0,0,0,0,0,0,0,0,0,0,0,0,0,0,0,0,0,0,0,0,0,0,0,0,0,0,0,0,0,0,0,0,0,0,0,0,0,0,0,0,0,0,0,0,0,0,0,0,0,0,0,0,0,0,0,0,0,0,0,0,0,0,0,0,0,0,0,0,0,0,0,0,0,0,0,0,0,0,0,0,0,0,0,0,0,0,0,0,0,0,0,0,0,0,0,0,0,0,0,0,0,0,0,0,0,0,0,0,0,0,0,0,0,0,0,0,0,0,0,0,0,0,0,0,0,0,0,0,0,0,0,0,0,0,0,0,0,0,0,0,0,0,0,0,0,0,0,0,0,0,0,0,0,0,0,0,0,0,0,0,0,0,0,0,0,0,0,0,0,0,0,0,0,0,0,0,0,0,0,0,0,0,0,0,0,0,0,0,0,0,0,0,0,0,0,0,0,0,0,0,0,0,0,0,0,0,0,0,0,0,0,0,0,0,0,0,0,0,0,0,0,0,0,0,0,0,0,0,0,0,0,0,0,0,0,0,0,0,0,0,0,0,0,0,0,0,0,0,0,0,0,0,0,0,0,0,0,0,0,0,0,0,0,0,0,0,0,0,0,0,0,0,0,0,0,0,0,0,0,0,0,0,0,0,0,0,0,0,0,0,0,0,0,0,0,0,0,0,0,0,0,0,0,0,0,0,0,0,0,0,0,0,0,0,0,0,0,0,0,0,0,0,0,0,0,0,0,0,0,2123,2123,2102,2087,2087,2080,2060,2060,2046,2046,2026,2013,2013,2000,2000,1980,1968,1968,1955,1943,1943,1931,1931,1919,1913,1913,1901,1901,1895,1884,1884,1878,1872,1872,1867,1867,1855,1850,1850,1839,1833,1833,1823,1823,1807,1791,1791,1775,1775,1760,1745,1745,1731,1731,1712,1697,1697,1684,1684,1670,1656,1656,1643,1630,1630,1617,1617,1605,1592,1592,1580,1580,1568,1556,1556,1545,1545,1537,1533,1533,1526,1522,1522,1518,1518,1514,1514,1514,1514,1514,1518,1518,1518,1518,1518,1522,1522,1526,1529,1529,1537,1537,1552,1576,1576,1605,0,1670,1670,1697,1697,1721,1736,1736,1740,1740,1740,1740,0,0,0,0,0,0,1670,1670,1665,1656,1656,1648,1648,1643,1639,1639,1639,1635,1635,1630,1630,1622,1617,1617,1605,1601,1592,1584,1584,1576,1568,1568,1564,1564,1556,1549,1549,1549,1549,1552,1552,1560,1560,1568,1572,1572,1580,1588,1588,1597,1601,1601,1605,1605,1605,0,0,0,0,0,4038,4038,4012,4012,3986,3961,3961,3910,3862,3862,3814,3814,3814,3814,3814,3814,3862,3910,3910,3961
0,0,0,0,0,0,0,0,0,0,1760,1760,1765,1765,1770,1775,1775,1781,1781,1791,1796,1796,1801,1807,1807,1817,1828,1828,1839,1839,1850,1855,1855,1867,1872,1872,1884,1889,1889,1895,1895,1895,1901,1901,1901,1907,1907,1913,1913,1919,1919,1919,1925,1931,1931,1931,1931,1937,1943,1943,1949,1955,1955,1961,1974,1974,1974,1974,1974,1974,1974,1974,1974,1974,1974,1974,1968,1968,1961,1961,1961,1961,1961,1961,1968,1968,1968,1974,1974,1974,1974,1974,1974,1980,1980,1980,1987,1987,0,0,0,0,0,0,0,0,0,0,0,0,0,0,0,0,0,0,0,0,0,0,0,0,0,0,0,0,0,0,0,0,0,0,0,0,0,0,0,0,0,0,0,0,0,0,0,0,0,0,0,0,0,0,0,0,0,0,0,0,0,0,0,0,0,0,0,0,0,0,0,0,0,0,0,0,0,0,0,0,0,0,0,0,0,0,0,0,0,0,0,0,0,0,0,0,0,0,0,0,0,0,0,0,0,0,0,0,0,0,0,0,0,0,0,0,0,0,0,0,0,0,0,0,0,0,0,0,0,0,0,0,0,0,0,0,0,0,0,0,0,0,0,0,0,0,0,0,0,0,0,0,0,0,0,0,0,0,0,0,0,0,0,0,0,0,0,0,0,0,0,0,0,0,0,0,0,0,0,0,0,0,0,0,0,0,0,0,0,0,0,0,0,0,0,0,0,0,0,0,0,0,0,0,0,0,0,0,0,0,0,0,0,0,0,0,0,0,0,0,0,0,0,0,0,0,0,0,0,0,0,0,0,0,0,0,0,0,0,0,0,0,0,0,0,0,0,0,0,0,0,0,0,0,0,0,0,0,0,0,0,0,0,0,0,0,0,0,0,0,0,0,0,0,0,0,0,0,0,0,0,0,0,0,0,0,0,0,0,0,0,0,0,0,0,0,0,0,0,0,0,0,0,0,0,0,0,0,0,0,0,0,0,0,0,0,0,0,0,0,0,0,0,0,0,0,0,0,0,0,0,0,0,0,0,0,0,0,0,0,0,0,2123,2123,2109,2109,2094,2080,2080,2066,2053,2053,2039,2039,2019,2013,2013,2000,2000,1980,1968,1968,1955,1943,1943,1931,1931,1919,1913,1913,1901,1901,1895,1884,1884,1878,1872,1872,1867,1867,1855,1844,1844,1839,1828,1828,1823,1823,1807,1791,1791,1775,1775,1760,1745,1745,1731,1731,1712,1697,1697,1684,1684,1670,1656,1656,1643,1630,1630,1617,1617,1605,1592,1592,1580,1580,1568,1556,1556,1545,1545,1537,1533,1533,1526,1522,1522,1518,1518,1514,1514,1514,1514,1514,1518,1518,1518,1518,1522,1522,1522,1526,1529,1529,1537,1537,1552,1576,1576,1605,1679,1670,1670,1697,1697,1721,1736,1736,1740,1740,1740,1740,0,0,0,0,0,0,1670,1670,1665,1656,1656,1648,1648,1643,1643,1643,1639,1639,1639,1630,1630,1622,1617,1617,1605,1601,1601,1592,1592,1584,1572,1572,1568,1568,1560,1552,1552,1552,1552,1560,1560,1572,1572,1572,1580,1580,1588,1597,1597,1601,1605,1605,1605,1605,1609,0,0,0,0,0,4065,4065,4012,4012,3986,3961,3961,3910,3886,3886,3814,3814,3814,3814,3814,3814,3862,3910,3910,3986
0,0,0,0,0,0,0,0,0,0,1755,1755,1760,1760,1765,1770,1770,1775,1775,1781,1786,1786,1791,1807,1807,1812,1823,1823,1833,1833,1844,1855,1855,1867,1872,1872,1884,1889,1889,1895,1895,1895,1901,1901,1907,1913,1913,1913,1913,1919,1919,1919,1925,1931,1931,1931,1931,1937,1937,1937,1949,1955,1955,1961,1968,1968,1974,1974,1974,1974,1974,1974,1974,1974,1974,1974,1968,1968,1961,1961,1961,1961,1961,1961,1968,1968,1968,1974,1974,1974,1974,1974,1974,1980,1980,1980,1987,1987,0,0,0,0,0,0,0,0,0,0,0,0,0,0,0,0,0,0,0,0,0,0,0,0,0,0,0,0,0,0,0,0,0,0,0,0,0,0,0,0,0,0,0,0,0,0,0,0,0,0,0,0,0,0,0,0,0,0,0,0,0,0,0,0,0,0,0,0,0,0,0,0,0,0,0,0,0,0,0,0,0,0,0,0,0,0,0,0,0,0,0,0,0,0,0,0,0,0,0,0,0,0,0,0,0,0,0,0,0,0,0,0,0,0,0,0,0,0,0,0,0,0,0,0,0,0,0,0,0,0,0,0,0,0,0,0,0,0,0,0,0,0,0,0,0,0,0,0,0,0,0,0,0,0,0,0,0,0,0,0,0,0,0,0,0,0,0,0,0,0,0,0,0,0,0,0,0,0,0,0,0,0,0,0,0,0,0,0,0,0,0,0,0,0,0,0,0,0,0,0,0,0,0,0,0,0,0,0,0,0,0,0,0,0,0,0,0,0,0,0,0,0,0,0,0,0,0,0,0,0,0,0,0,0,0,0,0,0,0,0,0,0,0,0,0,0,0,0,0,0,0,0,0,0,0,0,0,0,0,0,0,0,0,0,0,0,0,0,0,0,0,0,0,0,0,0,0,0,0,0,0,0,0,0,0,0,0,0,0,0,0,0,0,0,0,0,0,0,0,0,0,0,0,0,0,0,0,0,0,0,0,0,0,0,0,0,0,0,0,0,0,0,0,0,0,0,0,0,0,0,0,0,0,0,0,0,0,0,0,0,0,0,2109,2109,2094,2094,2080,2073,2073,2060,2046,2046,2032,2032,2019,2006,2006,2000,2000,1980,1968,1968,1955,1943,1943,1931,1931,1925,1913,1913,1901,1901,1895,1884,1884,1878,1872,1872,1867,1867,1855,1844,1844,1839,1828,1828,1823,1823,1807,1791,1791,1775,1775,1760,1745,1745,1731,1731,1716,1702,1702,1684,1684,1670,1656,1656,1643,1630,1630,1617,1617,1605,1588,1588,1576,1576,1564,1556,1556,1545,1545,1537,1533,1533,1526,1518,1518,1514,1514,1511,1511,1514,1514,1514,1518,1518,1518,1518,1522,1522,1522,1526,1533,1533,1545,1545,1564,1588,1588,1617,1661,1679,1679,1702,1702,1726,1736,1736,1740,1745,1740,1740,0,1731,1731,1731,0,0,1679,1679,1665,1661,1661,1652,1652,1643,1643,1643,1639,1639,1639,1635,1635,1626,1617,1617,1609,1601,1601,1597,1597,1584,1572,1572,1568,1568,1560,1552,1552,1552,1552,1560,1560,1560,1560,1564,1580,1580,1588,1597,1597,1601,1605,1605,1605,1605,1609,0,0,0,0,4175,4065,4065,4012,4012,3986,3961,3961,3910,3886,3886,3814,3814,3814,3814,3814,3814,3862,3910,3910,3986
0,0,0,0,0,0,1736,1736,1736,1745,1745,1745,1750,1750,1755,1765,1765,1770,1770,1775,1781,1781,1791,1801,1801,1812,1823,1823,1833,1833,1844,1855,1855,1867,1878,1878,1884,1889,1889,1895,1895,1901,1901,1901,1907,1913,1913,1919,1919,1919,1919,1919,1925,1931,1931,1931,1937,1937,1937,1937,1949,1955,1955,1961,1968,1968,1974,1974,1974,1974,1974,1974,1974,1974,1974,1974,1968,1968,1961,1961,1961,1955,1955,1955,1961,1961,1961,1961,1961,1961,1961,1961,1968,1968,1961,1961,1968,1968,1968,1961,1961,1961,1955,1949,1949,1949,1949,1943,1937,1937,1925,1925,1925,1919,1919,1913,1907,1907,1901,1901,1895,1895,0,0,0,0,0,0,0,0,0,0,0,0,0,0,0,0,0,0,0,0,0,0,0,0,0,0,0,0,0,0,0,0,0,0,0,0,0,0,0,0,0,0,0,0,0,0,0,0,0,0,0,0,0,0,0,0,0,0,0,0,0,0,0,0,0,0,0,0,0,0,0,0,0,0,0,0,0,0,0,0,0,0,0,0,0,0,0,0,0,0,0,0,0,0,0,0,0,0,0,0,0,0,0,0,0,0,0,0,0,0,0,0,0,0,0,0,0,0,0,0,0,0,0,0,0,0,0,0,0,0,0,0,0,0,0,0,0,0,0,0,0,0,0,0,0,0,0,0,0,0,0,0,0,0,0,0,0,0,0,0,0,0,0,0,0,0,0,0,0,0,0,0,0,0,0,0,0,0,0,0,0,0,0,0,0,0,0,0,0,0,0,0,0,0,0,0,0,0,0,0,0,0,0,0,0,0,0,0,0,0,0,0,0,0,0,0,0,0,0,0,0,0,0,0,0,0,0,0,0,0,0,0,0,0,0,0,0,0,0,0,0,0,0,0,0,0,0,0,0,0,0,0,0,0,0,0,0,0,0,0,0,0,0,0,0,0,0,0,0,0,0,0,0,0,0,0,0,0,0,0,0,0,0,0,0,0,0,0,0,0,0,0,0,0,0,0,0,0,0,0,0,0,0,0,2116,2116,0,0,0,0,0,0,0,0,0,0,0,0,2109,2109,2094,2094,2080,2073,2073,2060,2046,2046,2032,2032,2019,2006,2006,2000,2000,1980,1968,1968,1955,1943,1943,1931,1931,1925,1913,1913,1901,1901,1895,1884,1884,1878,1872,1872,1861,1861,1855,1844,1844,1839,1828,1828,1817,1817,1807,1791,1791,1775,1775,1760,1745,1745,1731,1731,1716,1702,1702,1684,1674,1674,1661,1661,1643,1630,1630,1617,1617,1605,1588,1588,1576,1576,1564,1552,1552,1545,1545,1537,1529,1529,1522,1518,1518,1514,1514,1511,1511,1514,1514,1514,1518,1518,1522,1522,1522,1526,1526,1529,1537,1537,1552,1576,1576,1605,0,1661,1661,1688,1688,1712,1731,1731,1740,1740,1745,1745,1745,1745,0,1731,1731,1721,1702,1702,1679,1679,1665,1661,1661,1652,1648,1643,1643,1643,1639,1639,1639,1635,1635,1626,1617,1617,1609,1601,1601,1597,1597,1584,1572,1572,1568,1568,1560,1552,1552,1549,1549,1556,1556,1560,1560,1564,0,0,1597,1597,1597,1605,1605,1605,1605,1605,1609,1622,1622,0,0,4175,4119,4119,4065,4065,4038,3986,3986,3961,3910,3910,3862,3862,3838,3838,3862,3862,3910,3961,3961,4038
0,0,0,0,0,0,1736,1736,1736,1745,1745,1745,1750,1750,1755,1765,1765,1770,1770,1775,1781,1781,1791,1801,1801,1812,1823,1823,1833,1833,1844,1850,1850,1867,1878,1878,1884,1889,1889,1895,1895,1901,1901,1901,1907,1913,1913,1919,1919,1919,1919,1919,1925,1931,1931,1931,1931,1931,1937,1937,1943,1949,1949,1955,1961,1961,1968,1968,1968,1968,1968,1968,1968,1968,1968,1968,1961,1961,1961,1955,1955,1955,1955,1955,1955,1955,1955,1955,1961,1955,1955,1955,1968,1968,1961,1961,1968,1968,1968,1961,1961,1961,1955,1949,1949,1949,1949,1943,1937,1937,1925,1925,1925,1919,1919,1913,1907,1907,1901,1901,1895,1895,0,0,0,0,0,0,0,0,0,0,0,0,0,0,0,0,0,0,0,0,0,0,0,0,0,0,0,0,0,0,0,0,0,0,0,0,0,0,0,0,0,0,0,0,0,0,0,0,0,0,0,0,0,0,0,0,0,0,0,0,0,0,0,0,0,0,0,0,0,0,0,0,0,0,0,0,0,0,0,0,0,0,0,0,0,0,0,0,0,0,0,0,0,0,0,0,0,0,0,0,0,0,0,0,0,0,0,0,0,0,0,0,0,0,0,0,0,0,0,0,0,0,0,0,0,0,0,0,0,0,0,0,0,0,0,0,0,0,0,0,0,0,0,0,0,0,0,0,0,0,0,0,0,0,0,0,0,0,0,0,0,0,0,0,0,0,0,0,0,0,0,0,0,0,0,0,0,0,0,0,0,0,0,0,0,0,0,0,0,0,0,0,0,0,0,0,0,0,0,0,0,0,0,0,0,0,0,0,0,0,0,0,0,0,0,0,0,0,0,0,0,0,0,0,0,0,0,0,0,0,0,0,0,0,0,0,0,0,0,0,0,0,0,0,0,0,0,0,0,0,0,0,0,0,0,0,0,0,0,0,0,0,0,0,0,0,0,0,0,0,0,0,0,0,0,0,0,0,0,0,0,0,0,0,0,0,0,0,0,0,0,0,0,0,0,0,0,0,0,0,0,0,0,0,2116,2116,0,0,0,0,0,0,0,0,0,0,0,0,2080,2080,2073,2073,2066,2060,2060,2053,2039,2039,2032,2032,2013,2006,2006,1993,1980,1980,1968,1968,1955,1943,1943,1937,1937,1925,1913,1913,1901,1895,1895,1889,1889,1878,1872,1872,1861,1861,1850,1844,1844,1833,1828,1828,1817,1817,1807,1791,1791,1775,1775,1760,1745,1745,1731,1731,1716,1702,1702,1688,1674,1674,1661,1661,1648,1630,1630,1617,1617,1605,1592,1592,1576,1576,1564,1552,1552,1545,1545,1537,1529,1529,1522,1518,1518,1514,1514,1511,1511,1511,1511,1514,1514,1514,1518,1518,1522,1526,1526,1529,1537,1537,1552,1576,1576,1605,1643,1643,1661,1688,1688,1712,1731,1731,1740,1740,1745,1745,1745,1745,0,1731,1731,1721,1702,1702,1684,1684,1670,1661,1661,1652,1648,1648,1643,1643,1643,1643,1643,1639,1635,1630,1622,1622,1613,1601,1601,1597,1597,1584,1576,1576,1568,1568,1560,1552,1552,1549,1549,1556,1556,1564,1564,0,0,0,1601,1601,1601,1609,1609,1609,1609,1609,1609,1622,1622,0,0,0,4147,4147,4119,4065,4065,4038,4038,3961,3910,3910,3862,3862,3838,3838,3862,3862,3910,3961,3961,4038
0,0,0,0,0,1731,1731,1736,1736,1740,1740,1745,1750,1750,1750,1755,1755,1765,1765,1770,1781,1781,1786,1801,1801,1812,1817,1817,1833,1833,1839,1850,1850,1861,1878,1878,1889,1895,1895,1901,1901,1901,1907,1907,1913,1919,1919,1919,1925,1925,1925,1925,1925,1931,1931,1931,1931,1931,1937,1937,1943,1949,1949,1955,1961,1961,1968,1968,1968,1968,1968,1968,1968,1968,1968,1968,1961,1961,1961,1955,1955,1955,1955,1955,1955,1955,1955,1955,1961,1955,1955,1955,1955,1955,1955,1955,1955,1955,1961,1955,1949,1949,1949,1943,1943,1943,1943,1937,1931,1931,1925,1925,1925,1913,1913,1913,1907,1907,1901,1895,1895,1889,1889,1889,0,0,0,0,0,0,0,0,0,0,0,0,0,0,0,0,0,0,0,0,0,0,0,0,0,0,0,0,0,0,0,0,0,0,0,0,0,0,0,0,0,0,0,0,0,0,0,0,0,0,0,0,0,0,0,0,0,0,0,0,0,0,0,0,0,0,0,0,0,0,0,0,0,0,0,0,0,0,0,0,0,0,0,0,0,0,1974,1974,1955,1955,1943,1931,1931,1925,1925,1907,1889,1889,1884,1884,1884,1884,1884,1884,1884,1884,1878,1878,1878,1872,1872,1872,0,0,0,1861,1861,1861,1861,1861,1867,1867,1867,1872,0,0,0,0,0,0,0,0,0,0,0,0,0,0,0,0,0,0,0,0,0,0,0,0,0,0,0,0,0,0,0,0,0,0,0,0,0,0,0,0,0,0,0,0,0,0,0,0,0,0,0,0,0,0,0,0,0,0,0,0,0,0,0,0,0,0,0,0,0,0,0,0,0,0,0,0,0,0,0,0,0,0,0,0,0,0,0,0,0,0,0,0,0,0,0,0,0,0,0,0,0,0,0,0,0,0,0,0,0,0,0,0,0,0,0,0,0,0,0,0,0,0,0,0,0,0,0,0,0,0,0,0,0,0,0,0,0,0,0,0,0,0,0,0,0,0,0,0,0,0,0,0,0,0,0,0,0,0,0,0,0,0,0,0,0,0,0,0,0,0,0,0,0,0,0,0,0,0,2116,2116,0,0,0,0,0,0,0,0,0,0,0,0,2053,2053,2053,2053,2053,2053,2053,2046,2039,2039,2026,2026,2013,2006,2006,1993,1980,1980,1968,1968,1955,1949,1949,1937,1937,1925,1913,1913,1907,1895,1895,1889,1889,1878,1872,1872,1861,1861,1850,1844,1844,1833,1828,1828,1817,1817,1807,1791,1791,1775,1775,1760,1745,1745,1731,1731,1716,1702,1702,1688,1674,1674,1661,1661,1648,1630,1630,1617,1617,1605,1592,1592,1576,1576,1564,1552,1552,1541,1541,1537,1529,1529,1522,1518,1518,1514,1514,1511,1511,1511,1511,1514,1514,1514,1518,1518,1522,1526,1526,1533,1541,1541,1560,1588,1588,1617,1643,1643,1670,1693,1693,1716,1736,1736,1745,1745,1750,1750,1745,1745,0,1731,1731,1721,1702,1702,1688,1688,1674,1661,1661,1652,1648,1648,1643,1643,1643,1643,1643,1639,1635,1635,1626,1626,1613,1601,1601,1597,1597,1584,1572,1572,1568,1568,1556,1552,1552,1549,1549,1556,1556,1564,1564,0,0,0,1601,1601,1601,1605,1605,1605,1605,1605,1609,1622,1622,1630,0,4261,4147,4147,4119,4065,4065,4038,4038,4012,3961,3961,3910,3910,3886,3886,3910,3910,3961,4012,4012,4065
0,0,0,0,0,1731,1731,1731,1731,1736,1736,1740,1745,1745,1750,1755,1755,1765,1765,1770,1781,1781,1786,1801,1801,1812,1817,1817,1833,1833,1839,1850,1850,1861,1878,1878,1889,1895,1895,1901,1901,1907,1913,1913,1919,1925,1925,1925,1925,1925,1925,1925,1931,1931,1931,1931,1931,1931,1937,1937,1937,1943,1943,1955,1961,1961,1961,1961,1968,1968,1968,1968,1968,1968,1968,1961,1961,1961,1955,1955,1955,1949,1949,1949,1949,1949,1949,1949,1949,1949,1949,1949,1949,1949,1949,1949,1955,1949,1949,1949,1949,1949,1943,1943,1943,1937,1937,1937,1925,1925,1919,1919,1919,1913,1913,1913,1907,1907,1901,1895,1895,1889,1889,1889,0,0,0,0,0,0,0,0,0,0,0,0,0,0,0,0,0,0,0,0,0,0,0,0,0,0,0,0,0,0,0,0,0,0,0,0,0,0,0,0,0,0,0,0,0,0,0,0,0,0,0,0,0,0,0,0,0,0,0,0,0,0,0,0,0,0,0,0,0,0,0,0,0,0,0,0,0,0,0,0,0,0,0,2000,2000,1987,1974,1974,1955,1955,1943,1931,1931,1925,1925,1907,1889,1889,1884,1884,1884,1884,1884,1884,1884,1884,1878,1878,1878,1872,1872,1872,0,0,0,1861,1861,1861,1861,1861,1867,1867,1867,1872,0,0,0,0,0,0,0,0,0,0,0,0,0,0,0,0,0,0,0,0,0,0,0,0,0,2046,2046,2046,2046,2046,2046,2039,2039,2039,2039,0,0,0,0,0,0,0,0,0,0,0,0,0,0,0,0,0,0,0,0,0,0,0,0,0,0,0,0,0,0,0,0,0,0,0,0,0,0,0,0,0,0,0,0,0,0,0,0,0,0,0,0,0,0,0,0,0,0,0,0,0,0,0,0,0,0,0,0,0,0,0,0,0,0,0,0,0,0,0,0,0,0,0,0,0,0,0,0,0,0,0,0,0,0,0,0,0,0,0,0,0,0,0,0,0,0,0,0,0,0,0,0,0,0,0,0,0,0,0,0,0,0,0,0,0,0,0,0,0,0,0,0,0,0,0,0,0,0,0,0,0,0,0,0,0,0,0,0,0,0,0,0,0,0,0,0,0,2053,2053,2053,2053,2053,2053,2053,2046,2039,2039,2026,2026,2013,2006,2006,1993,1980,1980,1968,1968,1955,1949,1949,1937,1937,1925,1913,1913,1907,1895,1895,1889,1889,1878,1867,1867,1855,1855,1850,1839,1839,1833,1823,1823,1817,1817,1801,1791,1791,1775,1775,1760,1745,1745,1731,1731,1716,1707,1707,1688,1679,1679,1665,1665,1648,1635,1635,1617,1617,1605,1592,1592,1576,1576,1564,1552,1552,1541,1541,1537,1529,1529,1522,1518,1518,1514,1514,1511,1511,1511,1511,1514,1514,1514,1518,1518,1522,1526,1526,1537,1549,1549,1568,1597,1597,1630,1656,1656,1679,1702,1702,1716,1736,1736,1745,1745,1750,1750,1745,1745,1745,1731,1731,1721,1702,1702,1688,1688,1674,1661,1661,1652,1648,1648,1643,1643,1643,1643,1643,1639,1635,1635,1626,1626,1613,1601,1601,1597,1597,1584,1572,1572,1568,1568,1556,1556,0,0,0,0,0,0,0,0,0,0,1597,1597,1597,1601,1605,1605,1605,1605,1609,1622,1622,1630,0,4261,4203,4203,4147,4119,4119,4092,4092,4065,4012,4012,3961,3961,3910,3910,3961,3961,4038,4065,4065,4119
0,0,0,0,0,1731,1731,1731,1731,1736,1736,1740,1745,1745,1750,1755,1755,1760,1760,1770,1781,1781,1786,1796,1796,1812,1817,1817,1833,1833,1839,1850,1850,1861,1878,1878,1889,1895,1895,1901,1901,1907,1913,1913,1919,1925,1925,1925,1925,1925,1925,1925,1931,1931,1931,1931,1931,1931,1937,1937,1937,1943,1943,1949,1955,1955,1955,1955,1961,1961,1961,1961,1961,1961,1961,1961,1955,1955,1955,1955,1955,1949,1949,1949,1949,1949,1949,1949,1949,1949,1949,1949,1949,1949,1949,1949,1955,1949,1949,1949,1949,1949,1943,1943,1943,1937,1937,1937,1925,1925,1919,1919,1919,1913,1913,1913,1901,1901,1895,1895,1895,1889,1889,1889,1889,0,0,0,0,0,0,0,0,0,0,0,0,0,0,0,0,0,0,0,0,0,0,0,0,0,0,0,0,0,0,0,0,0,0,0,0,0,0,0,0,0,0,0,0,0,0,0,0,0,0,0,0,0,0,0,0,0,0,0,0,0,0,0,0,0,0,0,0,0,0,0,0,0,0,0,0,0,0,0,0,0,0,2000,2000,1987,1974,1974,1955,1955,1943,1931,1931,1925,1925,1907,1889,1889,1884,1884,1884,1884,1884,1884,1884,1884,1878,1872,1872,1867,1867,1867,1867,1867,1861,1861,1861,1861,1861,1861,1867,1867,1867,1872,1884,1884,1889,1913,1913,1943,1943,1974,1993,1993,2006,2026,2026,2039,2053,2053,2053,2053,2053,2053,2053,2053,2053,2053,2053,2046,2046,2046,2039,2039,2039,2039,2039,2039,2039,0,0,0,0,0,0,0,0,0,0,0,0,0,0,0,0,0,0,0,0,0,0,0,0,0,0,0,0,0,0,0,0,0,0,0,0,0,0,0,0,0,0,0,0,0,0,0,0,0,0,0,0,0,0,0,0,0,0,0,0,0,0,0,0,0,0,0,0,0,0,0,0,0,0,0,0,0,0,0,0,0,0,0,0,0,0,0,0,0,0,0,0,0,0,0,0,0,0,0,0,0,0,0,0,0,0,0,0,0,0,0,0,0,0,0,0,0,0,0,0,0,0,0,0,0,0,0,0,0,0,0,0,0,0,0,0,0,0,0,0,0,0,0,0,0,0,0,0,0,0,0,0,0,0,0,0,2046,2046,2046,2046,2046,2046,2046,2046,2046,2032,2032,2019,2019,2013,2000,2000,1993,1980,1980,1974,1974,1961,1949,1949,1943,1943,1925,1913,1913,1907,1895,1895,1884,1884,1872,1867,1867,1855,1855,1850,1839,1839,1833,1823,1823,1817,1817,1801,1791,1791,1775,1775,1760,1745,1745,1736,1736,1721,1707,1707,1693,1679,1679,1665,1665,1648,1635,1635,1617,1617,1605,1592,1592,1576,1576,1564,1552,1552,1541,1541,1537,1526,1526,1522,1518,1518,1514,1514,1511,1511,1511,1511,1511,1514,1514,1518,1518,1522,1526,1526,1537,1549,1549,1568,1597,1597,1630,1656,1656,1679,1702,1702,1721,1740,1740,1750,1750,1750,1755,1750,1745,1745,1736,1736,1721,1707,1707,1688,1688,1674,1661,1661,1656,1652,1652,1652,1652,1648,1643,1643,1643,1635,1635,1626,1626,1617,1605,1605,1597,1597,1584,1572,1572,1568,1568,0,0,0,0,0,0,0,0,0,0,0,0,1597,1597,1597,1601,1605,1605,1605,1605,1605,1622,1622,1630,0,4261,4203,4203,4147,4119,4119,4092,4092,4065,4012,4012,3961,3961,3910,3910,3961,3961,4038,4065,4065,4119
0,0,0,1721,1721,1721,1726,1731,1731,1731,1731,1736,1740,1740,1745,1750,1750,1760,1760,1765,1775,1775,1786,1796,1796,1807,1823,1823,1833,1844,1844,1850,1850,1872,1884,1884,1895,1901,1901,1907,1913,1913,1919,1919,1931,1937,1931,1931,1931,1931,1931,1931,1931,1931,1931,1931,1931,1931,1937,1937,1937,1943,1943,1949,1955,1955,1955,1955,1961,1961,1961,1961,1961,1961,1961,1961,1955,1955,1955,1949,1949,1949,1949,1949,1949,1949,1949,1949,1949,1949,1949,1943,1943,1943,1943,1943,1949,1949,1949,1943,1943,1943,1937,1937,1937,1931,1931,1931,1919,1919,1919,1913,1913,1907,1907,1907,1901,1901,1895,1895,1895,1889,1889,1889,1884,1884,1884,1884,0,0,0,0,0,0,0,0,0,0,0,0,0,0,0,0,0,0,0,0,0,0,0,0,0,0,0,0,0,0,0,0,0,0,0,0,0,0,0,0,0,0,0,0,0,0,0,0,0,0,0,0,0,0,0,0,0,0,0,0,0,0,0,0,0,0,0,0,0,0,0,2000,2000,2000,2000,2006,2006,2006,2006,1993,1993,1987,1974,1974,1955,1955,1943,1931,1931,1925,1907,1907,1889,1889,1889,1884,1884,1884,1889,1884,1884,1884,1878,1872,1872,1867,1867,1867,1867,1867,1861,1861,1861,1861,1861,1861,1867,1872,1872,1878,1884,1884,1889,1913,1913,1943,1943,1974,1993,1993,2006,2026,2026,2039,2053,2053,2053,2053,2053,2053,2053,2053,2053,2053,2053,2046,2046,2046,2039,2039,2039,2039,2039,2032,2032,2032,2032,0,0,0,0,0,0,0,0,0,0,0,0,0,0,0,0,0,0,0,0,0,0,0,0,0,0,0,0,0,0,0,0,0,0,0,0,0,0,0,0,0,0,0,0,0,0,0,0,0,0,0,0,0,0,0,0,0,0,0,0,0,0,0,0,0,0,0,0,0,0,0,0,0,0,0,0,0,0,0,0,0,0,0,0,0,0,0,0,0,0,0,0,0,0,0,0,0,0,0,0,0,0,0,0,0,0,0,0,0,0,0,0,0,0,0,0,0,0,0,0,0,0,0,0,0,0,0,2000,2000,2006,2006,2013,0,0,0,2026,2026,2026,2026,2032,2032,2032,2032,2019,2006,2006,2006,2006,2006,2006,2013,2013,2019,2026,2026,2026,2046,2046,2046,2046,2046,2046,2046,2032,2032,2019,2019,2013,2000,2000,1993,1980,1980,1974,1974,1961,1949,1949,1943,1943,1925,1913,1913,1907,1895,1895,1884,1884,1872,1867,1867,1855,1855,1844,1839,1839,1828,1823,1823,1812,1812,1801,1786,1786,1775,1775,1760,1745,1745,1736,1721,1721,1707,1707,1693,1679,1679,1665,1665,1648,1635,1635,1617,1617,1605,1592,1592,1576,1576,1564,1552,1552,1541,1541,1533,1526,1526,1522,1514,1514,1511,1511,1511,1511,1511,1511,1511,1514,1514,1518,1518,1522,1529,1529,1537,1552,1552,1576,1605,1605,1635,1661,1661,1688,1707,1707,1726,1740,1740,1750,1755,1755,1755,1750,1745,1745,1736,1736,1721,1707,1707,1693,1693,1679,1665,1665,1656,1652,1652,1652,1652,1648,1643,1643,1643,1635,1635,1626,1626,1617,1605,1605,1597,1597,1584,1572,1572,1560,1560,0,1549,1549,1541,1537,1537,1537,1537,1537,0,0,0,1588,1588,1588,1597,1605,1605,1605,1605,1605,0,1630,1630,0,4291,4232,4232,4203,4175,4175,4147,4147,4092,4092,4092,4038,4012,4012,4012,4012,4012,4065,4119,4119,4175
0,0,1721,1721,1721,1721,1726,1731,1731,1731,1731,1736,1740,1740,1745,1750,1750,1760,1760,1765,1775,1775,1786,1796,1796,1807,1823,1823,1833,1844,1844,1850,1850,1872,1889,1889,1901,1907,1907,1913,1913,1913,1919,1919,1931,1937,1931,1931,1931,1931,1931,1931,1931,1931,1931,1931,1931,1931,1931,1931,1931,1937,1937,1943,1949,1949,1949,1949,1955,1955,1955,1955,1955,1955,1955,1955,1955,1955,1949,1949,1949,1949,1949,1949,1949,1949,1949,1949,1949,1943,1943,1943,1937,1937,1937,1943,1943,1943,1943,1937,1937,1937,1937,1937,1937,1931,1931,1931,1919,1919,1919,1913,1913,1907,1907,1907,1901,1901,1895,1895,1895,1889,1889,1889,1884,1884,1884,1884,0,0,0,0,0,0,0,0,0,0,0,0,0,0,0,0,0,0,0,0,0,0,0,0,0,0,0,0,0,0,0,0,0,0,0,0,0,0,0,0,0,0,2026,2026,2026,2026,2026,2019,2019,2019,2013,2013,2006,2006,0,2000,2000,2000,2000,2000,2000,2000,2000,2000,2000,2000,2000,2006,2000,2000,2000,1993,1993,1993,2000,2000,2000,2006,2006,1993,1993,1987,1974,1974,1955,1955,1949,1937,1937,1925,1907,1907,1895,1895,1895,1889,1889,1889,1889,1884,1884,1884,1878,1878,1878,1878,1878,1872,1872,1872,1867,1861,1861,1861,1861,1861,1867,1872,1872,1878,1884,1884,1889,1913,1913,1943,1943,1974,1993,1993,2006,2026,2026,2039,2053,2053,2053,2053,2053,2053,2053,2053,2053,2053,2046,2046,2046,2046,2039,2039,2039,2032,2032,2032,2032,2032,2026,2019,2019,2013,2013,2000,1987,1987,1974,1968,1968,1968,1968,1955,1955,0,0,0,0,0,0,0,0,0,0,0,0,0,0,0,0,0,0,0,0,0,0,0,0,0,0,0,0,0,0,0,0,0,0,0,0,0,0,0,0,0,0,0,0,0,0,0,0,0,0,0,0,0,0,0,0,0,0,0,0,0,0,0,0,0,0,0,0,0,0,0,0,0,0,0,0,0,0,0,0,0,0,0,0,0,0,0,0,0,0,0,0,0,0,0,0,0,0,0,0,0,0,0,0,0,0,0,0,0,0,0,0,0,2000,2000,2006,2006,2013,0,0,0,2026,2026,2026,2026,2032,2032,2032,2032,2019,2006,2006,2006,2006,2006,2006,2013,2013,2019,2026,2026,2026,2032,2032,2039,2039,2039,2039,2032,2026,2026,2019,2019,2006,1993,1993,1987,1974,1974,1968,1968,1955,1949,1949,1937,1937,1925,1913,1913,1901,1895,1895,1884,1884,1872,1861,1861,1850,1850,1844,1833,1833,1828,1817,1817,1812,1812,1801,1786,1786,1775,1775,1760,1745,1745,1731,1721,1721,1707,1707,1693,1679,1679,1665,1665,1652,1635,1635,1617,1617,1605,1592,1592,1576,1576,1564,1552,1552,1541,1541,1533,1526,1526,1522,1514,1514,1511,1511,1511,1511,1511,1511,1511,1514,1514,1518,1518,1522,1529,1529,1537,1552,1552,1576,1605,1605,1635,1661,1661,1688,1707,1707,1726,1740,1740,1750,1755,1755,1755,1750,1745,1745,1736,1736,1721,1707,1707,1693,1684,1679,1665,1665,1656,1652,1652,1652,1652,1652,1652,1652,1643,1639,1639,1626,1626,1617,1605,1605,1597,1597,1584,1572,1572,1560,1560,0,1549,1549,1541,1537,1537,1537,1537,1537,0,0,0,1588,1588,1588,1597,1605,1605,1605,1605,1605,0,0,0,0,0,4291,4291,4261,4232,4232,4232,4232,4175,4175,4175,4119,4092,4092,4092,4092,4092,4175,4232,4232,4203
0,0,1721,1721,1721,1721,1721,1726,1726,1726,1726,1731,1736,1736,1745,1750,1750,1755,1760,1765,1775,1775,1786,1796,1796,1807,1823,1823,1833,1844,1844,1850,1850,1872,1889,1889,1901,1907,1907,1913,1925,1925,1925,1925,1937,1943,1937,1937,1937,1937,1937,1937,1931,1931,1931,1931,1931,1925,1925,1925,1931,1931,1931,1937,1943,1943,1943,1943,1955,1955,1955,1955,1955,1955,1955,1955,1955,1955,1949,1949,1949,1949,1949,1949,1949,1949,1949,1949,1949,1943,1943,1943,1937,1937,1937,1943,1943,1943,1943,1937,1937,1937,1937,1937,1937,1931,1931,1925,1919,1919,1913,1907,1907,1907,1907,1901,1901,1901,1895,1889,1889,1889,1889,1889,1884,1884,1884,1884,0,0,0,0,0,0,0,0,0,0,0,0,0,0,0,0,0,0,0,0,0,0,0,0,0,0,0,0,0,0,0,0,0,0,0,0,0,0,0,0,0,0,2026,2026,2026,2026,2026,2019,2019,2019,2013,2013,2006,2006,0,2000,2000,2000,2000,2000,2000,2000,2000,2000,2000,2000,2000,2006,2000,2000,2000,1993,1993,1993,2000,2000,2000,2000,2000,1993,1993,1980,1968,1968,1955,1955,1949,1937,1937,1925,1907,1907,1895,1895,1895,1889,1889,1889,1889,1884,1884,1884,1878,1878,1878,1878,1878,1872,1872,1872,1867,1867,1867,1867,1867,1867,1872,1878,1878,1884,1889,1889,1901,1925,1925,1955,1980,1980,2000,2000,2013,2032,2032,2046,2053,2053,2053,2053,2053,2053,2053,2053,2053,2053,2046,2046,2046,2046,2039,2039,2039,2032,2032,2032,2032,2032,2026,2019,2019,2013,2013,2000,1987,1987,1974,1968,1968,1968,1968,1955,1955,0,0,0,0,0,0,0,0,0,0,0,0,0,0,0,0,0,0,0,0,0,0,0,0,0,0,0,0,0,0,0,0,0,0,0,0,0,0,0,0,0,0,0,0,0,0,0,0,0,0,0,0,0,0,0,0,0,0,0,0,0,0,0,0,0,0,0,0,0,0,0,0,0,0,0,0,0,0,0,0,0,0,0,0,0,0,0,0,0,0,0,0,0,0,0,0,0,0,0,0,0,0,0,0,0,0,0,0,0,0,0,2000,2000,2000,2000,2000,2000,2006,2006,2006,2006,2006,2019,2019,2019,2032,2032,2026,2026,2013,2000,2000,2000,2000,2000,2000,2000,2000,2006,2013,2013,2013,2019,2019,2026,2026,2026,2026,2026,2013,2013,2006,2006,2000,1987,1987,1980,1974,1974,1961,1961,1949,1943,1943,1931,1931,1925,1913,1913,1901,1895,1895,1884,1884,1872,1861,1861,1850,1850,1844,1833,1833,1828,1817,1817,1812,1812,1801,1786,1786,1775,1775,1760,1745,1745,1731,1721,1721,1707,1707,1693,1679,1679,1665,1665,1652,1635,1635,1617,1617,1605,1592,1592,1576,1576,1564,1549,1549,1541,1533,1533,1526,1526,1518,1514,1514,1511,1511,1511,1511,1511,1511,1511,1514,1514,1518,1518,1522,1529,1529,1541,1560,1560,1584,1613,1613,1643,1670,1670,1693,1716,1716,1731,1745,1745,1755,1755,1755,1760,1755,1745,1745,1740,1740,1726,1712,1712,1697,1684,1684,1670,1670,1661,1656,1656,1656,1656,1656,1652,1652,1648,1639,1639,1630,1630,1617,1605,1605,1597,1597,1584,1572,1572,1560,1560,0,0,0,0,1537,1537,1537,1537,1537,0,0,0,1580,1580,1580,1584,1592,1592,1597,1597,1597,0,1626,1626,0,0,4291,4291,4261,4232,4232,4232,4232,4175,4175,4175,4119,4092,4092,4092,4092,4092,4175,4232,4232,4261
0,0,1721,1721,1721,1721,1721,1726,1726,1726,1726,1731,1736,1736,1745,1750,1750,1755,1770,1770,1775,1775,1786,1796,1796,1812,1823,1823,1833,1850,1850,1855,1855,1872,1889,1889,1901,1913,1913,1919,1925,1925,1931,1931,1943,1943,1943,1943,1943,1943,1943,1943,1937,1937,1931,1931,1931,1925,1925,1925,1931,1931,1931,1937,1943,1943,1943,1943,1949,1949,1949,1949,1949,1949,1949,1949,1949,1949,1949,1949,1949,1949,1949,1949,1949,1949,1949,1949,1949,1943,1943,1937,1937,1937,1937,1937,1937,1937,1937,1931,1931,1931,1925,1925,1925,1925,1925,1919,1913,1913,1907,1901,1901,1901,1901,1895,1889,1889,1889,1889,1889,1889,0,0,0,0,0,0,0,0,0,0,0,0,0,0,0,0,0,0,0,0,0,0,0,0,0,0,0,0,0,0,0,0,0,0,0,0,0,0,0,0,0,0,0,0,0,2026,2026,2026,2026,2026,2026,2026,2026,2019,2019,2013,2013,2013,2006,2000,2000,1993,1993,1993,1993,1993,1993,1993,1993,1993,2000,2000,2000,2000,2000,1993,1993,1993,1993,1993,1993,2000,2000,2000,2000,1987,1987,1980,1968,1968,1955,1955,1949,1937,1937,1925,1913,1913,1901,1901,1895,1895,1895,1895,1895,1889,1884,1884,1884,1878,1878,1878,1878,1872,1872,1872,1872,1872,1872,1872,1872,1878,1878,1884,1884,1895,1901,1901,1913,1937,1937,1961,1987,1987,2006,2006,2019,2032,2032,2046,2053,2053,2053,2053,2053,2053,2053,2053,2053,2053,2046,2046,2046,2046,2039,2039,2039,2032,2032,2032,2032,2032,2026,2019,2019,2013,2013,1993,1987,1987,1974,1968,1968,1961,1961,1949,1949,1949,1943,1943,0,0,0,0,0,0,0,0,0,0,0,0,0,0,0,0,0,0,0,0,0,0,0,0,0,0,0,0,0,0,0,0,0,0,0,0,0,0,0,0,0,0,0,0,0,0,0,0,0,0,0,0,0,0,0,0,0,0,0,0,0,0,0,0,0,0,0,0,0,0,0,0,0,0,0,0,0,0,0,0,0,0,0,0,0,0,0,0,0,0,0,0,0,0,0,0,0,1987,1987,1987,1987,1987,1987,1987,1987,1987,1993,1993,1993,2000,1993,1993,2000,2000,2006,2006,2006,2006,2006,2013,2013,2013,2013,2019,2019,2019,2013,2000,2000,2000,2000,2000,2000,2000,2000,2006,2013,2013,2013,2019,2019,2026,2026,2026,2026,2026,2013,2013,2006,2006,2000,1987,1987,1980,1974,1974,1961,1961,1949,1943,1943,1931,1931,1925,1913,1913,1901,1889,1889,1878,1878,1867,1855,1855,1844,1844,1839,1828,1828,1823,1817,1817,1807,1807,1796,1786,1786,1770,1770,1760,1745,1745,1731,1721,1721,1707,1707,1693,1684,1684,1665,1665,1652,1635,1635,1617,1617,1605,1592,1592,1576,1576,1560,1549,1549,1541,1533,1533,1526,1526,1518,1514,1514,1511,1511,1511,1511,1511,1511,1514,1514,1514,1518,1526,1526,1529,1529,1545,1564,1564,1588,1613,1613,1643,1674,1674,1697,1716,1716,1731,1745,1745,1755,1760,1760,1760,1755,1750,1750,1745,1745,1726,1712,1712,1697,1684,1684,1670,1670,1661,1656,1656,1656,1656,1656,1652,1652,1648,1639,1639,1630,1630,1617,1605,1605,1597,1597,1584,1572,1572,1560,1552,1552,1552,0,0,0,0,0,0,0,0,0,0,1568,1568,1568,1572,1584,1584,1588,1588,1588,1609,1609,1622,0,0,4351,4351,4321,4321,4321,4291,4291,4291,4261,4261,4232,4203,4203,4203,4232,4261,4261,4321,4321,4321
0,0,1721,1721,1721,1721,1721,1726,1726,1731,1731,1731,1736,1736,1745,1750,1750,1755,1770,1770,1781,1781,1786,1801,1801,1812,1823,1823,1833,1850,1850,1855,1855,1872,1889,1889,1901,1913,1913,1919,1925,1925,1931,1931,1943,1943,1943,1943,1943,1943,1943,1943,1937,1937,1931,1925,1925,1925,1925,1925,1925,1925,1925,1931,1931,1931,1937,1937,1937,1943,1943,1943,1943,1943,1943,1949,1949,1949,1949,1943,1943,1943,1943,1943,1943,1949,1949,1943,1943,1937,1937,1931,1931,1937,1937,1937,1937,1937,1937,1931,1931,1931,1925,1925,1925,1925,1925,1919,1913,1913,1907,1901,1901,1901,1901,1895,1889,1889,1889,0,0,0,0,0,0,0,0,0,0,0,0,0,0,0,0,0,0,0,0,0,0,0,0,0,0,0,0,0,0,0,0,0,0,0,0,0,0,0,0,0,0,0,0,0,0,2013,2013,2013,2019,2019,2026,2026,2019,2019,2019,2019,2019,2013,2013,2013,2006,2000,2000,1993,1993,1993,1993,1993,1993,1993,1993,1993,2000,2000,2000,2000,2000,1993,1993,1993,1993,1993,1993,2000,2000,2000,2000,1987,1987,1980,1968,1968,1961,1961,1949,1943,1943,1931,1919,1919,1907,1907,1907,1901,1901,1901,1895,1889,1884,1884,1884,1878,1878,1878,1878,1872,1872,1872,1872,1872,1872,1872,1872,1878,1878,1884,1884,1895,1901,1901,1913,1937,1937,1961,1987,1987,2006,2006,2019,2032,2032,2046,2053,2053,2053,2053,2053,2053,2053,2053,2053,2053,2046,2046,2046,2046,2046,2046,2046,2039,2039,2039,2032,2032,2026,2019,2019,2013,2013,1993,1987,1987,1980,1968,1968,1961,1961,1949,1949,1949,1943,1943,0,0,0,0,0,0,0,0,0,0,0,0,0,0,0,0,0,0,0,0,0,0,0,0,0,0,0,0,0,0,0,0,0,0,0,0,0,0,0,0,0,0,0,0,0,0,0,0,0,0,0,0,0,0,0,0,0,0,0,0,0,0,0,0,0,0,0,0,0,0,0,0,0,0,0,0,0,0,0,0,0,0,0,0,0,0,0,0,0,0,0,0,0,0,0,0,0,1987,1987,1987,1987,1987,1987,1987,1987,1987,1993,1993,1993,2000,1993,1993,2006,2006,2006,2006,2006,2006,2006,2013,2013,2013,2013,2019,2019,2019,2006,1993,1993,1993,1993,1993,1987,1987,1987,1993,2000,1993,1993,2000,2000,2006,2006,2006,2006,2006,2000,2000,1987,1987,1987,1980,1980,1974,1961,1961,1955,1955,1949,1937,1937,1925,1919,1919,1907,1907,1895,1884,1884,1872,1872,1861,1850,1850,1844,1833,1833,1828,1828,1817,1812,1812,1801,1801,1791,1781,1781,1770,1770,1760,1745,1745,1731,1721,1721,1707,1707,1697,1684,1684,1665,1665,1652,1635,1635,1617,1617,1605,1592,1592,1576,1576,1560,1549,1549,1541,1533,1533,1526,1526,1518,1514,1514,1511,1511,1511,1511,1511,1511,1514,1514,1514,1518,1526,1526,1529,1529,1545,1564,1564,1588,1613,1613,1643,1670,1670,1697,1716,1716,1731,1745,1745,1755,1760,1760,1760,1755,1750,1750,1745,1731,1731,1716,1716,1702,1684,1684,1674,1674,1661,1661,1661,1661,1661,1661,1656,1656,1652,1643,1643,1630,1630,1617,1605,1605,1597,1597,1588,1572,1572,1560,1552,1552,1552,0,0,0,0,0,0,0,0,0,0,1568,1568,1568,1572,1584,1584,1588,1588,1588,1609,1609,1622,0,0,4413,4413,4413,4413,4413,4382,4382,4382,4261,4261,4232,4203,4203,4203,4232,4261,4261,4321,4321,4321
0,0,1721,1721,1721,1721,1721,1721,1721,1731,1731,1731,1736,1736,1745,1750,1750,1755,1770,1770,1781,1781,1786,1801,1801,1812,1823,1823,1839,1850,1850,1861,1861,1878,1895,1895,1907,1919,1919,1931,1931,1931,1943,1943,1949,1949,1949,1943,1943,1943,1943,1943,1937,1937,1931,1925,1925,1925,1925,1925,1925,1925,1925,1931,1931,1931,1937,1937,1937,1943,1943,1943,1943,1943,1943,1949,1949,1949,1949,1943,1943,1943,1943,1943,1943,1949,1949,1943,1943,1937,1937,1931,1931,1931,1931,1931,1931,1931,1931,1925,1925,1925,1925,1919,1919,1919,1919,1913,1907,1907,1901,1895,1895,1895,1895,1889,1884,1884,1884,1884,0,0,0,0,0,0,0,0,0,0,0,0,0,0,0,0,0,0,0,0,0,0,0,0,0,0,0,0,0,0,0,0,0,0,0,0,0,0,0,0,0,0,0,0,0,2013,2013,2013,2019,2019,2026,2026,2019,2019,2019,2019,2019,2013,2013,2013,2006,2000,2000,1993,1993,1993,1993,1993,1993,1993,1993,1993,2000,2000,2000,2000,2000,1993,1993,1993,1993,1993,1993,1993,1993,1993,1993,1987,1987,1974,1968,1968,1961,1961,1949,1943,1943,1931,1919,1919,1907,1907,1907,1901,1901,1901,1895,1895,1895,1895,1889,1889,1889,1884,1884,1884,1878,1878,1878,1878,1878,1878,1878,1884,1884,1889,1889,1901,1907,1907,1925,1949,1949,1968,1993,1993,2013,2013,2026,2039,2039,2046,2053,2053,2053,2053,2053,2053,2053,2053,2053,2053,2053,2053,2046,2046,2046,2046,2046,2046,2039,2039,2032,2032,2026,2019,2019,2013,2013,1993,1987,1987,1974,1968,1968,1955,1955,1949,1943,1943,1943,1937,1937,1937,1937,1937,1943,1943,1943,1949,1961,1961,1968,1968,0,0,0,0,0,0,0,0,0,0,0,0,0,0,0,0,0,0,0,0,0,0,0,0,0,0,0,0,0,0,0,0,0,0,0,0,0,0,0,0,0,0,0,0,0,0,0,0,0,0,0,0,0,0,0,0,0,0,0,0,0,0,0,0,0,0,0,0,0,0,0,0,0,0,0,0,0,0,1980,1980,1980,1980,1980,1980,1980,1980,1980,1980,1980,1987,1987,1987,1987,1987,1993,1993,1993,1993,1993,1993,2000,2000,2000,2006,2006,2006,2006,2006,2013,2013,2013,2013,2013,2013,2000,1987,1987,1980,1980,1987,1980,1980,1980,1980,1980,1974,1974,1974,1974,1980,1980,1980,1980,1974,1974,1974,1968,1968,1961,1961,1980,1974,1961,1961,1955,1955,1949,1937,1937,1925,1919,1919,1907,1907,1895,1884,1884,1872,1872,1861,1850,1850,1844,1833,1833,1828,1828,1817,1812,1812,1801,1801,1791,1781,1781,1770,1770,1755,1745,1745,1731,1716,1716,1707,1707,1697,1679,1679,1665,1665,1648,1635,1635,1617,1617,1605,1588,1588,1576,1576,1560,1549,1549,1541,1533,1533,1526,1526,1518,1514,1514,1511,1511,1511,1511,1511,1511,1514,1518,1518,1518,1526,1526,1529,1529,1545,1564,1564,1584,1613,1613,1639,1670,1670,1693,1716,1716,1736,1750,1750,1760,1765,1765,1765,1760,1755,1755,1745,1731,1731,1721,1721,1707,1688,1688,1679,1679,1665,1665,1665,1665,1665,1665,1661,1661,1652,1643,1643,1630,1630,1622,1605,1605,1597,1597,1584,1572,1572,1560,1552,1552,1541,1541,1533,1526,1526,1518,1518,1518,1518,0,0,1556,1556,1556,1560,1572,1572,1576,1580,1580,1597,1597,1617,0,0,4413,4413,4413,4413,4413,4382,4382,4382,4351,4351,4321,4321,4321,4321,4351,4351,4351,4413,4413,4382
0,0,1721,1721,1721,1721,1721,1721,1721,1731,1731,1731,1740,1740,1745,1750,1750,1760,1770,1770,1781,1781,1791,1801,1801,1812,1828,1828,1839,1855,1855,1867,1867,1884,1901,1901,1913,1925,1925,1937,1937,1937,1943,1949,1949,1955,1955,1949,1949,1949,1949,1943,1937,1937,1931,1925,1925,1925,1925,1919,1919,1925,1925,1925,1925,1925,1931,1937,1937,1937,1937,1931,1931,1931,1937,1943,1943,1943,1943,1943,1943,1943,1943,1943,1943,1949,1949,1943,1943,1937,1931,1931,1925,1925,1925,1925,1925,1919,1919,1919,1919,1919,1913,1913,1913,1913,1913,1907,1901,1901,1895,1889,1889,1889,1889,1884,1884,1884,1884,1884,0,0,0,0,0,0,0,0,0,0,0,0,0,0,0,0,0,0,0,0,0,0,0,0,0,0,0,0,0,0,0,0,0,0,0,0,0,0,0,0,0,0,1993,1993,1993,2000,2013,2013,2013,2013,2019,2019,2013,2013,2013,2013,2013,2006,2006,2006,2000,2000,2000,1993,1993,1993,1987,1987,1987,1987,1993,1993,1993,1993,1993,1993,1993,1993,1993,1987,1987,1987,1987,1987,1987,1987,1987,1980,1980,1974,1968,1968,1955,1955,1949,1943,1943,1931,1925,1925,1913,1913,1907,1907,1907,1907,1907,1907,1901,1901,1895,1889,1889,1884,1884,1884,1884,1884,1878,1878,1884,1884,1884,1889,1889,1901,1901,1913,1919,1919,1937,1955,1955,1968,1993,1993,2013,2013,2026,2039,2039,2046,2053,2053,2053,2053,2053,2053,2053,2053,2053,2053,2053,2053,2046,2046,2046,2039,2039,2039,2039,2039,2032,2032,2026,2013,2013,2006,2006,1993,1987,1987,1974,1968,1968,1949,1949,1949,1937,1937,1937,1937,1937,1931,1931,1931,1943,1943,1943,1949,1955,1955,1968,1968,1980,1993,1993,0,0,0,0,0,0,0,0,0,0,0,0,0,0,0,0,0,0,0,0,0,0,0,0,0,0,0,0,0,0,0,0,0,0,0,0,0,0,0,0,0,0,0,0,0,0,0,0,0,0,0,0,0,0,0,0,0,0,0,0,0,0,0,0,0,0,1955,1955,1955,1955,1955,1955,1961,1968,1968,1968,1974,1974,1980,1974,1974,1980,1980,1980,1980,1980,1987,1987,1987,1987,1987,1993,1993,1993,1993,1993,2000,2000,2000,2000,2006,2006,2006,2006,2006,2013,2013,2013,2013,2013,2013,2000,1987,1987,1980,1980,1987,1980,1980,1980,1980,1980,1974,1974,1974,1974,1980,1980,1980,1980,1974,1974,1974,1968,1968,1961,1961,1961,1961,1955,1955,1943,1943,1937,1931,1931,1919,1907,1907,1895,1895,1889,1872,1872,1861,1861,1850,1844,1844,1833,1828,1828,1817,1817,1812,1801,1801,1796,1796,1786,1775,1775,1765,1755,1755,1740,1740,1731,1716,1716,1707,1707,1693,1679,1679,1665,1665,1648,1635,1635,1617,1617,1605,1588,1588,1576,1576,1560,1549,1549,1541,1533,1533,1526,1526,1522,1514,1514,1511,1511,1511,1511,1511,1511,1514,1518,1518,1518,1526,1526,1533,1533,1545,1564,1564,1584,1613,1613,1639,1674,1674,1693,1721,1721,1736,1750,1750,1760,1765,1765,1765,1760,1755,1755,1745,1731,1731,1721,1721,1707,1688,1688,1679,1679,1665,1665,1665,1665,1665,1665,1661,1661,1652,1643,1643,1630,1630,1622,1605,1605,1597,1588,1584,1572,1572,1560,1552,1552,1541,1541,1533,1526,1526,1518,1518,1518,1518,1526,1526,1537,1549,1549,1552,1560,1560,1568,1568,1576,1597,1597,1617,0,0,4477,4477,4477,4477,4477,4477,4477,4477,4477,4477,4477,4477,4477,4477,4477,4477,4477,4477,4477,4477
0,0,1721,1721,1721,1721,1721,1721,1721,1731,1731,1736,1740,1740,1745,1750,1750,1760,1770,1770,1781,1781,1791,1801,1801,1812,1828,1828,1839,1850,1850,1861,1867,1878,1895,1895,1913,1925,1925,1937,1937,1937,1943,1949,1949,1955,1955,1949,1949,1949,1943,1943,1937,1937,1931,1925,1925,1919,1919,1919,1919,1919,1919,1919,1919,1919,1925,1925,1925,1931,1925,1925,1931,1931,1931,1937,1937,1943,1943,1943,1943,1943,1943,1943,1943,1949,1949,1943,1943,1937,1931,1931,1925,1925,1925,1925,1925,1919,1919,1919,1919,1919,1913,1913,1913,1913,1913,1907,1901,1901,1895,1889,1889,1889,1889,1884,1878,1878,1867,1867,0,0,0,0,0,0,0,0,0,0,0,0,0,0,0,0,0,0,0,0,0,0,0,0,0,0,0,0,0,0,0,0,0,0,0,0,0,0,0,0,0,0,1980,1980,1980,1987,1993,1993,2000,2000,2013,2013,2013,2013,2013,2006,2006,2000,2000,2000,2000,2000,2000,1993,1993,1993,1987,1987,1987,1987,1993,1993,1993,1993,1993,1993,1993,1993,1993,1987,1987,1987,1987,1987,1987,1987,1987,1980,1980,1974,1968,1968,1955,1955,1955,1943,1943,1931,1925,1925,1913,1913,1907,1907,1907,1907,1907,1907,1901,1901,1895,1889,1889,1884,1884,1884,1884,1884,1878,1878,1884,1884,1884,1889,1889,1901,1901,1913,1919,1919,1937,1955,1955,1980,2000,2000,2019,2026,2026,2039,2039,2046,2053,2053,2053,2053,2053,2060,2060,2060,2060,2060,2053,2053,2046,2046,2046,2039,2039,2039,2039,2039,2032,2032,2032,2013,2013,2006,2006,1993,1987,1987,1974,1968,1968,1949,1949,1949,1937,1937,1937,1937,1937,1931,1931,1931,1943,1943,1943,1949,1955,1955,1968,1968,1980,1993,1993,2006,2019,2019,2039,0,0,0,0,0,0,0,0,0,0,0,0,0,0,0,0,0,0,0,0,0,0,0,0,0,0,0,0,0,0,0,0,0,0,0,0,0,0,0,0,0,0,0,0,0,0,0,0,0,0,0,0,0,0,1980,1974,1974,1974,0,0,0,0,1955,1955,1955,1955,1955,1955,1961,1968,1968,1968,1974,1974,1980,1974,1974,1980,1980,1980,1980,1980,1987,1987,1987,1993,1993,1993,2000,2000,2000,2000,2000,2000,2000,2000,2006,2006,2006,2006,2006,2013,2013,2013,2013,2006,2006,2000,1987,1987,1980,1974,1974,1974,1974,1968,1955,1955,1949,1949,1949,1949,1949,1949,1949,1949,1943,1943,1943,1937,1937,1937,1943,1943,1943,1943,1943,1937,1937,1931,1919,1919,1913,1901,1901,1889,1889,1878,1867,1867,1855,1855,1844,1833,1833,1828,1828,1828,1817,1817,1812,1801,1801,1796,1796,1786,1775,1775,1765,1755,1755,1740,1740,1731,1716,1716,1707,1707,1693,1679,1679,1665,1665,1648,1635,1635,1617,1617,1605,1588,1588,1576,1560,1560,1549,1549,1541,1533,1533,1526,1526,1522,1514,1514,1511,1511,1511,1511,1511,1511,1514,1514,1514,1518,1526,1526,1529,1529,1541,1560,1560,1584,1613,1613,1639,1670,1670,1693,1716,1716,1736,1750,1750,1765,1770,1765,1765,1760,1755,1755,1745,1731,1731,1721,1721,1707,1688,1688,1679,1679,1670,1670,1670,1670,1670,1670,1665,1665,1661,1648,1648,1639,1639,1622,1609,1609,1597,1588,1588,1572,1572,1560,1552,1552,1545,1545,1537,1526,1526,1518,1518,1518,1522,1526,1526,1537,1549,1549,1552,1560,1560,1568,1568,1576,1592,1592,1613,0,0,4477,4477,4477,4477,4477,4477,4477,4477,4477,4477,4477,4477,4477,4477,4477,4477,4477,4477,4477,4477
0,0,1721,1721,1721,1721,1721,1721,1721,1731,1731,1736,1740,1740,1745,1755,1755,1760,1775,1775,1781,1781,1796,1807,1807,1817,1823,1823,1839,1850,1850,1855,1878,1878,1889,1889,1907,1919,1919,1925,1937,1937,1943,1955,1955,1955,1955,1955,1955,1949,1943,1943,1943,1943,1931,1925,1925,1919,1919,1919,1919,1919,1919,1919,1919,1919,1925,1925,1925,1931,1925,1925,1931,1931,1931,1937,1937,1943,1943,1943,1943,1943,1943,1943,1943,1949,1949,1943,1943,1937,1931,1931,1925,1925,1925,1925,1925,1919,1913,1913,1907,1907,1907,1901,1901,1901,1901,1901,1895,1895,1889,1884,1884,1878,1878,1872,1867,1867,1861,1850,1850,1839,1839,1839,0,0,0,0,0,0,0,1807,1807,0,0,0,0,0,0,0,0,0,0,0,0,0,0,0,0,0,0,0,0,0,0,0,0,0,0,0,0,0,1980,1980,1980,1987,1993,1993,2000,2000,2013,2013,2013,2013,2013,2006,2006,2000,2000,2000,2000,1993,1993,1987,1987,1987,1987,1987,1987,1987,1993,1993,1993,1987,1987,1993,1987,1987,1987,1980,1980,1980,1980,1980,1980,1980,1980,1974,1974,1968,1961,1961,1955,1949,1949,1943,1943,1937,1931,1931,1925,1925,1919,1919,1919,1919,1913,1913,1913,1913,1901,1901,1901,1895,1889,1889,1889,1889,1884,1884,1884,1884,1889,1895,1895,1907,1907,1919,1931,1931,1943,1961,1961,1980,2000,2000,2019,2026,2026,2039,2039,2046,2053,2053,2060,2060,2060,2060,2060,2060,2060,2060,2053,2053,2053,2053,2046,2039,2039,2039,2039,2039,2032,2032,2026,2013,2013,2006,1993,1993,1980,1980,1974,1955,1955,1949,1949,1943,1937,1937,1937,1931,1931,1931,1931,1931,1937,1943,1943,1949,1955,1955,1968,1968,1980,1993,1993,2006,2019,2019,2032,2046,2046,2053,2066,2066,0,0,0,0,0,0,0,0,0,0,0,0,0,0,0,0,0,0,0,0,0,0,0,0,0,0,0,0,0,0,0,0,0,0,0,0,0,0,0,0,0,0,0,0,0,0,0,0,0,1980,1974,1974,1961,1961,1955,1949,1949,1949,1949,1949,1949,1955,1955,1955,1961,1961,1968,1974,1974,1974,1974,1974,1980,1980,1980,1980,1980,1987,1987,1987,1987,1987,1993,2000,2000,2000,2000,2000,2000,2000,2006,2006,2006,2000,2000,2000,2006,2006,2006,2006,2000,2000,1987,1974,1974,1968,1961,1961,1955,1955,1943,1931,1931,1919,1919,1949,1949,1949,1949,1949,1949,1943,1943,1943,1937,1937,1937,1943,1943,1943,1943,1943,1937,1937,1931,1919,1919,1913,1901,1901,1889,1889,1878,1867,1867,1855,1855,1844,1833,1833,1828,1817,1817,1812,1812,1807,1796,1796,1791,1791,1781,1770,1770,1760,1750,1750,1740,1740,1726,1716,1716,1707,1707,1693,1679,1679,1665,1665,1648,1635,1635,1617,1617,1605,1588,1588,1576,1560,1560,1549,1549,1541,1533,1533,1526,1526,1522,1514,1514,1514,1511,1511,1511,1511,1511,1514,1514,1514,1518,1526,1526,1529,1529,1541,1560,1560,1584,1613,1613,1639,1670,1670,1693,1716,1716,1736,1755,1755,1765,1770,1765,1765,1760,1755,1755,1750,1731,1731,1721,1721,1707,1688,1688,1679,1679,1670,1670,1670,1670,1670,1670,1665,1665,1661,1648,1648,1639,1639,1622,1609,1609,1597,1588,1588,1572,1572,1560,1552,1552,1545,1545,1537,1526,1526,1518,1518,1518,1518,1522,1522,1529,1537,1537,1541,1556,1556,1564,1568,1572,1588,1588,1609,0,0,4543,4543,4543,4543,4543,4543,4543,4543,4543,4543,4577,4577,4611,4611,4577,4577,4577,4577,4577,4510
1721,1721,1721,1721,1721,1721,1721,1721,1721,1731,1736,1736,1745,1745,1750,1755,1755,1760,1775,1775,1786,1796,1796,1807,1807,1817,1823,1823,1839,1850,1850,1855,1878,1878,1889,1889,1907,1919,1919,1925,1937,1937,1943,1955,1955,1955,1955,1955,1955,1949,1943,1943,1943,1943,1931,1925,1925,1919,1919,1919,1919,1919,1919,1919,1919,1919,1919,1925,1925,1925,1925,1925,1925,1925,1925,1931,1931,1937,1937,1937,1937,1937,1937,1943,1943,1943,1943,1943,1943,1943,1931,1931,1931,1931,1925,1925,1925,1919,1913,1913,1907,1907,1901,1901,1901,1901,1901,1901,1895,1895,1889,1884,1884,1878,1878,1872,1867,1867,1861,1850,1850,1839,1839,1839,0,0,0,0,0,0,0,1807,1807,0,0,0,0,0,0,0,0,0,0,0,0,0,0,0,0,0,0,0,0,0,0,1872,1872,0,0,1925,1925,1925,1943,1961,1961,1974,1980,1980,1987,1987,1993,2000,2000,2000,2000,1993,1993,1993,1993,1993,1993,1993,1993,1987,1987,1987,1980,1980,1980,1980,1987,1987,1987,1987,1987,1987,1980,1980,1980,1980,1980,1974,1974,1974,1974,1980,1980,1974,1974,1968,1961,1961,1955,1949,1949,1943,1943,1937,1937,1937,1931,1931,1931,1925,1925,1925,1919,1919,1913,1913,1913,1907,1907,1901,1895,1895,1895,1895,1889,1884,1884,1884,1889,1895,1895,1907,1907,1919,1931,1931,1943,1961,1961,1980,2000,2000,2013,2026,2026,2039,2039,2046,2053,2053,2053,2060,2060,2060,2060,2060,2060,2060,2053,2053,2053,2053,2046,2046,2046,2046,2039,2039,2032,2032,2026,2013,2013,2006,1993,1993,1980,1980,1968,1955,1955,1943,1943,1937,1931,1931,1931,1931,1931,1931,1937,1937,1937,1943,1943,1949,1961,1961,1968,1980,1980,1993,1993,2006,2019,2019,2032,2046,2046,2053,2066,2066,0,0,0,0,0,0,0,0,0,0,0,0,0,0,0,0,0,0,0,0,0,0,0,0,0,0,0,0,0,0,0,0,0,0,2039,2039,2039,2039,0,0,0,0,0,0,0,0,2006,1993,1993,1974,1968,1968,1961,1961,1955,1949,1949,1949,1949,1949,1949,1949,1949,1955,1961,1961,1968,1968,1968,1968,1968,1968,1974,1974,1980,1980,1980,1980,1980,1987,1987,1987,1993,2000,2000,2000,2000,2000,2000,2000,2006,2006,2006,2000,2000,2000,2006,2006,2006,2006,2000,2000,1987,1974,1974,1968,1961,1961,1955,1955,1943,1931,1931,1919,1913,1913,1913,1913,1913,1913,1913,1907,1907,1907,1907,1913,1913,1919,1925,1925,1925,1925,1925,1925,1919,1913,1913,1907,1895,1895,1884,1884,1872,1855,1855,1844,1844,1833,1823,1823,1817,1812,1812,1807,1807,1796,1791,1791,1781,1781,1775,1765,1765,1755,1745,1745,1736,1736,1726,1716,1716,1702,1702,1693,1679,1679,1665,1665,1648,1635,1635,1617,1617,1605,1588,1588,1576,1560,1560,1552,1552,1541,1533,1533,1526,1526,1522,1518,1518,1514,1511,1511,1511,1511,1511,1514,1518,1518,1518,1526,1526,1529,1529,1541,1556,1556,1580,1605,1605,1635,1665,1665,1693,1716,1716,1736,1755,1755,1765,1765,1765,1765,1760,1755,1755,1745,1731,1731,1716,1716,1707,1684,1684,1674,1674,1665,1665,1670,1670,1670,1670,1670,1670,1661,1648,1648,1639,1639,1626,1613,1613,1601,1588,1588,1572,1572,1560,1556,1556,1533,1533,1526,1514,1514,1507,1507,1507,1518,1522,1522,1529,1537,1537,1541,1556,1556,1564,1572,1572,1588,1588,1609,0,0,4577,4577,4577,4577,4577,4577,4577,4577,4577,4611,4681,4681,4681,4681,4646,4646,4646,4611,4611,4577
1721,1721,1721,1721,1721,1721,1721,1721,1721,1731,1736,1736,1745,1745,1750,1755,1755,1760,1775,1775,1786,1796,1796,1807,1807,1812,1823,1823,1828,1839,1839,1855,1867,1867,1884,1884,1895,1907,1907,1919,1931,1931,1943,1949,1949,1955,1949,1949,1949,1949,1943,1943,1937,1937,1931,1931,1931,1925,1919,1919,1919,1919,1913,1913,1913,1913,1913,1925,1925,1925,1925,1925,1925,1925,1925,1931,1931,1937,1937,1937,1937,1937,1937,1943,1943,1943,1943,1943,1943,1943,1937,1937,1931,1931,1925,1925,1925,1919,1913,1913,1907,1907,1901,1901,1901,1895,1895,1895,1889,1889,1889,1878,1878,1872,1872,1872,1867,1867,1861,1850,1850,1839,1839,1833,1823,1823,1817,1817,1823,1817,1817,1807,1807,1817,1817,1823,1828,1828,1833,1833,0,0,0,0,0,0,0,0,1861,1861,1861,1861,1861,1861,1867,1872,1872,0,1895,1895,1919,1919,1931,1943,1943,1949,1961,1961,1987,1987,1993,2000,2000,2000,2000,1993,1993,1993,1993,1993,1993,1993,1993,1987,1987,1987,1980,1980,1980,1980,1987,1987,1987,1987,1987,1987,1980,1980,1980,1980,1980,1974,1974,1974,1974,1974,1974,1961,1961,1961,1955,1955,1949,1949,1949,1943,1943,1937,1931,1931,1931,1931,1931,1925,1925,1925,1919,1919,1913,1913,1913,1907,1907,1901,1895,1895,1895,1895,1889,1889,1889,1889,1895,1901,1901,1913,1919,1919,1937,1937,1949,1961,1961,1980,2000,2000,2013,2026,2026,2032,2032,2039,2046,2046,2053,2053,2053,2060,2060,2060,2060,2060,2053,2053,2053,2053,2046,2046,2046,2046,2039,2039,2032,2032,2026,2013,2013,2006,1993,1993,1980,1980,1968,1955,1955,1943,1943,1937,1931,1931,1931,1931,1931,1931,1931,1931,1931,1943,1943,1949,1955,1955,1961,1980,1980,1993,1993,2006,2019,2019,2026,2046,2046,2053,2060,2060,2066,2066,2066,0,0,0,0,0,0,0,0,0,0,0,0,0,0,0,0,0,0,0,0,0,0,0,0,0,0,2019,2019,2019,2026,2026,2026,2032,2032,2039,2039,2039,2039,2039,0,0,0,0,2006,1993,1993,1974,1968,1968,1961,1961,1955,1949,1949,1949,1949,1949,1949,1949,1949,1955,1961,1961,1968,1968,1968,1968,1968,1968,1974,1974,1980,1987,1980,1980,1980,1987,1987,1987,1993,1993,1993,2000,2000,2000,2000,2000,2000,2000,2000,2000,2000,2000,2006,2006,2006,2006,2000,1987,1987,1968,1968,1961,1955,1955,1937,1937,1925,1907,1907,1901,1901,1889,1889,1895,1889,1884,1884,1884,1884,1884,1884,1889,1889,1901,1913,1913,1913,1913,1913,1913,1913,1901,1901,1895,1889,1889,1884,1884,1872,1855,1855,1844,1844,1833,1823,1823,1817,1812,1812,1807,1807,1796,1791,1791,1781,1781,1775,1765,1765,1755,1745,1745,1736,1736,1726,1716,1716,1702,1702,1693,1679,1679,1661,1661,1648,1635,1635,1617,1605,1605,1588,1588,1576,1560,1560,1552,1552,1541,1533,1533,1526,1526,1522,1518,1518,1514,1511,1511,1511,1511,1511,1514,1514,1514,1518,1522,1522,1529,1529,1537,1552,1552,1576,1601,1601,1626,1661,1661,1688,1712,1712,1731,1755,1755,1765,1765,1760,1760,1760,1755,1755,1740,1726,1726,1716,1716,1716,1684,1684,1674,1674,1665,1665,1670,1670,1670,1670,1670,1670,1661,1648,1648,1639,1639,1626,1613,1613,1601,1588,1588,1572,1572,1560,1560,0,1533,1533,1526,1514,1514,1507,1507,1507,1511,1511,1511,1514,1526,1526,1529,1541,1541,1549,1549,1572,1588,1588,1609,4543,4543,4543,4577,4577,4577,4577,4577,4577,4577,4577,4611,4681,4681,4681,4681,4646,4646,4646,4611,4611,4577
1721,1721,1721,1721,1721,1721,1726,1726,1726,1731,1740,1740,1745,1745,1755,1760,1760,1765,1775,1775,1786,1791,1791,1796,1796,1807,1812,1812,1817,1828,1828,1855,1867,1867,1884,1884,1895,1907,1907,1919,1931,1931,1943,1949,1949,1955,1949,1949,1949,1949,1943,1943,1937,1937,1931,1931,1931,1925,1919,1919,1919,1919,1913,1913,1913,1913,1913,1919,1919,1919,1919,1919,1919,1919,1919,1925,1925,1931,1931,1937,1937,1937,1937,1937,1937,1943,1943,1943,1943,1943,1937,1937,1931,1931,1925,1925,1925,1919,1913,1913,1907,1907,1901,1895,1895,1895,1895,1895,1889,1889,1884,1878,1878,1872,1872,1867,1861,1861,1855,1850,1850,1839,1839,1833,1823,1823,1817,1817,1823,1817,1817,1812,1812,1817,1817,1823,1828,1828,1833,1833,0,0,0,0,0,0,0,0,1861,1861,1861,1861,1861,1861,1867,0,0,0,1895,1895,1919,1919,1931,1943,1943,1949,1961,1961,1968,1968,1974,1987,1987,1987,1993,1987,1987,1987,1987,1987,1987,1987,1987,1980,1980,1980,1980,1980,1974,1974,1980,1980,1980,1980,1980,1980,1974,1974,1974,1968,1968,1968,1961,1961,1961,1961,1961,1955,1955,1949,1949,1949,1949,1943,1943,1943,1943,1937,1931,1931,1931,1931,1931,1931,1931,1931,1931,1931,1925,1919,1919,1913,1913,1907,1901,1901,1895,1895,1895,1895,1895,1895,1901,1907,1907,1913,1925,1925,1937,1937,1949,1961,1961,1980,2000,2000,2013,2026,2026,2032,2032,2039,2046,2046,2053,2053,2053,2060,2060,2060,2060,2060,2053,2053,2053,2053,2046,2046,2046,2046,2039,2039,2032,2032,2026,2013,2013,2006,1993,1993,1980,1980,1968,1955,1955,1943,1943,1931,1925,1925,1925,1925,1925,1925,1925,1925,1931,1937,1937,1943,1955,1955,1961,1980,1980,1987,1987,2006,2019,2019,2026,2039,2039,2046,2060,2060,2060,2060,2066,2066,2066,0,0,0,0,0,0,0,0,0,0,0,0,0,0,0,0,0,0,0,0,0,0,0,0,2019,2019,2019,2026,2026,2026,2032,2032,2039,2039,2039,2039,2039,2026,2026,2019,2006,2006,1987,1987,1974,1968,1968,1961,1961,1955,1949,1949,1943,1937,1937,1937,1943,1943,1949,1955,1955,1961,1961,1961,1968,1968,1968,1974,1974,1974,1980,1980,1980,1980,1987,1987,1987,1993,1993,1993,2000,2000,2000,2000,2000,2000,2000,2000,2006,2006,2006,2006,2006,2006,2006,1993,1980,1980,1968,1968,1961,1955,1955,1937,1937,1925,1907,1907,1901,1901,1889,1889,1895,1889,1884,1884,1884,1884,1884,1884,1889,1889,1901,1913,1913,1913,1913,1913,1913,1913,1901,1901,1895,1889,1889,1872,1872,1861,1850,1850,1833,1833,1828,1817,1817,1807,1801,1801,1796,1796,1791,1781,1781,1775,1775,1770,1760,1760,1755,1745,1745,1736,1736,1726,1712,1712,1702,1702,1693,1679,1679,1661,1661,1648,1635,1635,1617,1605,1605,1588,1588,1576,1564,1564,1552,1552,1545,1533,1533,1526,1526,1522,1518,1518,1514,1511,1511,1511,1511,1511,1514,1514,1514,1518,1522,1522,1529,1529,1537,1552,1552,1576,1601,1601,1626,1661,1661,1688,1712,1712,1731,1755,1755,1765,1765,1760,1760,1760,1755,1755,1740,1726,1726,1716,1716,1716,1684,1684,1674,1674,1665,1665,1670,1670,1670,1670,1670,1670,1661,1648,1648,1639,1630,1626,1613,1613,1601,1584,1584,1564,1564,1552,1552,0,1526,1526,1514,1503,1503,1500,1500,1500,1500,1500,1500,1507,1511,1511,1518,1529,1529,1549,1549,0,0,0,0,4543,4543,4543,4577,4577,4577,4577,4577,4577,4577,4577,4611,4681,4681,4716,4716,4681,4681,4681,4646,4646,4611
1721,1721,1721,1721,1726,1726,1726,1726,1726,1731,1740,1740,1745,1745,1755,1760,1760,1765,1775,1775,1786,1791,1791,1796,1796,1807,1812,1812,1817,1828,1828,1839,1850,1850,1872,1872,1884,1901,1901,1913,1925,1925,1931,1943,1943,1949,1949,1949,1949,1943,1943,1943,1937,1937,1931,1925,1925,1919,1913,1913,1913,1913,1913,1913,1913,1913,1913,1919,1919,1919,1919,1919,1919,1919,1919,1925,1925,1931,1931,1931,1937,1937,1937,1937,1937,1943,1943,1943,1943,1937,1937,1937,1931,1931,1931,1925,1925,1919,1913,1913,1907,1907,1901,1895,1895,1895,1895,1895,1889,1889,1884,1878,1878,1872,1872,1867,1861,1861,1855,1850,1850,1839,1839,1833,1828,1828,1823,1823,1823,1817,1817,1812,1812,1817,1817,1823,1828,1828,1833,1833,1850,1855,1855,1861,1867,1867,1872,1872,1861,1861,1861,1861,1861,1861,1867,0,1884,1884,1884,1895,1913,1913,1925,1931,1931,1937,1943,1943,1955,1955,1961,1974,1974,1974,1974,1974,1974,1974,1980,1980,1980,1980,1980,1980,1980,1980,1980,1980,1974,1974,1980,1974,1974,1974,1980,1980,1974,1974,1974,1968,1968,1968,1961,1961,1961,1961,1961,1955,1955,1949,1949,1949,1949,1943,1943,1943,1943,1937,1937,1937,1937,1937,1937,1937,1943,1937,1937,1937,1925,1919,1919,1913,1913,1907,1901,1901,1895,1895,1895,1895,1895,1895,1901,1907,1907,1913,1925,1925,1937,1937,1949,1961,1961,1980,1993,1993,2006,2019,2019,2026,2026,2039,2039,2039,2046,2053,2053,2053,2053,2053,2060,2060,2060,2060,2060,2053,2053,2053,2053,2046,2039,2039,2032,2032,2026,2013,2013,2000,1987,1987,1980,1980,1968,1955,1955,1943,1943,1931,1925,1925,1925,1925,1925,1925,1925,1925,1931,1937,1937,1943,1955,1955,1961,1980,1980,1987,1987,2006,2019,2019,2032,2039,2039,2046,2060,2060,2060,2060,2066,2066,2066,2066,0,0,0,0,0,0,0,0,0,0,0,0,0,0,0,0,0,0,0,0,2006,2006,2006,2013,2019,2019,2019,2019,2026,2032,2032,2039,2039,2039,2039,2032,2026,2026,2019,2000,2000,1987,1987,1974,1961,1961,1961,1961,1949,1943,1943,1937,1937,1937,1937,1937,1937,1943,1943,1943,1961,1961,1961,1968,1968,1968,1974,1974,1974,1980,1980,1980,1987,1987,1993,1993,1993,2000,2000,2000,2000,2000,2000,2000,2006,2006,2006,2006,2006,2006,2006,2006,2006,2006,1993,1980,1980,1968,1968,1961,1949,1949,1931,1931,1907,1901,1901,1889,1889,1878,1878,1878,1878,1872,1872,1872,1872,1872,1872,1878,1878,1889,1901,1901,1907,1907,1907,1907,1901,1901,1901,1889,1884,1884,1872,1872,1855,1844,1844,1828,1828,1817,1812,1812,1801,1796,1796,1791,1791,1786,1775,1775,1770,1770,1760,1755,1755,1750,1745,1745,1736,1736,1726,1712,1712,1702,1702,1693,1679,1679,1661,1661,1648,1635,1635,1617,1605,1605,1592,1592,1576,1564,1564,1552,1552,1545,1537,1537,1529,1529,1522,1518,1518,1514,1511,1511,1511,1511,1511,1511,1514,1514,1518,1522,1522,1526,1529,1533,1549,1549,1572,1597,1597,1622,1652,1652,1684,1707,1707,1731,1755,1755,1765,1765,1760,1755,1755,1750,1750,1740,1721,1721,1721,0,0,1684,1684,1670,1670,1665,1665,1665,1665,1670,1670,1670,1670,1661,1652,1652,1643,1630,1630,1617,1617,1605,1580,1580,1564,1564,1552,1552,0,1526,1526,1514,1503,1503,1500,1500,1500,1500,1500,1500,1507,1511,1511,1518,1529,1529,0,0,0,0,0,0,0,0,4611,4611,4611,4611,4611,4611,4611,4611,4611,4646,4681,4681,4716,4716,4681,4681,4681,4646,4646,4611
1721,1721,1721,1721,1726,1726,1726,1726,1726,1731,1740,1740,1745,1745,1755,1760,1760,1765,1775,1775,1781,1786,1786,1796,1796,1796,1801,1801,1812,1823,1823,1833,1844,1844,1861,1861,1878,1889,1889,1901,1907,1907,1925,1931,1931,1937,1937,1937,1937,1937,1937,1937,1931,1931,1925,1925,1925,1919,1913,1913,1913,1913,1913,1913,1919,1919,1919,1919,1919,1919,1919,1919,1919,1919,1919,1931,1931,1931,1931,1931,1937,1937,1937,1943,1943,1943,1943,1943,1943,1937,1937,1937,1931,1931,1925,1925,1925,1919,1913,1913,1907,1907,1901,1895,1895,1889,1889,1889,1884,1884,1884,1872,1872,1867,1867,1867,1861,1861,1855,1844,1844,1839,1839,1833,1828,1828,1823,1823,1823,1817,1817,1817,1817,1823,1823,1828,1833,1833,1844,1844,1850,1855,1855,1861,1867,1867,1872,1872,1867,1867,1867,1867,1867,1867,1872,0,1884,1884,1884,1895,1913,1913,1925,1931,1931,1937,1943,1943,1955,1955,1961,1974,1974,1974,1974,1974,1974,1974,1980,1980,1980,1980,1980,1980,1980,1980,1980,1980,1980,1980,1980,1974,1974,1974,1980,1980,1974,1968,1968,1961,1961,1955,1955,1955,1955,1949,1949,1949,1949,1943,1943,1943,1943,1943,1943,1943,1943,1937,1937,1937,1937,1937,1937,1937,1943,1937,1937,1937,1931,1925,1925,1919,1919,1913,1907,1907,1901,1901,1901,1895,1895,1895,1901,1907,1907,1919,1925,1925,1937,1937,1949,1955,1955,1974,1987,1987,2006,2019,2019,2026,2026,2039,2039,2039,2046,2053,2053,2053,2053,2053,2060,2060,2060,2060,2060,2053,2053,2053,2053,2046,2039,2039,2032,2032,2026,2019,2019,2000,1987,1987,1980,1980,1961,1949,1949,1937,1937,1931,1925,1925,1919,1919,1919,1919,1919,1919,1925,1931,1931,1943,1949,1949,1961,1980,1980,1987,1987,2000,2019,2019,2032,2039,2039,2046,2053,2053,2053,2053,2060,2060,2060,2053,2053,2053,0,0,0,0,0,0,0,0,0,0,0,0,0,0,0,0,0,2006,2006,2006,2006,2013,2019,2019,2019,2019,2026,2032,2032,2039,2039,2039,2039,2032,2026,2026,2019,2000,2000,1987,1987,1974,1961,1961,1961,1961,1949,1943,1943,1937,1937,1937,1937,1937,1937,1943,1943,1943,1949,1955,1955,1961,1961,1961,1968,1968,1974,1980,1980,1980,1987,1987,1993,1993,1993,2000,2000,2000,2000,2000,2000,2000,2006,2006,2006,2006,2006,2006,2006,2006,2006,2006,1993,1980,1980,1968,1968,1961,1943,1943,1931,1931,1907,1895,1895,1884,1878,1878,1867,1867,1867,1867,1867,1867,1867,1867,1867,1867,1867,1878,1901,1901,1907,1907,1907,1907,1901,1901,1901,1889,1884,1884,1872,1872,1855,1844,1844,1828,1828,1817,1812,1812,1801,1796,1796,1791,1791,1786,1775,1775,1770,1770,1760,1755,1755,1750,1740,1740,1731,1731,1721,1712,1712,1702,1702,1688,1679,1679,1661,1648,1648,1635,1635,1617,1605,1605,1592,1592,1576,1564,1564,1552,1552,1545,1537,1537,1529,1529,1522,1518,1518,1514,1511,1511,1511,1511,1511,1511,1511,1511,1514,1518,1518,1522,1529,1529,1545,1545,1568,1597,1597,1622,1648,1648,1674,1707,1707,1731,1755,1755,1765,1765,1760,1755,1755,1750,1750,1740,1721,1721,1721,0,0,1684,1684,1670,1670,1665,1665,1665,1665,1670,1670,1670,1670,1661,1652,1652,1643,1635,1635,1617,1617,1605,1580,1580,1560,1560,1545,1529,1529,1514,1514,1503,1492,1492,1489,1489,1489,1492,1496,1496,1500,1500,1500,1503,1514,1514,0,0,0,0,0,0,0,0,4611,4611,4611,4611,4611,4611,4611,4611,4611,4646,4753,4753,4753,4753,4753,4753,4716,4681,4681,4646
0,1721,1721,1721,1721,1721,1726,1726,1726,1736,1740,1740,1750,1750,1755,1760,1760,1765,1775,1775,1781,1786,1786,1796,1796,1796,1801,1801,1812,1823,1823,1833,1844,1844,1861,1861,1878,1889,1889,1901,1907,1907,1925,1931,1931,1937,1937,1937,1937,1937,1937,1937,1931,1931,1925,1925,1925,1919,1913,1913,1913,1913,1913,1913,1913,1913,1913,1919,1919,1919,1919,1919,1919,1919,1919,1925,1925,1931,1931,1931,1937,1937,1937,1937,1937,1937,1937,1937,1937,1937,1931,1931,1925,1925,1925,1925,1925,1919,1913,1913,1901,1901,1895,1895,1895,1889,1889,1889,1884,1884,1884,1872,1872,1867,1867,1867,1861,1861,1855,1844,1844,1839,1839,1833,1828,1828,1823,1823,1823,1817,1817,1817,1817,1823,1823,1833,1844,1844,1850,1850,1855,1861,1861,1867,1872,1872,1878,1878,1872,1872,1872,1872,1872,1872,1872,1878,1878,1884,1884,1889,1901,1901,1913,1919,1919,1925,1931,1931,1937,1937,1943,1955,1955,1961,1961,1961,1961,1961,1968,1974,1974,1974,1980,1980,1980,1980,1980,1980,1980,1974,1974,1974,1974,1974,1974,1974,1968,1968,1968,1961,1961,1949,1949,1949,1949,1949,1949,1943,1943,1943,1937,1937,1937,1943,1943,1943,1943,1943,1943,1943,1943,1943,1943,1943,1949,1949,1943,1943,1937,1931,1931,1925,1925,1919,1913,1913,1907,1901,1901,1901,1901,1901,1901,1907,1907,1919,1925,1925,1937,1937,1949,1955,1955,1974,1987,1987,2000,2006,2006,2013,2013,2026,2032,2032,2039,2046,2046,2046,2053,2053,2053,2053,2053,2053,2053,2053,2053,2053,2053,2046,2039,2039,2032,2032,2026,2013,2013,2000,1987,1987,1974,1974,1961,1949,1949,1937,1937,1925,1919,1919,1913,1913,1913,1913,1919,1919,1919,1931,1931,1937,1949,1949,1961,1980,1980,1993,1993,2000,2019,2019,2032,2039,2039,2046,2053,2053,2053,2053,2060,2060,2060,2053,2053,2053,0,0,0,0,0,0,0,0,0,0,0,0,0,0,0,0,0,2006,2006,2006,2006,2013,2013,2013,2019,2019,2026,2032,2032,2032,2032,2032,2032,2032,2026,2026,2013,2000,2000,1987,1987,1974,1961,1961,1955,1955,1949,1943,1943,1937,1937,1937,1937,1937,1937,1943,1943,1943,1949,1949,1949,1955,1955,1961,1968,1968,1968,1980,1980,1980,1987,1987,1993,1993,2000,2000,2000,2006,2006,2006,2006,2006,2006,2006,2006,2006,2013,2006,2006,2006,2006,2006,2000,1980,1980,1974,1974,1961,1943,1943,1931,1931,1913,1895,1895,1884,1878,1878,1867,1867,1867,1867,1867,1867,1867,1867,1867,1867,1867,1878,1895,1895,1907,1907,1901,1901,1901,1895,1895,1889,1884,1884,1867,1867,1850,1839,1839,1823,1823,1812,1807,1807,1796,1791,1791,1786,1786,1781,1770,1770,1765,1765,1755,1750,1750,1745,1736,1736,1731,1731,1721,1712,1712,1702,1702,1688,1679,1679,1661,1648,1648,1635,1635,1622,1605,1605,1592,1592,1576,1564,1564,1552,1552,1545,1537,1537,1529,1529,1522,1518,1518,1514,1511,1511,1511,1511,1511,1511,1511,1511,1514,1518,1518,1522,1529,1529,1545,1545,1568,1597,1597,1622,1648,1648,1674,1707,1707,1731,1755,1755,1760,1760,1755,1750,1750,1745,1745,1731,1716,1716,1716,0,0,1679,1679,1670,1670,1665,1665,1665,1665,1670,1670,1665,1665,1661,1652,1652,1639,1630,1630,1617,1617,1601,1576,1576,1552,1552,1537,1522,1522,1507,1507,1496,1485,1485,1482,1482,1482,1485,1489,1489,1489,1489,1489,1492,1500,1500,0,0,0,0,0,0,0,0,4646,4646,4646,4646,4646,4646,4646,4646,4646,4681,4753,4753,4790,4790,4753,4753,4753,4716,4716,4681
